-8.149230 -4.518080 2.763640
-5.019680 11.243740 1.292470
2.942990 -11.389190 2.186230
-5.330240 -9.826630 0.264530
-2.728330 8.330060 1.943300
7.361670 4.679690 1.086070
7.561350 -10.891160 0.938280
-7.528110 -4.198110 2.455460
1.160730 -2.325330 0.397960
-8.919380 10.973450 2.462030
-3.966050 9.997970 0.425650
-0.778520 -2.216400 2.100550
-3.621300 1.373630 1.734370
-1.987980 7.639250 3.127320
-11.149860 -10.340080 0.402330
-8.570720 -7.969490 2.638700
4.572060 5.395590 3.621450
5.679780 1.648260 2.490070
-0.960660 -1.678130 2.712440
9.536320 -8.276790 1.700990
4.850490 -2.907480 2.017760
-1.444530 -10.092140 2.206580
11.066150 -0.715900 3.752020
-7.835210 -1.929960 2.648330
4.780970 0.866450 3.645190
11.977840 10.974890 2.534450
7.111610 -8.257090 0.870850
-3.260200 -8.812640 1.063250
-2.153440 -3.011770 1.843420
5.030030 5.334310 3.532570
-9.177700 6.210340 3.241920
-0.693780 2.269250 1.996420
7.589640 -9.349900 0.037540
10.563570 10.627700 2.548500
7.376910 2.532240 0.291640
11.701430 -10.680020 2.450710
6.789770 8.430570 0.969640
9.545680 2.496210 1.321740
2.741280 -3.352730 0.632500
-11.181080 4.156180 0.489190
4.632790 -5.801980 3.883270
9.232420 -8.773320 1.013630
1.590010 6.357570 1.997420
2.067450 -2.067610 0.644190
0.955260 -3.718940 0.345620
3.344250 -10.938590 2.144320
9.826880 -2.823160 1.441620
0.432490 -0.143890 2.570530
6.216340 4.726960 2.081370
3.068260 -10.297130 1.283710
-4.663870 3.543660 0.080920
-2.953410 -8.079990 1.962990
-2.638710 -8.419270 1.946300
-1.251570 4.874690 3.111070
9.208140 -2.044460 1.328900
5.606070 -2.472270 1.842310
9.804170 10.081780 1.578530
1.328690 9.428080 0.029170
6.127150 8.053210 1.957490
-11.951680 5.202420 1.893950
-5.235680 -9.811920 0.207830
10.237110 -9.590590 1.739610
-4.208540 6.234150 2.123070
0.569230 7.554400 1.756130
3.516780 1.395660 2.540690
-5.173430 1.686380 0.989080
5.515000 1.282480 2.979170
-11.288970 -0.952500 1.622380
1.190780 0.761100 1.795420
-2.746380 -10.688390 2.082630
-2.979820 4.078920 1.569130
-10.278760 -9.375440 0.247310
3.880500 3.163370 1.673710
-5.692640 -11.781660 2.150780
3.291370 -2.976690 1.162790
-9.882750 -0.447280 2.459500
-2.692970 -10.724690 2.166140
-7.622090 8.510710 2.362700
-0.959170 -9.605120 1.834930
8.651130 -5.675700 2.122330
-6.996760 -10.071060 1.856210
5.457420 -3.629020 1.851530
-0.295130 -5.618860 3.078200
10.111180 -10.049220 1.822460
-1.955370 -6.028040 3.894590
-11.049330 10.681690 0.692690
2.999390 -5.084640 2.221980
11.992570 9.366770 1.544510
2.529880 11.837220 2.171470
0.283130 8.564630 1.068320
-1.506290 -1.570450 2.998270
7.169320 8.329580 0.767490
6.177020 0.674330 2.887100
7.808990 -5.824290 1.897560
-4.116990 5.190540 1.632220
-1.281130 -7.917130 2.895230
-3.461870 2.859820 0.724600
0.391650 -0.747940 2.351380
10.617170 11.938530 3.738560
-3.984090 -4.739370 1.280670
-5.929370 -2.634920 0.779150
-10.159270 11.550210 1.856430
4.211410 -10.172970 2.144200
-11.461060 -3.592160 0.206190
11.421160 -4.359460 2.565150
6.835350 8.075010 1.256230
8.403730 -9.816060 0.222920
-9.165590 -11.113630 2.374090
-7.771520 -3.327820 2.013890
5.588680 3.705660 1.794920
1.928630 -6.063670 2.039350
-6.354330 9.996580 1.230150
10.689390 -2.907360 1.980800
6.979120 8.045980 1.168080
3.268400 -9.847530 1.214500
-6.196480 -1.618210 1.866010
-7.084680 -8.153040 2.423780
11.822130 -9.551000 1.685370
10.269420 6.636520 3.685950
-0.144980 1.376550 2.337500
-6.228890 6.036970 2.915570
-7.458490 -10.346900 2.318680
-7.794070 11.436020 3.424540
8.291920 4.055170 0.483460
-5.918080 -4.671310 1.601880
-11.621120 5.580170 1.952260
1.485930 7.346380 1.489680
-3.366260 7.899530 1.731690
-7.418150 5.793000 3.788770
-11.477500 4.776940 1.178410
6.587750 2.496450 0.901100
5.845980 -9.123130 1.468560
-6.797110 -8.572580 1.833270
3.989550 4.370670 2.414830
11.492800 5.200850 3.348180
-3.777160 -0.335360 2.350660
-0.165610 6.658220 3.095350
4.201950 7.704210 3.021750
11.422380 -1.858130 2.626890
5.292040 -11.615680 3.417780
-7.443470 -1.235210 3.246240
-11.451640 -4.329010 0.728160
11.411880 8.332930 2.453740
-0.111740 -2.347720 1.410420
-2.910200 -11.020490 2.254250
6.900050 -6.013190 2.385290
6.007320 11.022950 2.299750
-5.940480 9.138760 0.704590
11.766590 5.144770 3.136240
-5.078490 -1.530560 1.106490
-8.015780 4.366980 2.648360
10.914210 3.974100 2.323670
-5.652760 10.514630 0.947900
-0.107160 11.993320 2.947210
1.619910 -2.378030 0.278830
6.271190 3.982780 1.345420
-5.102530 -6.502850 2.051110
9.843570 3.033040 1.412540
3.357910 10.922840 2.141970
-2.980120 -11.250010 2.412470
3.136840 -7.586210 2.259830
-3.456380 -9.299200 0.698260
-10.391790 0.502400 2.053230
10.673350 -11.699390 3.595670
-10.930510 -1.904780 0.674310
8.800210 -2.411020 0.670460
5.505330 11.742950 3.381470
-6.894040 -1.673690 2.470860
-7.398640 -3.956770 2.212370
1.470280 10.238440 0.318210
-11.382660 -8.209850 0.725580
7.122040 2.327960 0.569260
-10.063470 -6.862530 2.240670
-0.535930 -1.764160 2.318480
3.595510 3.658290 1.569030
4.673430 -10.240250 2.313720
-10.622390 5.469930 1.755970
-10.834260 -7.730940 1.135710
8.251910 3.273050 0.086760
2.379700 8.763020 0.520790
-10.102020 -9.751930 0.426400
-3.846940 3.086030 0.353240
-0.575100 -9.256440 1.558050
-4.515420 -11.816920 1.751400
4.043990 0.763220 3.507430
8.278320 8.376370 0.589740
-1.256020 11.122730 3.077680
3.563930 -11.680730 3.042690
7.810480 9.421750 0.000950
-3.194290 -7.399130 2.386650
-7.984720 8.841210 2.156970
1.875120 -1.622160 0.994610
4.931070 -3.375100 2.003320
11.328360 -4.329660 2.571680
-4.749930 3.211670 0.003160
0.152460 4.858200 1.993420
-6.323390 7.524190 2.364040
10.765140 -7.192900 3.587540
-9.200540 -9.740360 1.271750
8.956000 -2.050560 1.086640
11.062650 6.669910 3.923900
-11.886360 4.973380 1.629230
-0.408500 -5.992450 3.355270
6.588020 4.055610 1.089300
-5.765790 11.634520 2.101730
-3.910050 -10.461410 0.795860
-2.861720 -0.946840 2.860490
10.881670 -8.108490 2.741750
-9.407830 -5.015210 2.315160
-3.686460 10.897280 1.383560
7.637290 3.691180 0.170640
-10.573960 10.661080 0.759280
11.861710 -5.232440 3.144700
-3.463740 6.721640 2.588810
-5.853570 10.488290 1.097670
11.805090 3.022210 1.696970
4.435150 -9.086090 2.018620
-5.326680 -7.197060 1.793500
10.047530 -5.488080 3.283490
10.187550 5.167070 3.130100
8.625040 -5.270850 1.812710
3.694570 -8.644160 1.814750
-2.760520 10.731450 2.110850
8.341980 -5.518190 1.838120
-4.333520 7.666690 1.257120
3.432740 3.969270 1.610460
6.231820 -11.621870 2.637490
9.531840 -4.592340 1.987100
7.271680 2.338180 0.470550
3.117000 5.884120 2.896830
-0.226200 0.891780 2.852300
-0.749400 4.947010 2.913670
-9.756830 1.995910 1.261590
-5.162700 -8.213980 0.747420
4.971040 -2.337960 2.272640
11.387990 -3.871830 2.178970
-10.950700 -0.905890 1.617990
8.428950 -8.574160 0.501270
8.350310 -7.421510 1.539780
8.054610 9.853620 0.110610
-10.507130 -5.836020 2.018610
10.463070 -5.961440 3.810220
4.806440 -6.573070 3.953860
8.007650 -0.545020 1.866900
5.726070 1.231790 2.861280
-5.303110 1.168390 1.561090
-8.239980 3.128010 1.926510
-4.960950 4.440700 0.762370
2.447920 -0.757860 2.086940
-10.316400 -0.756000 1.949490
-0.206990 -5.950720 3.150760
4.280570 5.384580 3.530910
0.484280 4.063040 0.929760
6.511630 11.415900 2.181590
9.570110 -3.170300 1.145240
3.657370 -8.463110 1.921060
-3.402610 -5.643750 2.544370
-0.641850 10.112390 1.825910
-3.167660 9.829080 1.054550
6.872510 -0.587000 2.276800
10.960050 9.907320 2.113550
-10.203850 -10.633000 0.942700
2.010200 3.465020 0.146840
-8.024150 -9.945720 2.118200
8.940870 -5.899280 2.461970
-10.050190 7.821500 1.447050
-6.230170 5.430130 2.604690
2.895330 11.987280 2.593180
7.873530 11.977480 1.831750
8.864990 -6.811380 2.332710
-10.750910 -7.599700 1.281330
11.136950 1.473040 3.087620
10.155150 -6.519060 3.639460
4.058670 2.707770 1.886470
-0.508670 -10.364050 1.896630
-3.024140 0.750180 2.848750
-6.774460 -7.981440 2.344640
4.876610 10.609730 2.610200
7.111700 11.346970 1.607280
11.344620 -2.150770 2.391700
-5.168570 7.460630 1.485550
-1.270160 -5.658900 3.766530
-9.694710 -5.728250 2.583270
-4.944420 11.024730 1.055950
4.470080 -11.291880 3.262770
7.923360 -7.004990 1.753020
5.209920 6.589080 3.832340
8.510600 10.274690 0.547880
3.118060 2.379770 1.252890
5.772970 -9.711220 1.529110
6.279550 -11.538980 2.520690
-1.762360 -4.468680 2.740410
1.098190 10.943810 1.057870
-11.047990 6.783320 1.878890
5.320550 -3.855760 2.065060
-4.489630 1.722920 0.873170
-2.199030 4.261620 2.373410
-11.713000 -11.927200 2.049090
-5.012310 9.108390 0.094270
9.894790 6.991240 3.212530
-0.060730 -11.370750 2.427130
-7.339770 6.729080 3.772900
-9.902030 4.280130 1.121740
-3.502550 -5.847560 2.553440
-9.973460 6.181030 2.473220
1.693810 1.432240 1.145670
-9.771520 -6.052750 2.633740
-2.048860 -0.793980 3.588900
-6.230790 11.213660 2.164000
9.044460 -2.378390 0.906160
2.652720 -5.876730 2.448890
10.012720 -2.635780 1.679870
-1.371730 -1.295940 3.251660
-7.720060 -11.509120 3.482320
8.394320 6.471750 2.124740
-3.800970 -9.440000 0.387490
6.153220 -8.532540 1.501940
-3.245220 3.956420 1.210570
8.462160 -11.692460 1.821140
-2.800830 7.560120 2.623860
6.936440 8.707680 0.638510
-2.236380 -1.109540 3.231630
0.788600 -0.103190 2.285310
2.767480 5.971350 2.586320
4.993100 3.644750 2.084790
10.761630 10.760260 2.739620
-7.494700 -2.167020 2.374630
-5.888060 7.959120 1.510130
-2.163880 2.677560 1.934970
-6.376340 -0.630220 2.900920
2.788170 -10.003760 0.816870
-6.173240 -10.509070 1.422740
-5.521980 1.290600 1.586750
10.402990 9.502460 1.832510
-6.708170 5.279470 2.949480
11.657060 1.900220 2.465580
-6.932850 -0.391060 3.529420
-8.028630 8.594550 2.310080
10.148340 8.870390 1.811840
6.087410 5.251020 2.707480
8.047170 -4.005060 0.368790
1.591740 5.769650 1.871230
-2.899980 -2.348300 1.537760
9.878370 1.352870 2.654400
-11.870070 -6.385080 2.353430
8.436900 11.371850 1.532600
9.433020 -8.779500 1.209310
-7.005730 -1.056020 3.153640
-4.036560 -1.761620 1.030140
-2.126530 11.487840 3.322140
9.215230 -0.094610 2.787510
-5.797240 10.323190 0.910100
10.677690 3.574400 2.042110
-7.052280 8.562630 2.044680
-8.748510 -6.844000 3.472710
-3.956370 0.580340 2.108700
3.005260 -4.156690 1.336550
-9.991120 -7.856280 1.461150
-5.244550 -4.352150 0.785790
-7.412600 5.899650 3.831510
-2.287580 -6.562710 3.715110
9.125370 -3.234180 0.709330
-8.975450 -7.337040 2.928590
10.547530 -8.392970 2.388030
4.110600 -7.340950 3.315140
3.280920 -9.094400 1.192960
-11.240010 -11.144130 1.177740
-3.699640 10.325810 0.849670
9.465830 9.686240 1.075020
-5.345180 10.175030 0.462100
-10.953990 2.492590 0.204180
9.012250 -11.708360 2.253020
-5.150570 10.697720 0.801000
-9.537790 -2.980480 0.900180
-9.972090 -11.850560 2.234170
4.895220 -9.675480 2.014590
-9.782650 2.375520 0.929090
-8.848900 -4.513110 2.346610
-3.632860 -10.979000 1.511680
-6.445410 9.992190 1.318210
2.797930 8.954210 0.771750
1.001060 3.255020 0.164380
11.777780 -4.594180 2.591420
6.937070 -4.923010 1.600790
-7.208560 -2.478510 2.010750
-10.197810 -4.381750 0.977050
-1.416840 1.653040 2.906020
4.816260 1.974460 2.601820
4.667810 -0.783130 3.707720
-1.840780 10.566580 2.547820
8.152090 1.407990 1.206190
-6.055660 -1.171250 2.163430
-5.692520 -11.267230 1.711420
9.806570 -5.857850 3.283490
-10.047340 -3.079370 0.418820
-5.264470 9.646100 0.172960
1.984870 -3.864840 0.334850
-9.147200 0.403340 3.193780
6.269000 7.425050 2.430080
-6.599790 -6.611830 3.257820
7.853390 -1.887150 0.688900
-0.326680 1.389480 2.501230
-7.374960 -11.001600 2.893470
-5.753510 -4.121700 0.937820
-4.222870 -8.096710 0.877090
8.195710 0.548530 1.911110
8.276260 6.088970 2.069040
-0.827970 10.842390 2.583970
9.979390 5.279770 3.064030
3.187930 4.406990 1.745640
5.657410 3.765130 1.773910
11.865140 11.218390 2.866130
10.436180 -8.307850 2.409130
-7.439480 4.620670 2.823730
-10.644190 -2.420370 0.310100
-11.416660 7.169050 1.719970
8.408960 -2.219020 0.546320
-1.412060 -4.462090 2.739740
-10.834200 -6.828060 1.868180
-8.787350 9.191820 1.622140
3.661750 -0.977150 3.056400
-1.898570 -9.493870 1.949150
8.153490 -3.724000 0.209380
-1.485160 -6.616990 3.941140
-7.872400 7.528990 3.319130
-5.367700 -3.585100 0.303890
6.338780 -5.769400 2.815330
-10.479560 7.975610 1.008880
-4.298830 -9.313290 0.090510
-10.724400 -9.842470 0.122520
1.463650 7.987960 0.872150
-9.351000 11.712630 2.730880
9.112880 -6.903340 2.506920
-6.585700 4.795490 2.380930
5.732330 4.653720 2.464780
2.193100 6.471210 2.169840
-9.296350 4.539570 1.956110
-11.099520 4.600070 0.893320
-9.328040 -0.789180 2.801020
-0.242110 0.935140 2.833460
4.231450 -9.598960 1.901690
-0.352120 5.053660 2.679570
-6.851090 8.283090 2.121810
-11.326420 -10.536690 0.611290
-7.413340 -7.769060 2.989290
-10.407940 -6.879500 1.995160
-4.708150 -4.395370 0.688270
-11.233690 -10.262010 0.358690
6.525060 3.968590 1.083390
10.788620 -10.622420 2.614110
9.271450 4.866140 2.000420
7.135800 -1.030920 1.761030
-3.096120 5.579600 2.807990
6.248130 5.405230 2.673770
7.590300 6.571860 1.993190
-9.409850 -10.152140 1.268000
5.226650 11.097390 2.972300
-0.809570 6.465440 3.707430
-6.431500 -2.023160 1.710690
8.580840 10.588430 0.856740
5.941650 3.712550 1.493550
-5.708090 -1.521900 1.504970
-1.213400 11.066430 3.007610
0.170070 -4.282400 1.413890
-0.983110 8.631860 2.130460
7.597490 9.620770 0.051860
-9.741870 0.918230 2.295420
9.310340 2.709420 0.977760
4.916370 -10.656320 2.646480
-4.599920 -5.327610 1.583450
-1.123850 -8.845030 2.065170
-6.778080 -3.676490 1.614620
-1.545240 -8.224670 2.637410
-3.222720 -0.732140 2.662710
11.965490 11.189290 2.757870
-8.170340 -8.907470 2.081220
-0.359570 6.070270 3.329290
-11.003280 11.878980 1.772940
-4.553850 -4.998150 1.294430
-0.189700 -6.507430 3.163530
-4.524280 -10.575940 0.610220
-9.057500 -8.728030 1.592150
10.591700 3.693750 2.068150
0.028110 6.192100 2.967740
2.089400 3.804010 0.342980
-7.489730 -9.790140 2.000390
10.397880 -3.486460 1.885520
7.108000 11.712870 1.922930
-9.857440 6.780700 2.459480
-11.675050 -2.568450 0.381900
-7.203730 6.485620 3.775510
9.103740 -2.384340 0.957730
4.214430 -8.814830 2.058880
-5.584470 -3.378000 0.384580
6.704660 -2.775830 0.657040
9.673300 4.430400 1.967710
-10.521620 -5.224800 1.600510
-6.312170 8.817850 1.207580
-4.612560 10.282200 0.350590
7.209090 8.594690 0.526020
-8.259970 -9.694610 1.954890
10.143730 -11.986670 3.495220
3.867500 5.416500 3.311170
2.252010 9.451200 0.223540
11.644150 6.942800 3.587170
-4.892650 -11.606850 1.590120
-5.015340 8.933020 0.164040
3.865960 0.007680 3.662630
4.483530 -1.932810 2.619770
-10.193070 10.234660 0.615510
4.694520 11.494780 3.478570
-3.363720 -7.672290 1.960390
-10.520680 5.970030 2.062020
-7.144480 6.922000 3.561490
11.085000 -2.472110 2.211860
8.280450 -9.087730 0.145830
6.032440 3.726550 1.414390
6.687960 3.974940 0.933790
11.320380 8.976200 2.046650
-5.417620 2.149570 0.691550
2.633900 0.315300 2.464540
2.481160 -2.956290 0.403660
8.764860 4.672610 1.347170
-8.451810 -2.774820 1.893070
-2.713370 -10.381300 1.838890
10.978250 -1.068410 3.481370
1.086290 5.879220 2.034600
1.107430 7.155820 1.748260
-10.418390 -4.772040 1.221610
10.461410 11.327340 3.186410
-6.173470 3.919300 1.177980
9.295610 10.286100 1.219760
10.882830 -10.516220 2.532440
9.854100 -5.389910 3.043120
8.085280 9.314930 0.032660
11.618600 -7.334260 3.308750
-11.256120 -4.503440 0.826320
7.705650 2.599940 0.154120
-7.443240 -2.872690 1.952760
-3.851680 -0.251160 2.316730
1.100040 7.211270 1.708140
8.162200 -0.246310 2.016940
-4.857130 -10.135840 0.252790
-7.027440 -1.756750 2.492550
-8.005030 9.168020 2.021390
-6.872580 -5.357510 3.157150
3.175030 -8.104550 1.785480
4.942430 2.995040 1.984380
-10.027630 3.057640 0.436530
-0.473740 10.862260 2.323300
0.330770 3.021140 0.682470
-0.814310 3.341310 1.747130
6.413700 10.141220 1.115710
8.199350 -7.478540 1.425730
-11.170400 -10.523400 0.560420
-6.861610 -3.794980 1.752670
-10.162830 6.951580 2.111970
2.824980 7.609860 1.930360
-3.989760 -6.960920 2.028920
-8.780040 7.425420 3.016560
11.438990 -3.225140 1.906780
9.793490 1.507090 2.424080
9.607230 -9.667030 1.210640
-11.109620 8.093000 0.769740
4.076940 6.789930 3.679130
10.606280 11.642840 3.528180
1.295020 0.826800 1.715020
-9.126400 0.691530 3.064240
1.970330 9.183210 0.107790
0.733560 2.057870 0.862440
-10.313460 0.260370 2.190050
9.116200 -3.125750 0.696430
9.044800 -8.101370 1.384230
1.006250 -3.972240 0.480770
-11.650050 8.957600 0.313790
-10.863500 3.209440 0.011010
-9.534800 -1.276110 2.180640
5.004220 -5.270590 3.487380
-2.658050 -7.352720 2.945450
-3.999360 -3.043440 0.248430
8.782920 11.131550 1.536870
10.837720 -10.180990 2.260130
1.473940 -1.744870 0.831500
1.281680 5.645740 1.845130
7.961190 -7.441660 1.406480
10.679680 -1.246360 3.269300
-5.881070 0.501820 2.485350
6.478630 0.090170 2.801730
-11.919630 -0.924900 1.999320
-8.025810 -8.644250 2.274730
10.324490 0.753630 3.512350
-6.743150 -2.086270 1.950970
6.704180 -10.463120 1.083680
7.764610 1.254000 1.315520
2.672060 -0.887830 2.178620
8.292430 -10.649710 0.755580
-5.381270 -5.060290 1.556410
-11.455090 -11.833990 1.847320
-11.734640 3.249290 0.266690
6.977730 5.543540 2.098670
-3.867150 4.875720 1.499060
-9.120940 -0.913430 2.910220
-0.607670 5.547620 3.312400
4.866690 0.065080 3.986000
3.353060 -9.885540 1.314180
9.563170 3.434660 1.180590
-9.673190 5.758170 2.619450
3.128410 8.798330 1.176710
6.168050 -3.174720 1.115430
7.985320 -4.424900 0.725070
3.428530 -9.534510 1.289030
4.748780 6.929230 3.797810
-7.552720 -3.206360 1.957060
3.296780 -2.097520 1.651860
11.468990 -5.115650 3.282430
6.606540 -9.167570 0.715150
-9.795170 -9.364960 0.639800
-4.286080 10.556460 0.664370
0.198370 -4.443720 1.537470
-0.135840 -7.409080 2.565790
7.979280 -0.669290 1.792100
4.885010 -2.497660 2.185400
1.763260 7.438200 1.422370
-11.368000 -4.768990 1.125130
-0.415770 0.984120 2.957490
11.797870 -3.153720 1.695130
3.853940 0.440640 3.558090
10.989620 0.426460 3.910420
-4.503650 -2.011690 0.594960
-2.671640 5.553950 3.198520
1.262570 2.583390 0.198920
11.516550 2.540440 2.042650
-7.697600 -5.357780 3.589310
-4.272480 -6.310890 2.094830
-11.638220 -4.883540 1.369800
-11.211430 -5.172520 1.467270
-4.627900 10.707350 0.719320
-0.946020 -0.003480 3.811090
10.512650 -6.959630 3.665440
3.176400 -5.997950 2.994390
-7.408060 -7.123430 3.569490
-2.588840 -9.817630 1.601210
2.236620 10.572490 0.803020
6.264420 -4.287140 1.606220
1.500910 2.503350 0.199300
4.515780 -6.736970 3.879530
-6.875330 -7.122180 3.226350
9.802210 -7.444330 2.766830
6.640050 7.353290 2.130690
1.349100 -2.514570 0.214700
1.979500 11.553340 1.611660
9.363310 1.167150 2.331340
0.332350 5.461360 2.354630
9.577050 11.748190 2.835230
0.030950 5.096790 2.344060
-4.789570 -0.240570 1.974180
6.579870 -11.990350 2.546280
2.510200 0.771700 2.126460
-10.842470 1.920830 0.668770
-4.316970 -9.486260 0.079050
-4.511550 5.639460 1.819970
-4.051430 6.238340 2.209590
0.856170 -7.861260 1.237380
-1.219610 3.146420 1.938980
-10.399510 -9.292430 0.181200
0.292240 7.018300 2.453650
-4.293510 9.037860 0.160380
-0.366750 8.819020 1.536510
9.189260 2.886510 0.799010
6.969140 8.181160 1.045220
10.572110 -3.751740 2.092110
5.938440 -5.536770 3.072090
6.633470 -7.882200 1.628630
-4.894710 -3.685870 0.161070
11.855540 4.833010 2.772790
3.149150 1.254600 2.318510
-1.804540 7.240210 3.548760
-2.706290 -5.237060 2.922610
10.097430 -1.988880 2.217050
-5.196170 4.194540 0.619740
-3.885730 9.726600 0.367870
-6.168960 2.358670 1.177170
-5.843590 8.779170 0.775700
5.122810 4.904130 3.107520
6.719410 -0.052360 2.576110
-11.805550 -0.037280 2.309790
5.372600 -7.525300 3.112660
-6.288350 -6.003660 2.966350
-5.480510 -3.225950 0.284340
2.005290 -9.203840 0.117230
1.742030 -6.027850 1.982200
2.748630 8.848880 0.778370
-4.819060 -9.636540 0.028020
-9.427890 11.462320 2.446870
-7.485380 6.250280 3.932290
0.184840 4.143950 1.277890
2.712720 -4.273310 1.159050
11.607310 10.286190 2.167280
2.413750 -10.681140 1.025460
-2.788650 -1.366460 2.548570
8.036700 -2.499520 0.215790
-10.069020 -5.067190 1.746810
3.019040 -9.138030 0.918590
2.551980 -6.422880 2.434220
-9.415340 0.251110 2.978070
-3.252450 0.880190 2.526380
2.970490 4.748650 1.865980
4.172420 -6.200940 3.854350
9.222490 -6.915240 2.605910
11.483900 7.830590 2.906510
3.782320 -4.656720 2.542140
5.421020 -4.514800 2.562950
-8.915860 8.372700 1.991460
6.364010 5.714480 2.761870
9.150700 -0.111810 2.723100
4.615520 -2.111760 2.480350
1.408870 3.663800 0.146360
5.900470 11.875350 3.144040
9.905650 -6.759870 3.351070
9.901510 -7.065020 3.168500
-11.840790 10.447120 0.815070
-9.577210 8.948670 0.959370
2.335970 -4.460870 1.029860
3.187930 6.324540 3.045470
2.697110 -5.227250 2.062430
-2.199880 4.705100 2.801270
-11.415990 5.509240 1.802240
-7.516130 -8.956970 2.050910
11.721580 -2.308870 2.074970
9.537720 8.604200 1.430900
-5.808240 -8.062800 1.335400
-7.399450 9.126290 1.942680
9.916930 11.829150 3.212860
-7.575900 8.492570 2.365520
-10.742740 -2.766120 0.101460
-3.789160 -10.820950 1.223020
-2.274760 -1.171210 3.151320
9.433850 -3.763260 1.196160
-9.147160 1.509070 2.335750
4.975270 0.824300 3.644720
-7.631480 -6.401920 3.968310
5.499080 4.506730 2.501980
3.388440 9.139830 1.284680
1.914740 -1.606950 1.022430
-10.532560 7.749340 1.209740
11.912200 -11.954020 3.426800
10.352340 -5.120440 3.196980
1.205550 -3.874970 0.323050
11.520710 -2.004980 2.444580
-2.507270 -8.949060 1.703670
-6.581200 -1.054610 2.787190
5.127770 0.993730 3.460540
7.078330 5.607620 2.066390
6.579430 -7.639320 1.921090
-2.104660 -2.224090 2.253040
-1.706270 2.298940 2.325350
8.844580 8.783260 0.650620
8.941100 -6.662450 2.463900
-9.080510 -5.557920 3.085830
-6.144270 8.314430 1.417180
9.601330 -11.080870 2.260830
-7.857140 3.394920 2.031910
-10.522940 -8.136030 0.831300
3.623070 -0.978990 3.020950
10.073510 11.945280 3.417420
11.807940 -6.151830 3.679170
4.747060 -5.286160 3.542200
1.965720 2.473170 0.292180
-10.254470 -5.097580 1.638010
-1.004030 9.247440 1.859320
-5.695440 4.416830 1.154240
-11.016940 -8.303530 0.565670
-10.235200 -7.193250 1.889120
-6.485030 -8.116090 1.941350
-9.021310 -6.065720 3.369060
-7.235870 3.709440 1.971910
-6.506290 10.807130 2.033930
-3.899220 8.787930 0.508830
8.086010 3.976290 0.355400
-7.567910 -1.764660 2.766710
6.067540 6.810350 3.078210
-5.441680 -6.319860 2.253680
5.648770 5.350620 3.188490
-11.569910 -5.772620 2.032920
4.741300 2.592480 2.146590
2.932900 11.329040 2.120140
-1.290100 5.151710 3.386190
0.988380 10.354490 0.566800
8.616430 -11.472490 1.735900
-8.312340 -5.412870 3.541370
1.220870 -11.714980 1.719540
-3.664970 -7.234730 2.080620
9.110650 6.774850 2.572560
-3.075870 -7.760140 2.159380
7.805960 9.312600 0.007440
-2.243760 -0.630180 3.589900
-8.664310 -11.713300 3.346930
-5.357810 -8.363990 0.712970
-8.117590 4.437390 2.693910
5.123690 9.923430 2.038370
-8.393690 -11.112520 2.974540
-11.784240 2.493990 0.497680
-9.291760 11.725230 2.799240
7.783250 8.511790 0.391120
10.124860 0.475990 3.533120
4.536910 4.270370 2.556880
6.679810 9.198640 0.639150
-6.619370 -5.603970 3.107950
0.323700 -4.591690 1.561520
6.904480 -10.923250 1.345650
-5.204070 5.424770 1.772100
-6.845990 7.484070 2.895090
-7.348610 -4.772110 2.934680
9.655840 -10.482250 1.737930
-7.861110 -2.689460 2.100460
-9.796100 5.496920 2.343640
-3.960880 -7.118430 1.940330
-6.778740 7.128350 3.139120
0.572480 -10.518510 0.999100
-7.524200 4.128870 2.395150
-0.782880 -2.019120 2.271880
9.014290 -7.626310 1.826660
-5.730570 -11.859920 2.235760
-2.315170 9.221230 1.756160
10.499130 -9.622040 1.898670
10.897300 -11.937660 3.803960
-8.794530 -3.348270 1.610630
3.091640 -2.032880 1.504250
-9.652160 11.643930 2.378440
6.363540 -11.407470 2.320080
7.587860 -2.779110 0.100180
3.415390 -5.717640 3.114690
-9.232690 -4.530140 2.009670
11.807400 -8.091540 2.452850
-7.079000 0.390730 3.639070
-0.134140 7.755570 2.231990
-10.371200 -3.826680 0.414300
-1.046690 -6.911680 3.674690
8.560870 8.228580 0.873710
8.017630 4.051240 0.399340
-9.795720 -3.293540 0.649030
10.929250 -7.532880 3.313410
-8.081780 -5.849470 3.881580
-7.138900 -0.850590 3.414580
-4.080530 6.370450 2.189260
5.635840 2.479430 1.814410
-10.265990 -2.295230 0.591840
-8.079210 7.794580 3.034110
1.226720 -0.389360 1.983760
7.780030 -5.261880 1.524990
11.760210 -8.617860 2.029910
0.859060 -2.123430 0.717840
-6.306290 -6.611010 2.969850
5.009980 -9.488540 1.958080
-5.107960 4.234420 0.617250
2.356540 4.901730 1.481340
-2.371250 10.610670 2.320910
-9.857000 11.718920 2.243010
10.995930 4.796770 3.084280
-6.473340 3.017030 1.196760
-8.536840 10.960070 2.740270
7.475520 -3.758000 0.254810
0.563290 0.898000 2.089210
-1.972970 -5.102920 3.300890
1.448970 11.504060 1.494270
4.681480 -5.658940 3.810930
-11.349510 2.950310 0.080220
-6.551550 -10.357750 1.669700
7.029450 8.192150 0.989340
5.889640 -1.211150 2.735410
-7.212920 5.401680 3.437450
-9.472510 -8.129400 1.680340
-8.683190 -9.925750 1.798340
2.110140 -6.083940 2.122170
-6.399700 3.846530 1.354600
9.756620 8.275620 1.916530
-8.524290 9.757990 1.838630
6.414760 0.208570 2.847130
9.457600 -7.244020 2.605650
-5.525660 6.847420 2.157870
-2.557530 6.708650 3.462270
-2.959560 -7.935790 2.099310
-11.737080 -7.762850 1.353550
-11.648600 0.206890 2.184430
-5.742180 -10.637260 1.134300
-5.058400 -7.606010 1.304700
-5.836560 1.804170 1.336810
-8.274280 -3.178230 1.913640
7.011230 8.570130 0.678100
7.984070 6.900300 1.824000
-1.487470 -11.276040 3.273340
1.532440 -1.567060 1.004470
1.280600 9.581120 0.054010
9.164710 -11.422530 2.156960
0.902410 2.471180 0.431620
4.201810 -8.455660 2.306430
-1.701320 -3.455200 2.040270
3.038840 3.566490 0.986350
3.492750 11.008870 2.357280
-11.533610 -6.901390 1.956200
-9.844070 -4.094610 1.013660
-9.887510 2.711890 0.644510
7.441530 7.671360 1.265460
8.114110 3.281270 0.043380
-2.081260 7.926180 2.800380
9.693540 6.466540 3.248770
-10.371410 5.095450 1.562310
-7.095220 0.744220 3.461300
5.008840 -6.279740 3.956370
-0.650180 2.996020 1.615910
-11.705510 -9.411590 0.241680
2.467170 -11.260660 1.637550
-7.017430 8.860770 1.824900
11.126320 -8.082370 2.765060
-11.421040 8.125380 0.821070
-11.590140 -9.702140 0.209830
-0.674280 -6.696430 3.540160
11.601680 4.955110 3.062220
1.872550 -10.264830 0.377760
11.741670 -6.848430 3.578800
2.786370 -10.971210 1.627840
-2.843340 7.697520 2.449680
11.027810 9.556900 2.008200
10.315130 -6.317190 3.776710
9.361580 -8.177830 1.618620
-1.679630 0.928360 3.593230
3.041290 8.655530 1.181440
-11.134430 -10.437470 0.480050
9.385790 8.595620 1.285530
-10.233780 -7.893810 1.236580
3.226890 -10.433200 1.552000
-10.897200 4.513310 0.807070
-11.711390 1.631090 1.185190
4.895510 2.665480 2.094490
-8.026240 0.385390 3.911850
2.607900 10.444240 0.967460
-10.354730 -2.867930 0.235620
9.119170 -0.281810 2.659690
-2.931230 -3.662160 1.341280
8.346250 9.142370 0.158350
1.048750 7.908470 1.078740
1.050430 1.973970 0.740020
8.391000 10.876170 1.021640
11.054510 -2.561780 2.161700
-10.526460 4.360440 0.763300
5.809570 -3.507980 1.522480
-2.516240 11.579020 3.136280
-9.558240 5.573550 2.625530
11.066570 9.504220 2.000630
1.874450 -1.080890 1.516290
-9.283890 7.024380 2.878090
-2.625740 2.636260 1.618260
4.504460 -3.728550 2.145830
11.559970 -8.418530 2.309880
-2.420680 -9.177660 1.690450
-6.528050 8.563950 1.590620
-6.223900 2.921630 0.964840
7.630350 10.420100 0.480660
-4.359750 -0.889830 1.691080
7.876140 -2.160720 0.443950
-0.324240 0.881550 2.954540
-2.294540 8.953360 1.858400
-5.542460 0.698680 2.090870
8.678190 -2.533710 0.500000
-6.149310 3.745730 1.043530
-5.516570 -9.103750 0.357390
-10.915350 -5.971130 1.954920
9.510460 -8.328130 1.629000
1.713030 -1.413840 1.166410
-10.000070 -1.680460 1.346470
-6.545670 -1.724000 2.106880
-3.780600 -4.152580 0.872580
-5.844400 -11.862130 2.337270
-4.651830 5.833140 1.902260
-4.359100 7.226030 1.649250
6.509590 -5.209830 2.252700
-1.685040 -0.867810 3.639980
-4.905770 -3.502710 0.083140
-3.933380 5.765390 2.157300
0.631960 -11.871820 2.177610
3.055440 0.409130 2.831420
4.269370 3.923310 2.193760
-5.120240 -10.007040 0.246800
9.390180 -5.581990 2.729480
11.091620 4.637940 2.921010
0.803690 -3.649450 0.406290
0.599030 -6.935090 2.231090
5.047570 6.738670 3.842400
-9.541540 -4.808690 1.979660
-5.620060 6.537290 2.352310
11.040590 -4.104500 2.427850
-0.372200 -1.987520 1.958900
-3.443840 -9.461660 0.703010
9.415760 8.052940 1.793340
-8.437620 -3.647300 1.959630
2.373590 7.857690 1.301590
4.865890 -10.283920 2.335150
5.766100 6.060320 3.469620
-2.849510 3.299570 1.300400
-11.448040 -7.915820 1.038830
4.857090 -11.004380 2.998360
-6.220100 -6.434970 2.925460
6.417820 -2.249640 1.237880
3.035080 -8.251210 1.506830
9.109880 4.985140 1.959670
-3.998210 4.232010 0.782260
1.451200 -5.200580 1.476170
-7.263430 2.600080 1.973700
-11.405950 1.947580 0.715100
-1.593900 -5.802820 3.886560
-9.531440 -2.446730 1.125400
2.007090 -11.025550 1.123640
9.106120 0.563220 2.532250
8.771330 9.604370 0.408160
1.958740 -11.708780 1.728570
-4.021160 5.113710 1.620180
-5.432360 1.873500 0.950070
-1.977000 2.088410 2.423810
-6.614640 -3.728850 1.492950
-4.710340 1.615650 0.955170
6.502260 -3.606070 0.888620
-0.705750 -2.350640 1.945430
8.939070 -6.551720 2.497330
8.990250 -10.910920 1.494460
-0.593460 4.000780 1.906180
5.490510 -2.267870 2.070260
9.382460 4.500160 1.747050
-7.235920 -2.566490 1.975860
-2.636050 -5.189090 2.943130
-2.554690 -11.449430 2.992210
3.001110 3.126890 0.860080
-11.462880 6.637500 2.045100
0.804220 5.189870 1.739250
-1.157710 -10.968720 2.889040
11.616570 -10.276170 2.154370
0.142880 0.045700 2.856560
4.426430 -7.955170 2.858370
10.449380 -7.148020 3.503280
-8.058090 -9.908320 2.093890
-8.392160 -6.186970 3.854020
11.039330 4.558600 2.845860
-9.007300 7.440910 2.806890
-4.951970 9.254730 0.042990
9.257390 11.269540 2.103940
4.628410 4.277440 2.575110
-6.269210 5.855710 2.896050
11.207500 -0.398760 3.899170
0.803290 -5.450890 1.953540
3.228520 -6.672950 3.011820
9.094160 -1.767380 1.480050
-6.416020 -0.726900 2.879690
10.953480 6.833010 3.851730
5.037350 6.371700 3.943750
-2.114390 -1.930700 2.503670
5.520410 -4.719550 2.698090
9.272410 -4.285100 1.433820
7.224590 -6.540020 2.158810
5.015000 7.816510 2.992020
4.652950 -2.626380 2.128050
-8.685110 2.917020 1.699150
3.382360 8.779710 1.439390
-0.333450 -4.656220 2.271170
4.027860 2.755300 1.848400
11.515510 -1.329250 3.107060
-7.138780 -10.514640 2.292350
-6.426080 0.155990 3.130270
-10.474330 -10.234220 0.442890
7.971760 7.066680 1.715380
9.997070 -8.285660 2.123170
-5.302980 -1.590920 1.149260
5.193930 5.787790 3.766060
-7.277190 2.672950 1.946040
-2.500240 -4.380440 2.272390
9.215440 3.260040 0.799190
7.247060 3.741610 0.353260
9.112480 -3.352840 0.714980
8.488230 -8.773610 0.399100
-6.571510 1.579520 2.275630
7.747720 6.545540 1.971420
2.645120 -11.314380 1.837100
9.221470 9.653060 0.824040
-5.270520 -2.348750 0.449930
4.238500 11.666740 3.511690
6.399280 -1.700840 1.754490
-6.924760 -11.738820 3.275140
-11.522100 -3.244390 0.140720
5.085160 6.821320 3.789990
9.108580 -3.083600 0.690730
-9.049960 -10.603660 1.984150
-8.994810 9.899660 1.527490
-2.826030 -7.553200 2.606620
7.684880 2.946070 0.033320
-7.861920 3.412050 2.036320
-8.980130 0.233440 3.403010
-2.358570 3.332720 1.723640
7.764180 7.432590 1.413060
2.094110 10.694550 0.837330
0.712870 -11.926020 2.147880
0.725370 -0.568670 2.179210
7.039180 -0.104680 2.308510
7.383930 -2.532490 0.288300
-10.164150 -8.189760 0.996670
-7.637000 7.406940 3.408850
8.711340 1.159830 1.745060
10.829970 -1.286510 3.266790
-4.066460 -11.595700 1.766210
-6.059680 -1.086600 2.243860
3.509140 -8.189950 2.029650
-5.437500 -0.697770 2.017850
10.383260 0.187930 3.800710
-3.239150 -11.325040 2.226140
9.955230 1.792250 2.286280
-9.002720 -3.462950 1.460830
-8.198840 8.291000 2.517890
-8.599040 4.664140 2.686820
6.299790 -2.199730 1.395110
1.063510 -0.463480 2.020440
6.209300 2.687310 1.175240
-4.796970 10.118050 0.234420
6.071230 3.961020 1.527730
10.192060 -4.363570 2.352390
-1.138020 -4.899500 3.093830
-4.876470 -6.215510 2.011140
-9.293580 4.402260 1.825640
11.990630 0.728840 3.290410
5.561900 4.794110 2.741980
-8.564110 4.003850 2.107550
0.766620 -8.770590 0.512750
-4.022510 -1.315120 1.481580
-7.717410 -11.558100 3.524020
6.190750 -2.214600 1.492060
-10.969950 -2.280080 0.349030
7.428170 5.887550 2.012050
-10.034890 -10.359090 0.832670
-8.100280 5.691420 3.799780
-1.628990 0.121320 3.990960
4.453270 -9.891180 2.073420
10.919490 -11.209430 3.209340
3.806120 10.853140 2.474730
-11.796250 -2.353780 0.598380
-9.718390 8.063480 1.502620
9.450150 6.336050 3.023980
-2.829460 -9.395380 1.307520
-4.166380 5.805940 2.033660
-4.959910 -5.367800 1.639960
-10.065790 -10.195130 0.684330
1.402600 -7.276650 1.559900
-9.134670 3.978690 1.616430
2.430110 0.826510 2.024490
-10.013400 1.477610 1.537840
-1.006590 0.381860 3.772990
-9.521330 -6.223430 2.901810
-7.838930 -5.663740 3.814090
7.556090 -6.293560 2.043990
-11.733480 -2.322430 0.577280
1.784030 0.216110 1.999390
-0.248230 -0.405330 3.164660
-1.719420 11.074530 3.067850
-8.766710 -9.147620 1.649750
-1.579550 10.860490 2.865290
-10.111980 10.302260 0.726530
-9.059620 -10.780120 2.143310
8.961250 9.404390 0.553100
-3.619600 5.347260 2.133060
-8.729690 1.741170 2.470900
-0.366900 -10.216140 1.655850
-9.500670 0.334970 2.868600
8.882920 9.966580 0.627490
-6.545830 -9.868590 1.356520
1.401960 -4.175200 0.502490
-0.075700 6.264850 3.075460
-10.535380 -10.820940 0.930290
-11.050400 -4.664990 0.954120
-7.043270 6.146450 3.679650
6.293170 5.858410 2.901150
-3.454120 -0.521670 2.559520
2.969990 -8.773600 1.033870
11.272900 -1.086580 3.427310
-6.618260 -9.485870 1.330710
-11.223190 9.136790 0.066970
3.588330 -4.605610 2.325450
0.407170 -5.736310 2.458140
-8.957940 -4.209200 1.967840
-5.499720 -6.519390 2.266490
-8.802700 8.144040 2.296720
6.159200 -0.455950 3.021510
-4.368280 3.351790 0.080640
11.615130 -8.264180 2.415340
1.134070 3.448670 0.140640
-0.687180 -0.712960 3.390790
8.192610 5.133790 1.465830
0.269940 -5.727300 2.582760
9.805300 -1.379240 2.561790
-6.870280 6.590460 3.507100
-0.849120 -3.725130 1.916180
5.076300 -8.322250 2.483170
1.706020 3.067610 0.011860
3.779740 7.312540 3.111080
-1.020660 1.423660 2.999060
4.252870 -8.657360 2.176560
7.108350 -10.208210 0.556850
-7.990960 5.538800 3.726140
-8.315870 3.845350 2.132800
1.121420 8.241660 0.721240
8.309620 -8.108220 0.850510
8.636080 1.793940 1.069270
-8.686520 -11.094900 2.772170
8.451610 -7.614630 1.410410
-9.677700 3.975450 1.077750
-9.428340 -11.250950 2.249050
6.386620 3.180090 0.897490
-1.413010 9.885800 2.091980
4.607580 11.096850 3.095610
-11.645120 -9.164760 0.237250
4.630920 9.402070 1.996940
1.695460 3.734470 0.178420
-1.760070 -8.601870 2.302050
0.891200 -8.440140 0.669010
-1.501970 8.441570 2.443280
5.425850 -0.473450 3.646100
-1.154960 4.050680 2.300310
-9.177600 2.065390 1.769990
-10.713620 7.995610 0.898330
-8.014420 -0.967360 3.554640
11.905130 -1.391800 2.792140
-5.472880 -5.747100 2.135220
7.727420 0.181080 1.991650
-11.858520 11.586760 1.907150
3.772440 -9.812780 1.664170
-8.278290 7.270640 3.462140
5.647850 4.045760 1.975110
-3.464380 6.802600 2.550900
3.234420 6.234570 3.091520
4.713900 3.658330 2.130560
0.385240 -9.102520 0.675690
3.506080 5.056150 2.693510
-9.365230 -7.240670 2.635100
-9.112880 -10.395170 1.741890
7.269230 -10.605260 0.785670
0.752290 4.666930 1.271250
-1.338850 10.536490 2.530100
-9.077940 0.883140 2.974650
3.096710 3.228000 0.958860
-8.778800 -5.274800 3.135210
-10.598830 -3.061960 0.080850
-7.506820 2.714590 2.030130
-11.729470 -10.727510 0.992570
-8.446360 7.740380 2.942970
4.416350 2.725010 2.042020
-7.464560 -0.559110 3.772860
10.052700 2.101390 2.081420
2.735000 3.561130 0.691250
-9.030530 9.868460 1.480930
5.848580 -6.456790 3.406020
-10.413520 -5.795120 2.047900
-1.023610 -10.947550 2.805980
9.105280 -1.332860 1.921610
-7.972610 -5.413070 3.637710
-0.537150 2.273840 1.865150
-6.826250 3.863760 1.766390
-7.774760 -5.297550 3.549200
-10.536290 -8.657800 0.383620
10.046180 2.415430 1.834450
10.644380 -1.852120 2.661340
7.817570 -7.183310 1.622180
-6.528820 -10.861900 2.109900
-10.112400 -5.072710 1.717870
-4.254540 -0.207970 2.081450
-5.984210 4.352540 1.353330
-10.879520 -9.452370 0.007110
2.176730 11.682610 1.812280
-10.501570 -5.568580 1.874910
3.087760 -9.174060 0.977460
3.946350 -7.566230 3.004460
8.994970 -11.583610 2.138030
-0.651440 2.124500 2.080490
4.825970 -9.117470 2.040410
1.260880 -8.250720 0.661230
4.498490 -5.553950 3.722900
7.760570 -2.842600 0.048730
-0.160870 -4.880270 2.327270
-11.322730 8.733550 0.282570
-9.744190 -6.372700 2.681980
-9.826920 9.966060 0.751560
5.448870 0.593990 3.569550
-8.772420 2.526110 1.790570
-7.932250 11.169910 3.170390
-1.989040 -3.886000 2.178310
-8.526440 7.915040 2.721270
8.845010 7.735340 1.570530
-5.111640 11.484400 1.548240
1.511690 -11.872710 1.770650
-0.938700 10.140090 2.051910
-11.595420 8.652350 0.458360
3.433140 -6.103430 3.271320
-9.624400 11.139030 1.944660
4.893460 -4.724110 2.995370
5.780480 -0.295870 3.438350
6.360490 -8.521590 1.303660
2.065780 -7.395420 1.562680
2.629420 -10.968800 1.483160
-2.459390 -10.819760 2.455600
-10.493820 11.653720 1.734910
4.209630 -5.247130 3.385870
-4.324870 1.405760 1.238440
7.070990 -0.001140 2.291190
5.336060 -7.820710 2.845010
-10.282210 -11.278240 1.522750
-7.136160 7.538450 3.063560
1.318830 2.144470 0.488860
-8.802620 0.444810 3.485480
-4.510000 -8.462950 0.448390
11.019490 -11.962790 3.823020
6.445900 -0.280560 2.798910
3.916130 -0.136670 3.690060
-4.227290 -10.844290 0.964660
11.000560 0.018600 3.999810
9.567380 4.657750 2.087510
-11.633640 3.579080 0.290930
-6.942400 5.753400 3.475410
-10.123010 3.363200 0.381590
8.949060 10.072300 0.744440
9.134820 11.753870 2.401770
-0.913260 -8.045520 2.601130
-3.101550 1.141750 2.456040
10.700190 4.874400 3.117990
-9.532010 -6.430010 2.882210
4.273020 1.221690 3.247080
-0.560650 -9.128640 1.575270
-4.981420 7.946590 0.943500
-5.607440 -4.632570 1.294790
-11.478600 -0.679100 1.892550
1.366320 7.281900 1.562220
-5.399100 2.015300 0.796660
-10.390010 -9.338870 0.181510
-10.140710 -11.040210 1.388300
-7.343740 -10.941900 2.818980
1.250480 -6.105470 2.035110
8.018190 -7.823640 1.043790
-3.511740 4.712030 1.637890
8.742210 6.743940 2.264930
-0.245990 -2.052220 1.780480
-0.429530 10.050710 1.606030
3.614110 5.496570 3.161370
0.134870 11.958570 2.686450
7.016710 1.996100 0.917910
-3.595600 -0.357670 2.498150
2.254930 -1.605230 1.190610
5.638390 2.319000 1.920710
-0.341410 -5.855890 3.244900
1.811580 -9.550390 0.036730
-10.952390 -10.395720 0.436410
-2.569520 -11.600830 3.110350
0.641240 0.552760 2.252890
-7.773820 0.641540 3.797960
9.700180 -3.717710 1.433350
-3.739350 8.313720 0.993500
-11.348440 1.645860 0.986620
-2.939250 -9.222790 1.221300
-1.408670 -7.345170 3.474030
3.366010 5.044120 2.548210
-10.804040 2.459120 0.242270
11.206940 -2.553690 2.145640
8.315180 -0.706410 1.865170
-2.652090 11.555520 3.001330
8.672280 9.222050 0.337010
10.333200 -10.988110 2.781070
7.831830 4.801950 1.089690
-10.523510 8.440340 0.556040
5.178860 -10.860960 2.758950
11.031800 -0.566750 3.842990
-3.987630 9.700280 0.289050
8.354880 -9.625440 0.142910
-5.297100 1.524120 1.212790
-3.473920 9.247990 0.689340
-11.447840 -0.654200 1.894080
7.183260 1.027960 1.733200
-9.710490 0.821550 2.399250
-10.046990 -3.987940 0.754440
-11.822810 -5.056000 1.659980
6.233770 -2.648100 1.168710
-4.905100 -4.560780 0.867480
2.127260 11.937440 1.959530
-0.697180 11.836260 3.387160
0.786950 2.788750 0.353400
-7.780170 -2.298840 2.331870
1.815820 5.960020 1.978100
-11.075250 0.140090 1.993380
-11.210940 4.615700 0.926560
5.695830 1.595800 2.529160
10.898200 1.268310 3.293150
-3.164730 -7.716550 2.113860
0.862730 3.454210 0.288850
-4.914780 10.873840 0.898980
9.399130 -9.155900 1.010280
-10.765470 5.289060 1.571600
-4.575750 5.777920 1.884370
-0.550850 -1.381560 2.711520
-2.170510 6.168820 3.818960
7.230810 7.734510 1.307160
2.863050 3.032510 0.730990
-0.462200 -0.887320 3.077410
-7.320940 5.143160 3.278840
-8.337030 -10.865740 2.756110
2.070100 -8.014020 0.962730
-11.422250 -10.235550 0.400710
-2.523530 -7.358860 3.054600
-9.910460 2.573360 0.690340
3.031960 1.453520 2.007590
-2.271810 -0.354560 3.701990
-4.166200 5.658740 1.956770
9.343890 10.844430 1.768630
10.921720 -5.836410 3.899120
-3.939180 -8.946730 0.396430
-5.604840 -5.537050 2.106810
-4.173630 -4.557900 0.987780
-0.950460 -0.402300 3.733850
-8.902190 11.128860 2.632020
1.853100 8.117510 0.779090
-8.260630 -6.029180 3.886360
9.211770 -8.686340 1.049080
4.332730 -7.663840 3.117790
-9.581700 -10.181290 1.116480
-5.846920 -10.452950 1.061060
3.117740 10.977860 1.958430
8.573970 2.915710 0.273590
-2.599750 -4.508910 2.313630
1.802670 7.405530 1.460330
4.060000 3.033070 1.800520
3.569040 -9.035790 1.489260
-7.697840 -1.387390 3.170210
-0.132930 -4.463270 1.885990
7.094460 -4.848580 1.410600
6.500870 2.970180 0.798690
11.534640 -3.433050 1.900360
-10.761910 5.934210 1.966900
2.943250 -2.936480 0.823920
-6.709190 11.535640 2.927420
5.509380 -3.052960 1.702790
1.510430 10.682800 0.694130
9.847930 7.271670 2.960590
4.049860 10.146770 2.037950
0.103680 3.231760 0.900570
-1.109420 -1.718000 2.748770
-8.631880 -2.210760 2.115220
0.694400 7.810260 1.403780
2.900210 11.668170 2.383980
-7.605990 -7.681480 3.141050
4.551420 1.659330 2.898650
8.127680 -8.881120 0.181400
8.953430 9.753220 0.599370
-1.970440 -6.033070 3.890080
8.823270 11.453610 1.876300
-0.358880 11.579530 2.902560
-2.942230 -3.189190 1.199170
5.256270 7.968790 2.741160
1.675090 2.333190 0.314780
9.050500 -11.137840 1.776190
-7.196260 -9.042810 1.863460
3.912090 5.305440 3.255390
-8.761480 8.339520 2.149030
1.726070 6.503600 1.987840
-10.209040 -3.856730 0.538700
-2.530930 -11.965070 3.398010
-4.112860 -10.226680 0.479060
0.737270 -9.200800 0.352710
-3.028680 -7.527940 2.432970
-7.857630 -7.158070 3.641080
-3.253190 0.515250 2.758800
-8.102600 6.732180 3.870140
-7.122490 -11.372630 3.112360
-0.072860 4.907450 2.266620
3.375130 -8.740810 1.456350
10.352450 -4.511180 2.600370
0.981970 -7.958680 1.063900
-0.204480 7.331740 2.701880
1.684150 11.294590 1.301000
-9.357460 -6.760430 2.955530
3.670170 -4.923220 2.713580
-4.637400 -6.925180 1.803710
5.636520 3.844540 1.839590
4.017640 -5.901320 3.696190
4.063530 -10.473760 2.298310
-8.728050 -9.418590 1.641730
-9.666950 6.999880 2.514170
-7.310010 -4.658910 2.802210
-5.633660 9.614530 0.413140
-5.830930 -2.652520 0.680240
1.406000 -9.236440 0.031230
-11.570700 7.004890 1.911550
-7.663400 -10.786180 2.774020
-0.421640 -9.620820 1.428410
-0.587360 -7.801460 2.606660
-6.777610 2.930520 1.496720
-2.334020 -0.657290 3.514260
-5.584220 -7.072120 2.061180
6.822400 -7.905980 1.434560
4.294830 2.243190 2.291220
0.727840 3.022020 0.341880
-2.084530 1.830000 2.614600
-6.179720 -7.214560 2.493440
7.603430 -0.708670 1.790450
1.671270 0.271390 1.968440
1.589270 3.091640 0.001420
4.161210 6.691990 3.769500
-2.862740 5.208400 2.751170
2.502340 10.681200 1.094180
-1.931680 6.701730 3.849270
-7.644610 -3.701770 2.131000
1.096260 -11.693770 1.753330
0.873250 8.528800 0.608820
0.567360 -6.802440 2.330780
-10.258280 -11.438890 1.688650
-6.680820 1.767940 2.191360
-9.125110 -3.126760 1.295310
-9.421430 3.093690 1.004490
-11.747910 -0.520660 2.137400
-3.765610 -1.280770 1.701670
0.028750 -1.443060 2.098640
-11.593620 8.565320 0.520710
11.878700 8.675300 1.902690
-7.825110 3.706170 2.154770
-5.484690 -6.990830 2.043590
2.004790 -1.378360 1.283960
11.125250 6.964580 3.768300
-4.719060 -3.608180 0.106910
4.639010 1.692370 2.876030
-2.278490 4.991600 3.035470
2.299770 8.076090 1.033860
9.384270 5.164180 2.396080
2.025130 4.311420 0.711140
10.220620 -5.124410 3.114920
11.860120 -9.628230 1.669610
2.790870 -11.403390 2.053030
-6.742440 -2.658270 1.557820
3.369340 2.249540 1.597970
9.921220 -0.689240 3.248030
11.211740 11.907110 3.767170
-2.145310 11.532820 3.351230
3.758820 3.730460 1.747210
-6.305980 4.814260 2.124480
0.257080 -9.162490 0.779940
3.326770 11.377570 2.556900
-9.872580 -11.235020 1.804180
10.539950 10.134280 2.139300
11.147330 -0.597950 3.815000
11.916320 -5.956950 3.552480
3.046360 -5.241890 2.410020
-11.233670 4.446400 0.765350
-7.098890 -8.401260 2.207840
8.236100 11.833810 1.815590
4.839470 0.398420 3.913610
-6.732920 -3.507040 1.500760
5.986500 -7.871160 2.275180
-1.205670 -6.017470 3.898980
-9.974520 11.585980 2.034230
4.724710 -9.074450 2.060660
3.530760 0.762650 3.102430
9.983860 -2.243740 1.907120
9.745740 -11.313400 2.627980
-0.867570 5.207400 3.237800
-9.063430 8.017180 2.191060
-0.636570 -9.948320 1.728380
10.911740 2.714100 2.086480
-8.994040 -0.131950 3.408850
3.456690 -2.431290 1.551740
3.060500 -0.358300 2.855480
5.785420 -11.852760 3.233460
-1.539530 1.319240 3.248420
2.524150 10.348620 0.818290
-4.608160 -3.815730 0.224180
3.364450 10.329090 1.602790
4.473550 -1.858560 2.687810
7.195050 10.285200 0.557230
-6.949370 -8.320290 2.168390
10.013320 -3.707270 1.710920
2.614710 11.218100 1.717850
6.760080 -1.185870 1.916470
-10.990860 2.527340 0.182810
-1.271900 9.231420 1.974300
3.458400 0.521150 3.178780
1.686870 -11.122920 1.133730
-8.789750 3.562040 1.680300
-7.989220 9.507070 1.994250
-8.561660 -5.122320 3.158420
3.339650 10.024820 1.371460
0.427950 -0.521670 2.451980
8.584430 5.329210 1.833570
8.767610 -2.989370 0.400680
-6.719560 3.834820 1.653470
7.532640 -1.406170 1.215080
7.898500 -8.624640 0.304380
0.630590 0.344610 2.351580
7.340590 -4.114250 0.565810
11.535850 -2.164250 2.298330
-8.343130 6.817230 3.743490
5.278780 -9.284940 1.853610
-3.016130 7.602790 2.373700
-7.744860 7.924980 2.923120
8.597700 -10.390450 0.695170
10.637580 -3.267340 1.944500
-4.073880 1.530620 1.237180
5.261300 -11.099810 2.957140
7.592960 11.297790 1.331510
2.951700 2.031110 1.367020
4.253150 -2.326980 2.210240
8.661500 7.124060 1.975510
1.814600 -1.302250 1.294900
7.242630 -8.666190 0.455320
-3.823940 -8.433400 0.821840
-6.116320 -6.669430 2.760240
-5.111460 -10.001260 0.240190
-1.333630 9.678160 2.003940
2.789310 -9.287350 0.664380
10.596220 3.114020 1.921690
-5.511380 -6.757450 2.192200
7.394830 8.492810 0.507310
-0.278100 -0.334360 3.219150
-11.799770 3.144350 0.306310
-0.056380 9.120600 1.102260
0.988210 4.809780 1.262190
2.727610 -3.399220 0.630740
-2.728320 -6.701050 3.315570
0.867030 -6.051100 2.210780
-7.153110 10.360310 2.170890
10.301130 -1.243350 3.090040
8.186600 -10.800700 0.861170
-5.271110 3.419210 0.190350
-7.773910 -1.614990 2.952620
8.176240 11.562680 1.588670
4.417740 1.941510 2.594620
-0.941100 9.557160 1.816960
11.485950 1.404180 3.048000
-2.208770 -3.541130 1.882060
-3.123180 -7.812530 2.059860
2.974430 -6.471080 2.816020
5.849330 1.427850 2.562840
-7.889990 8.455060 2.433820
-9.302180 -10.675360 1.807520
-3.601350 7.103170 2.238500
-11.395120 4.711470 1.077850
2.490260 8.798930 0.583280
7.481440 8.669960 0.340200
2.393000 9.001170 0.407780
5.734210 4.263810 2.088120
-9.726540 -10.051650 0.892930
-11.787960 9.223340 0.318070
-4.539110 9.697190 0.051850
-1.010250 4.002450 2.195180
-11.188350 -7.849040 1.023460
-5.978470 7.089780 2.391940
-5.535280 -10.149900 0.571480
-11.271300 -10.946410 0.988630
-0.308560 -7.134680 2.962540
-11.104900 -9.689140 0.040710
-6.848700 9.457470 1.536380
1.762600 -6.155100 2.010150
3.542820 8.174380 2.075610
7.403410 -7.045020 1.823370
-3.319270 -8.396990 1.306540
0.165620 -2.245270 1.210650
3.468690 8.600820 1.641970
-7.921970 -5.429240 3.654700
-0.351290 0.058390 3.342400
-0.088300 2.788460 1.149890
-5.434490 2.720460 0.336960
-10.083920 8.354730 0.907480
1.112880 9.432760 0.103060
-5.454060 4.946590 1.494720
0.105030 -4.867900 2.050040
1.008220 -8.343170 0.684210
-4.533520 7.552260 1.313120
-11.940940 -4.996990 1.695330
6.041010 -11.660320 2.856670
-8.491240 6.146540 3.794410
-4.400410 -10.552570 0.619620
-10.063080 -0.301020 2.359200
2.425120 3.785600 0.543570
5.478210 5.531210 3.451150
0.090190 -7.012540 2.655530
-5.063140 8.408420 0.534420
2.985100 0.849910 2.504200
-2.204440 9.293610 1.814470
-8.589850 8.759090 1.954750
-5.426800 3.231740 0.248580
-10.168980 -5.310910 1.886040
6.918360 -5.310740 1.969960
9.223980 5.573190 2.558920
-10.457440 4.170730 0.625770
-1.032520 7.027070 3.594440
-6.348570 7.116870 2.737490
10.700560 -5.125730 3.358470
