ply
format ascii 1.0
comment Created by Open3D
element vertex 1941
property double x
property double y
property double z
end_header
11.311 4.49258 132.983
-5.43582 -0.3703 29.5825
1.52613 2.98947 4.5633
-5.5196 6.32202 40.458
-2.48338 5.40636 13.4744
-7.20569 -5.12945 58.4998
6.26345 10.0097 64.2791
-4.8307 2.72884 25.1973
2.37142 3.9155 9.45643
9.93981 5.57364 106.566
-6.73316 -10.9808 75.4798
-5.23408 1.0134 27.6523
-4.07851 3.41038 19.5419
-0.02984 -8.99473 20.2272
-1.64472 3.23944 5.32858
7.13696 -3.24386 53.5669
9.86676 -4.32118 102.021
1.73433 -5.17392 9.70026
-5.20596 -6.6574 38.1823
3.0545 11.816 44.2343
11.161 0.29812 124.59
8.98263 11.7182 115.017
1.27085 -5.22931 8.45148
1.68585 3.44988 5.8175
-8.39275 4.6509 75.846
0.32945 8.87574 19.8032
7.66868 -2.38169 60.2267
4.80838 -2.8808 25.1952
-11.8827 2.93282 143.349
6.35246 -3.22647 42.9562
6.58743 -11.7619 77.9796
-5.92435 -4.33287 39.7914
10.1233 2.41946 103.945
6.91456 2.85913 49.8548
9.12342 1.59601 83.8737
4.85388 -5.18292 30.2758
-4.80685 1.9944 24.1002
-5.9021 10.3499 61.6151
6.23575 -0.18794 38.8935
5.08656 -4.60848 31.1826
8.54001 -10.1738 98.8084
-0.69416 4.8535 6.37099
3.64139 9.148 34.1812
11.6733 2.25619 137.538
-11.7615 4.03803 142.408
4.2232 -2.34761 19.2132
0.50115 3.77462 3.81308
7.23966 1.96115 53.3742
10.7978 -11.4715 149.492
10.2938 -5.62361 113.869
-10.4693 -2.05942 110.667
-4.79938 9.87074 47.3919
-7.74292 6.09236 69.2321
-4.40514 -9.20448 40.5859
-11.0679 2.71506 124.341
0.95066 -9.6377 24.1251
7.01245 -8.01297 65.2264
-4.37702 9.45332 41.4997
-1.98766 -7.03244 16.3146
-2.31872 -8.25776 22.4241
0.24241 -6.12239 9.42967
8.19282 7.66006 81.7914
6.74607 -5.94049 54.3318
-3.2361 6.72439 21.7767
-7.73806 -11.6934 94.0612
-11.2314 3.22694 128.748
8.1689 9.4573 89.0911
-1.66725 -9.72172 26.4077
-7.97509 8.43481 81.3885
10.3744 -2.22628 108.868
3.7786 -5.8335 22.7853
-7.55895 -4.99311 63.3706
-2.19787 0.8107 4.99493
-5.39187 -4.68983 34.5709
-0.09531 -10.7675 28.9939
1.4768 6.36374 12.3052
-1.59939 -9.88476 26.9852
8.39018 0.31961 70.4207
-4.59179 -2.5513 22.7118
-3.34762 4.62388 16.5516
-11.6857 11.2701 168.31
-11.4526 3.82456 134.819
-4.3557 -1.19871 19.3313
-0.0701 -0.20008 0.01492
-6.46534 -7.48233 55.797
11.6194 -9.13954 155.894
8.41928 7.30388 84.2209
2.00099 -9.94366 28.7231
-0.34758 -8.94974 20.1453
11.5024 8.73726 151.389
1.51532 9.59467 25.3106
2.96854 8.754 27.9704
-11.2602 -10.8112 156.014
-2.72591 9.29067 29.0097
6.60616 -10.1212 69.2512
-7.30508 0.40957 53.4062
0.44468 -8.01562 16.2603
-10.8735 3.07583 120.598
4.87551 2.01508 24.7857
-2.35558 -8.77855 24.8145
2.05587 3.85566 7.94311
-9.06424 -8.3482 99.5836
-11.837 -4.43444 145.03
7.68688 -11.5246 92.2921
-8.49751 -2.1875 73.4039
-11.2798 10.0377 152.423
5.33392 2.16185 29.6191
5.15779 9.71402 50.1933
3.78241 -2.52882 15.9053
3.30286 1.70247 11.6335
11.2153 9.6366 148.999
-7.15722 -5.54754 58.9196
-0.71539 2.36339 1.9082
-0.81994 5.10208 7.1801
8.88891 2.09543 80.1105
-10.2376 1.0851 105.102
-7.88959 1.68896 62.9588
-3.61249 -6.76518 24.492
-2.94798 3.01224 10.959
4.58318 -0.91795 21.2162
5.27325 -5.53483 35.4657
-3.27276 8.84631 30.2752
3.00465 9.22789 30.3164
8.20815 -11.3648 99.6635
-10.1193 7.7227 117.311
0.02734 6.33488 10.0334
-0.12306 -1.8946 0.91252
-2.24284 -6.82848 16.6874
-8.1754 2.26497 68.1196
-5.17425 4.21776 31.2203
9.80143 -4.89582 102.06
-10.5022 -4.21112 114.728
3.32915 7.83138 26.4159
11.1842 6.42085 135.393
-2.56098 1.35593 7.01825
-9.58056 0.75081 91.9281
8.39701 5.98174 79.455
-1.27319 6.35385 11.7139
10.1448 -10.9337 132.804
-1.86605 -10.8297 32.8027
8.04553 -7.45582 78.6279
2.72711 -1.88556 8.32598
8.05524 -4.7736 70.5837
-1.39944 11.2663 33.6906
-0.14793 6.03537 9.12829
7.66886 -6.18925 68.3881
4.18968 -1.43771 18.0702
-7.04757 -11.3773 82.029
11.5101 -3.38882 135.353
1.4717 8.29723 19.3769
1.59576 -3.43762 5.50077
6.97736 -8.54393 66.9332
-8.41452 4.9372 76.8982
5.19075 -3.72909 30.4204
-1.20433 -8.91457 21.3178
-11.031 -11.3234 153.738
7.53837 -8.04517 73.0082
-1.46006 4.31125 6.77849
-3.93398 -4.56641 20.6892
4.68575 -3.12888 24.4037
5.6401 -9.90889 56.3572
9.41305 8.92136 108.503
-1.20693 -5.51839 9.06983
7.64881 1.81063 59.324
-9.30931 0.34258 86.6926
4.53642 5.05808 26.9752
-6.67145 -11.5518 77.8695
10.459 -3.78427 112.971
-3.44235 10.4569 39.1866
4.79729 0.15618 23.0201
0.77149 -5.04336 6.95407
-0.78942 -0.77644 0.7739
1.28511 8.91926 21.5398
-1.3033 -7.92541 17.4016
1.65197 -2.50365 4.29608
-2.69496 5.56529 15.0059
1.02704 -1.5587 1.66219
-11.0518 3.03547 124.446
6.43244 -6.96838 53.5159
-0.40057 3.24428 2.7918
-8.68622 9.11477 96.2201
11.7021 9.95028 161.691
11.203 5.29418 132.513
0.35356 8.21376 16.9915
-2.47608 6.20475 15.7557
7.18205 2.19159 52.7827
11.4334 -2.89242 132.814
10.0176 -5.36771 107.555
8.39097 8.29114 87.5941
-4.16176 -9.95988 42.12
-4.70884 6.55 32.8988
-10.9199 4.42083 124.131
-5.40846 -9.95259 54.0149
-0.83498 3.07449 3.06031
-7.8616 11.4265 94.4461
-6.56328 6.10028 52.38
-9.99044 -10.32 126.434
-4.53518 -11.6676 54.6013
-3.22298 -5.74399 18.636
-1.8205 1.18261 3.66385
3.41986 4.12233 15.9438
4.76047 10.1231 48.2812
-7.85399 -6.28284 71.5536
8.38957 1.28743 70.7992
-0.83119 1.84118 1.53836
11.0863 -6.93687 134.937
-8.44276 6.73456 82.6188
-7.61997 2.34778 59.442
-1.91584 -2.95199 5.849
-9.4231 8.13117 105.324
11.0845 -11.3043 154.812
11.1016 -9.84148 147.46
-6.41548 0.56376 41.2378
-4.64468 5.08091 28.0269
-6.49249 1.04747 42.4267
-9.65904 -2.12057 94.4212
-7.6847 -8.78567 78.3516
10.4312 0.79105 108.966
-0.53428 5.68942 8.37784
-5.40856 3.30407 31.9817
-0.21296 -1.05123 0.32162
1.51733 6.6695 13.4229
2.51662 -11.4395 39.0491
11.0771 1.03363 122.969
6.11192 -9.8736 61.7275
-5.69495 -6.58528 43.2739
-8.53389 -7.65481 87.4763
-8.32817 -9.29945 90.9783
-8.54585 -1.73657 73.7854
8.79765 2.20247 78.6114
5.73857 -0.04602 32.9317
-7.85643 -9.72095 85.3478
2.12964 -11.1836 35.8035
-2.98319 4.71431 14.4556
5.4086 2.90674 31.3652
9.30266 3.6138 89.8043
-10.3254 7.32501 120.027
9.89521 -9.69098 121.394
-8.66503 -5.52003 82.7004
-5.3553 5.61443 36.5597
8.57052 0.73027 73.5871
8.66442 -7.78205 90.2122
5.09728 -5.27265 32.9324
6.13796 -0.27974 37.6941
-1.64333 4.5545 7.88639
2.97187 9.01615 29.1548
3.40551 10.7708 40.6001
7.34359 -10.8423 83.3173
5.27963 -11.3534 60.0992
-5.59063 10.4538 58.5756
-6.31217 5.05323 46.2273
-1.47084 1.68081 2.86966
0.72141 -6.78022 12.0133
-1.79008 10.1161 28.7884
1.89499 -5.46874 11.0678
3.95735 -2.28398 16.9648
9.44198 -4.7703 94.84
-7.41419 -1.84393 55.8202
4.10675 9.22351 38.1337
-1.9083 -7.60684 18.1076
6.52636 -9.32716 64.3423
-6.45544 3.28495 44.3704
4.54449 4.02738 24.7073
9.45413 11.6919 123.556
0.98402 -6.62232 11.9321
-11.9941 -8.3636 161.346
3.44269 7.66427 26.5374
2.1072 -5.16168 11.101
-9.50295 3.24925 92.9456
-9.28164 -1.61547 86.8013
2.7817 -2.72012 9.58759
-0.15575 -0.08166 0.02593
-1.58912 8.32859 19.8667
-9.28401 0.07125 86.1941
6.17666 9.27811 59.672
-10.7246 0.6644 115.126
-1.26175 -9.80516 25.6273
6.42501 -0.53897 41.3534
-9.34406 1.2699 87.7145
7.05657 6.87607 61.6153
1.2437 -6.10223 10.8561
10.16 1.72477 103.969
-9.69637 -9.35435 115.896
-8.35287 1.88578 70.6595
-3.19613 7.60668 24.6807
5.05654 -11.6626 59.5728
-10.1708 -11.0541 133.993
-11.5249 -4.22394 137.283
-7.52416 -2.68508 58.4154
2.95873 -11.2251 40.2546
8.39435 8.66732 89.2458
2.35135 5.74461 13.779
3.98035 0.34122 15.8723
-6.10281 8.02233 53.3337
-6.24733 9.15544 59.9847
-5.8003 8.52152 51.7976
6.09055 -4.97459 43.2815
-7.62774 3.85237 61.8926
-2.12785 -9.85737 28.8197
7.27158 5.38303 60.1202
5.99869 -6.37283 46.1375
10.7852 -1.66108 117.01
5.26036 -6.70757 38.9192
3.55849 -9.1078 33.4008
7.29471 3.86182 56.9412
4.28624 -6.0563 27.5415
9.61309 -10.6329 120.676
1.1854 9.21707 22.6438
-3.27028 11.3601 42.9579
-4.12798 6.54462 27.7482
-11.8275 -1.80931 140.707
-2.12205 10.482 31.9712
10.0641 9.51731 123.932
-11.4385 -2.47281 132.368
4.92212 5.44807 31.6476
-8.76176 -3.94288 80.6551
2.98177 5.82528 17.3744
10.4849 7.36723 123.502
-4.64811 -8.89222 41.3728
-2.21837 10.2942 31.4136
-7.50228 -1.22199 56.6575
-11.0888 -0.10133 122.964
11.4105 7.93442 145.937
8.84136 6.38253 88.3539
-0.19831 -11.2246 31.537
-10.85 7.89767 133.316
3.30039 -6.02829 19.9776
7.9524 -6.76646 74.687
9.62717 -9.93218 117.345
-11.4885 -1.79053 132.786
1.16403 6.36755 11.4914
-5.59332 -9.64676 54.5502
-10.6378 -2.15719 114.326
11.4933 3.69288 135.505
10.3771 7.63139 122.243
-3.72507 -11.0605 44.4598
1.11017 -3.82713 4.89421
-3.94969 -5.41933 22.9423
-10.8385 -2.54726 119.095
3.57989 4.32695 17.4962
7.05235 -6.34523 59.8011
10.0097 3.14037 102.66
7.64098 8.44606 76.2186
-2.41723 -4.36397 10.6041
-6.65343 0.30747 44.2917
9.90442 5.92396 106.871
-10.6426 6.91976 125.236
-2.52791 -2.33937 7.75849
-7.38751 2.71204 56.414
2.38239 11.724 40.0386
11.8794 -4.06108 145.244
-2.60329 -11.662 40.7774
-3.85957 1.82752 15.7313
-4.19439 -10.9602 47.6245
-1.24267 -11.6482 35.4642
9.60279 -1.05776 92.4933
-2.25127 -4.20391 9.48646
-4.30684 -4.33593 23.249
-10.7869 9.86259 140.674
7.0255 -4.68982 54.8563
1.11096 0.17265 1.24168
-9.20171 -1.25375 85.0644
-1.95206 11.661 37.8054
-6.03779 -6.62211 47.418
4.51571 -1.13212 20.7121
-9.86283 -7.04617 109.688
-0.66823 1.94009 1.38751
1.82673 4.87289 9.27322
-2.80081 -10.7813 36.9039
-11.9896 1.1704 144.093
-6.04219 -9.89241 60.9731
-8.39586 -7.62445 85.0235
9.33435 -6.33666 97.1683
-6.82727 -9.74545 70.3551
-8.4622 6.96284 83.7292
-5.92449 -11.973 70.9378
8.83526 -7.19774 91.0136
-3.72468 3.11055 16.2921
-0.69102 -6.10791 9.80415
8.86659 -9.04758 99.081
-8.36467 -1.94561 70.9141
-0.72158 3.62455 3.80501
-0.43735 2.62896 1.91913
-7.34117 -0.68028 54.0085
-4.90741 1.07561 24.3719
3.79699 10.6658 42.8567
-9.0865 4.80652 88.3401
1.58389 -1.57795 3.1312
-0.85674 11.974 36.5778
-9.94205 3.58901 102.065
-5.36939 4.57276 34.0579
-4.99343 -7.54798 39.1774
1.93493 3.26674 6.41185
5.95858 1.08126 35.797
11.9996 -10.777 173.025
9.67884 -8.53272 111.882
8.44126 6.89631 83.1447
3.44075 -10.9299 41.7047
8.15766 10.0985 92.0425
-0.68573 -1.34944 0.92548
-6.30368 5.56425 47.4766
-0.16135 10.4944 27.5593
-1.8411 6.44223 13.7652
2.09424 5.66434 12.407
8.7496 -1.8349 77.3973
-0.44539 -2.08605 1.28627
-9.12207 9.85021 107.469
-3.26517 -1.8445 11.5119
9.74668 -7.33343 108.443
1.07608 10.5168 28.8087
-0.49599 3.41601 3.16328
-4.56884 -4.82668 26.6985
-8.50263 -5.6324 80.2256
-2.85387 8.46989 26.0793
-8.20161 -0.13305 67.2708
-3.37047 6.67697 22.5055
-5.90836 1.77847 35.6995
-7.96334 6.16992 72.9318
-0.89952 10.8352 30.1596
8.04185 8.28935 81.8497
8.26682 2.36593 69.7397
-3.57304 6.84671 24.4859
-7.95886 -7.10058 75.948
8.89354 -8.77295 98.3362
8.34163 -4.53268 74.7191
-7.8875 4.14539 66.5087
-8.29226 -10.7798 97.8127
-10.2591 -4.30304 109.878
8.04117 2.21941 65.8918
-9.48496 6.02734 99.0466
-3.9479 6.36166 25.7036
3.89143 4.94804 21.264
-10.9739 -2.4577 121.937
5.57097 7.10224 43.6461
10.7002 -10.5045 142.081
-2.84941 -2.63619 9.85649
4.5469 3.61832 23.9474
-3.46317 -6.716 23.2697
-2.95169 5.93948 17.5318
-4.56111 2.73678 22.6762
8.82386 1.36107 78.3237
-9.51814 8.87012 110.265
10.9002 7.41192 132.548
-7.81493 11.3771 93.4329
1.64586 11.7838 37.4234
-8.45812 -7.14729 84.3107
-1.31202 0.15564 1.72746
-11.2293 7.86588 141.564
-8.348 6.05966 78.869
-0.12792 9.76412 23.8509
-4.3904 -11.8537 54.4032
-1.04519 -10.1995 27.0999
7.91257 -10.9146 92.3908
4.38179 -3.59153 22.4249
3.44963 -0.71718 12.0286
4.40077 -9.51349 41.9934
4.16653 -6.71344 28.6275
-1.08923 -2.31976 2.53173
-4.68331 -2.90218 24.0391
-7.63095 -3.74583 61.7392
-1.859 -2.54169 5.07092
-2.93715 1.84791 9.48054
3.41683 -1.92779 12.6038
-1.33215 10.848 31.1942
-4.23609 -9.15743 38.9091
-4.38581 7.43816 33.0669
5.17341 8.30514 44.008
11.7759 -8.81267 158.086
9.81348 -0.97652 96.5429
1.2966 -11.302 33.6152
-0.759 5.68453 8.65455
-5.36389 2.60617 30.4694
-2.11062 -2.2142 5.68039
-2.11232 -6.22875 14.1612
8.72066 7.16685 88.8909
-4.29806 -9.16332 39.4649
-4.32792 1.70607 19.4585
-5.01269 10.5917 53.1731
9.52142 1.5546 91.2617
8.15228 4.56361 71.6664
-5.73898 9.08643 53.5767
-9.94078 0.6196 98.915
-8.75319 0.45836 76.6708
-8.79273 8.87382 96.9982
-9.7102 -6.68256 105.452
-6.74406 -8.3815 63.0448
5.87807 3.36168 37.377
5.09829 6.51137 36.5921
7.02964 -5.10145 55.9221
11.9564 -6.17699 152.494
7.48536 0.48276 56.0889
-6.58087 -2.06261 44.3714
0.37139 3.59367 3.36655
4.8003 0.82187 23.2118
-10.48 -1.56674 110.444
-2.2074 -6.24523 14.6233
3.00863 8.01029 25.0931
11.598 -8.90623 154.345
5.05887 1.04211 25.8636
-10.0036 10.5012 127.641
-7.4293 5.2313 62.0361
-4.36356 -5.10621 25.559
7.49457 10.0828 81.5841
-5.60321 -2.08129 32.4789
1.93885 0.73805 3.89532
-11.6652 10.6612 164.493
1.29886 -1.02697 1.95072
9.09033 6.92086 94.6087
-10.1029 4.04773 106.165
-4.15134 6.29974 27.1553
-7.0124 -3.0495 51.4987
-1.37203 4.71058 7.42986
10.4667 -10.5526 137.391
11.6469 -10.4122 162.753
11.7561 3.15116 140.688
-0.95735 -1.9529 1.86998
0.65568 -2.64312 2.17643
6.48616 -5.66159 50.0836
2.72303 6.4322 17.7582
5.17207 -11.5229 59.9444
-11.6386 -5.97949 144.396
-0.19044 3.44818 3.00875
-0.70443 2.94141 2.65919
-10.7971 2.09748 117.678
3.19331 -3.57396 13.3906
-8.9853 -9.24519 102.104
0.09814 -3.01573 2.28329
-5.46422 -1.29562 30.2774
-3.04663 7.85718 24.7157
6.74977 8.79669 64.9048
9.13407 -1.63932 84.1032
-10.8461 8.81745 137.075
6.68476 10.205 70.7217
8.88555 -9.96649 103.786
5.81004 3.87567 37.5118
4.79216 4.03935 27.0438
6.47437 6.62477 52.8893
-6.21879 2.89968 40.7753
4.69182 2.20277 23.2262
-11.2679 -4.67063 132.42
11.5643 11.6055 167.406
5.50869 -10.1505 56.1039
-5.49974 3.11569 32.6741
-0.4508 -7.76273 15.2682
-2.55775 6.58704 17.3894
0.52578 -10.9164 30.0686
-4.82004 -6.99285 35.4578
9.24977 -6.18802 95.1312
10.124 10.3572 129.314
8.63225 -8.35983 91.9874
11.9461 9.17258 163.744
-6.97511 -2.31705 49.9943
2.55345 -5.97386 15.4419
-10.8939 -9.23242 139.986
11.3121 -0.62448 128.062
-4.04393 -7.45835 30.2601
10.8545 -10.8253 147.117
8.70718 -11.2876 107.668
-8.78045 2.70363 78.9236
-6.07299 1.75635 37.6524
6.66836 5.60082 52.3094
3.07013 0.46974 9.48085
4.73184 -8.63403 41.0269
1.73373 6.48085 13.5062
-9.13937 -8.55273 101.815
11.6342 10.0959 160.835
-6.41369 3.56952 44.3208
-10.4104 -5.86374 116.972
-5.02995 -0.59676 25.3894
-9.23814 -0.84932 85.5236
-11.7507 -5.60652 145.937
6.52255 5.26715 49.4794
11.5892 7.61344 148.799
-1.55244 -5.55372 10.121
-11.4735 6.87147 143.446
6.64844 -8.81386 63.6228
10.4825 4.51263 114.975
-0.25105 -4.74724 5.69709
-5.66767 -9.04438 52.5727
9.92136 11.2051 129.822
-11.3346 -0.79206 128.63
-2.02004 5.27515 11.0374
5.35396 -9.6401 51.8977
-1.61995 8.69923 21.5434
-4.55509 -8.06778 37.0212
10.975 5.27945 127.418
-9.80582 -9.52888 118.854
-8.95878 10.0879 105.701
2.26942 -10.5048 32.7382
8.30336 1.39646 69.4334
-5.43869 -4.1291 33.8417
11.5713 4.15806 138.218
10.9572 10.5026 147.637
8.62275 0.75719 74.4951
11.1116 4.96078 129.62
-9.90278 9.40058 120.158
-2.79737 0.80737 7.98825
-8.70984 2.85984 77.906
6.25945 10.9743 69.2898
6.62811 6.72392 55.2346
7.96266 -4.50079 68.4682
-11.9097 -8.49262 159.872
-7.22835 -3.64124 55.5637
-2.024 3.60804 7.35108
5.51476 0.46223 30.466
0.42493 -8.33196 17.5359
-8.83246 -6.45403 88.4261
2.39365 9.30099 27.3566
10.1636 -8.20986 120.149
-9.90044 -11.7748 132.68
-10.5182 9.4138 132.788
-9.44188 0.99262 89.3954
-11.9899 0.38433 143.794
-6.34812 1.11829 40.6112
-2.74651 7.72381 22.4576
9.98627 -2.86713 101.781
5.20355 9.7914 51.0448
-10.1669 5.08219 109.823
10.8038 5.57985 124.506
-5.49313 5.83086 38.6742
-4.63729 -4.75197 27.1498
2.16845 6.84563 16.4179
5.34048 0.97894 28.7603
-6.4926 -7.47426 56.1201
6.35148 -3.02017 42.6216
-6.98199 -0.23803 48.7623
-4.8944 3.63935 27.2664
6.33204 6.51074 50.6922
1.18146 -6.44461 11.7791
-7.3175 9.77749 77.4456
-2.18802 7.10654 17.4132
3.94411 3.75954 19.0895
9.39143 7.48723 102.214
4.83271 -2.26014 24.6321
1.0252 -4.68856 6.54669
9.50482 -4.75765 96.0003
-7.92819 -0.20419 62.8667
-2.25545 -7.29389 18.3873
3.01235 5.60083 16.9166
4.21292 -1.39875 18.2378
-8.31657 -11.5234 102.363
-6.14825 1.89402 38.6979
6.01598 4.36092 40.9464
3.24654 -3.35299 13.3507
-4.49998 -8.59696 38.7267
1.50579 7.88179 17.7981
-10.596 -1.27752 112.683
-8.80596 -4.67841 83.0168
7.14458 2.50824 52.6178
7.58559 7.99271 73.5121
8.55983 -3.24999 75.9114
-8.36146 3.99551 73.9051
-7.58581 -8.2224 74.4465
-0.17896 0.50591 0.09601
-2.12107 10.657 32.8919
3.5364 2.9018 14.6112
-10.2075 4.96336 110.352
-0.31347 5.25217 6.99458
1.3773 -5.43502 9.28181
5.40116 6.74798 40.5563
10.4866 10.8215 139.246
9.83337 5.10647 103.214
-11.304 -8.30924 145.042
-11.025 6.47649 132.037
4.14179 11.7907 51.9093
8.21807 -10.34 94.2655
-1.24028 -8.79615 20.8814
11.5765 -2.57779 135.676
4.90189 4.1058 28.2429
-8.47673 9.50719 94.4516
7.41491 -4.40907 59.8409
-8.33366 -7.90833 85.0853
5.29281 10.3346 54.7147
10.7723 -4.07956 120.203
3.01791 11.0762 39.7782
1.44523 10.3201 28.7147
8.45081 -11.7658 106.025
9.5117 7.32324 103.88
-11.0681 1.1556 122.837
-6.21906 -3.81028 42.3063
11.0702 -8.4268 140.302
-5.2763 -11.2482 59.47
8.3728 9.20929 91.3065
-5.43255 -9.61573 52.6282
7.63374 -4.74612 63.9054
-6.34681 6.17184 49.8049
2.77885 3.40041 10.6127
-9.4117 0.50246 88.6432
-9.91404 6.74026 109.646
-11.6687 -9.79838 160.161
5.50823 3.69213 33.7485
-6.67186 10.3479 71.2835
-8.48113 2.32191 73.2774
-9.94116 -3.82693 102.488
5.67039 2.03531 33.1889
-0.27126 -0.87692 0.26583
8.20019 3.83747 70.9247
-0.29791 -3.45121 3.06647
9.80048 -3.04532 98.3678
-2.09185 -1.30261 4.80004
5.69662 -11.5135 65.5918
-4.80067 -7.72604 37.9694
2.52019 -7.07707 18.8726
-11.6684 -1.62722 136.815
-10.8203 -6.15557 126.552
9.92108 -8.85189 118.017
1.4255 3.27865 4.71945
-9.3983 -5.72856 96.5321
-3.5182 -8.32947 29.7228
-4.15547 1.7398 18.0247
-10.8942 -3.37716 121.536
7.38064 3.71238 57.9193
-7.94205 0.41195 63.1186
1.43875 8.26273 19.1381
11.8787 -4.7168 146.666
-11.2753 4.34588 131.853
-0.08506 -2.83506 2.01663
-11.5876 -0.49434 134.334
-1.30344 8.68185 20.5426
2.61798 3.45205 9.83299
-10.6538 -8.60239 132.003
-9.30645 -5.05513 92.9986
7.84406 6.20135 71.1434
-7.65367 6.16453 68.079
-6.15394 10.1473 63.6129
-6.51841 6.01652 51.5393
3.43736 3.51005 14.8956
-10.0123 6.07895 109.485
6.59908 -6.9919 55.7696
0.6127 -5.71243 8.53338
11.4069 -7.57458 144.462
0.05671 -11.3087 31.9748
-1.66372 1.54858 3.36749
3.92265 8.66772 34.1696
-1.25078 -1.0861 1.85936
-0.79472 2.98381 2.85735
8.65745 -0.06889 74.9526
8.54417 -0.57775 73.0863
11.9919 -0.82764 143.977
4.70137 -4.81579 27.9008
9.526 -4.94608 96.8605
6.46566 -1.69943 42.5268
-7.22395 -6.01336 61.2255
-8.73683 6.64089 87.3575
1.18074 -10.4935 28.9227
5.4017 4.29166 33.7829
-3.70808 -2.76812 15.6654
5.67661 10.3539 59.0249
-6.72305 5.49551 52.7495
-9.29359 -3.8865 90.147
3.09005 -10.5772 37.518
-3.39604 4.00497 15.543
-2.83271 -4.65311 13.4371
10.9207 11.8855 154.578
0.30415 -1.8197 0.92034
6.55626 -4.33197 47.6761
7.40196 0.30272 54.812
-7.02227 -2.8145 51.2926
-7.12294 -7.3197 64.1308
-0.80219 -11.1663 31.8151
-6.00633 10.6689 64.5321
11.7126 -6.29842 147.102
-5.80298 7.82734 48.9913
-7.6812 0.60725 59.0931
5.81903 -9.9986 58.8541
0.2114 4.55581 5.23354
10.2747 11.4875 138.56
-6.36788 8.88002 60.2636
-8.80124 10.2035 103.49
5.55769 0.67578 31.0021
-5.84274 -8.38714 51.7236
-9.82451 11.8155 131.422
-2.20199 -2.67206 6.63372
-2.12859 -11.6893 38.6907
9.68685 -0.6107 93.9284
-11.0414 -11.7509 156.433
11.8375 -7.89426 155.707
-4.1637 8.34182 34.7328
10.9633 -8.14314 136.772
-9.83055 6.76301 108.074
9.40497 2.53737 90.063
1.96257 11.4404 36.5724
7.9504 4.31764 67.8694
9.22497 -10.7318 113.893
-3.48432 10.4515 39.4489
10.3237 -1.24821 106.968
8.04137 7.62937 79.2155
-8.93468 -7.53072 94.0064
0.31865 6.36069 10.2162
6.70202 5.64713 52.8896
-9.88032 9.6275 120.793
-5.25127 5.9735 36.4965
-6.37228 0.53602 40.6777
-5.93378 6.41509 45.4981
-0.10299 0.82653 0.1814
2.72112 5.53344 15.0592
-5.0992 6.91759 37.9651
4.64611 10.2707 47.9583
-11.665 1.46004 136.604
3.43163 -4.5313 16.9093
4.26289 7.89627 33.76
-0.42424 -11.7186 34.5115
-0.23683 -1.11545 0.36715
6.78504 10.5914 74.0814
6.45589 3.65138 45.0117
10.9795 -3.79152 124.144
8.3897 -3.83164 74.0574
6.71139 -4.84811 50.9188
-7.10237 -3.37177 53.2859
10.3478 10.9266 136.924
9.91899 -8.18173 115.122
8.84254 -2.69031 80
4.29548 -8.41803 36.1669
3.97793 1.82613 16.6577
7.14815 -0.62825 51.1947
1.37562 1.28311 2.30393
9.28127 -5.20784 92.9223
3.35538 10.1588 37.059
-9.91881 -0.48919 98.4426
10.674 3.55263 117.09
-6.87404 9.34993 69.1077
-6.80811 -10.1371 72.0406
5.282 -5.32222 34.981
8.03679 10.2969 91.0967
-4.96916 -9.22237 45.9556
-2.46429 -8.21776 22.9556
3.15137 -3.67907 13.315
-8.41129 -2.2825 72.0522
-7.71304 -5.00277 65.7479
-2.19505 -4.57449 10.0497
-6.04892 -3.71159 40.0334
-4.56353 10.6731 49.3046
-1.87517 7.57615 17.8658
-8.17145 -7.8465 82.1646
3.5608 10.1442 38.4056
4.855 -7.02196 35.898
9.08741 -7.97966 98.4998
1.28892 -0.76932 1.80928
-10.4828 -3.42254 112.817
-2.27604 10.7593 34.1212
-8.78223 -2.31336 78.4655
-3.28929 -2.53141 12.4214
-2.1154 -1.40612 4.96922
6.24496 9.1469 59.916
9.44002 6.73722 100.461
-0.71437 -11.2272 32.0231
-8.96831 -1.46652 80.9682
11.3565 -11.8318 163.969
-1.63434 9.26602 24.1359
3.14148 9.06598 30.4169
-6.28877 9.04643 60.0081
0.49719 6.35235 10.3353
4.07911 11.4078 49.1736
4.74317 -1.83729 23.3415
5.50076 8.30779 47.5132
5.34796 2.22694 29.8405
-10.6694 8.17326 130.538
7.3762 10.252 80.6841
-8.66799 9.45406 97.4789
5.90373 -8.16333 51.5141
11.7858 -11.6251 172.691
-2.31012 8.01566 21.3993
-6.28775 -6.01141 48.57
6.56892 3.08976 45.5373
8.01105 -1.7319 64.9267
-9.86615 -10.009 122.386
-2.32146 3.03419 7.69074
8.49502 9.99513 97.1411
-0.71865 -6.33175 10.5392
-4.87902 10.9065 53.543
-1.66076 -3.17774 5.28264
-5.11706 -11.2933 58.0691
8.14235 2.37307 67.7057
-8.75449 3.74134 80.1405
-8.0831 6.4868 75.8561
11.2189 10.5096 153.476
-1.53864 8.1525 18.9832
9.89757 3.1261 100.405
-3.31001 1.47377 11.4991
-11.7706 9.54169 161.309
5.04472 -9.73075 49.121
-4.04382 -1.88631 17.242
4.08859 -0.18165 16.7248
-8.86905 -6.33793 88.7023
-2.97155 -4.36656 13.5968
-4.4328 1.18812 20.0026
-4.64805 -2.6263 23.3287
-9.33338 0.84187 87.2891
-2.01306 -11.6389 37.9187
8.39652 4.26766 75.0548
-11.1678 -9.05963 145.238
5.66326 10.2336 58.2543
-1.48671 0.45676 2.26247
-11.4563 -9.20423 152.427
-8.84496 8.09359 94.6099
7.37633 6.56415 65.1822
5.45935 2.49864 31.3653
-0.70625 -0.79272 0.6559
-11.3531 -0.47991 128.95
10.3523 6.75614 118.583
6.29516 2.3239 40.9791
-2.417 -4.89855 11.8408
-5.52366 -7.67898 45.2525
-11.5929 10.2856 160.844
2.43734 1.04877 6.2156
-4.64497 -0.10716 21.5786
-0.36748 6.56901 10.923
-5.81352 -0.75739 33.9404
-9.53011 -11.3544 123.053
1.09542 8.30667 18.4501
0.92374 9.56605 23.7306
0.3351 -3.21886 2.70255
-0.71516 -6.52387 11.1517
7.18978 4.18816 56.078
-4.83559 5.44224 30.7874
2.62957 4.66391 12.3527
-0.26842 4.36666 4.83898
-11.2403 -2.24064 127.599
-7.06256 -0.98956 50.1246
-10.5418 -0.39832 111.17
-4.12665 -11.99 52.9695
8.54524 6.42084 83.328
0.28245 -11.3376 32.2153
-11.1685 3.82389 128.392
10.4715 -3.50191 112.717
-4.61005 6.40842 31.5195
-4.53251 6.54178 31.2424
-8.49334 7.23292 85.2155
6.34107 7.17268 53.071
8.98468 7.34836 94.2241
11.2094 -2.21519 126.877
-9.95015 2.12072 100.13
-0.35878 3.23407 2.74353
8.10051 -5.20146 72.382
-9.83435 -3.75507 100.24
-0.35498 -10.8677 29.6526
2.86002 8.20666 25.017
6.15072 -1.48433 38.3822
7.53901 2.91166 58.9562
9.70691 5.40541 101.529
1.54026 -6.85746 14.1286
-1.52183 4.07033 6.45786
9.01166 -6.64011 92.2329
-2.89517 10.4552 35.7098
-3.46873 -3.78921 15.6216
-8.20631 -7.08552 79.8947
1.58248 -0.66252 2.61397
-1.17252 6.36464 11.502
-10.0599 8.33382 118.564
-1.36772 3.20932 4.44559
6.08324 -9.20647 58.1956
8.17666 8.08209 83.1878
10.1946 -11.3976 136.406
-9.16721 -9.3238 105.771
1.9824 0.88998 4.12791
9.37295 1.45349 88.3804
-1.03126 -6.32256 11.0572
6.55886 2.23377 44.2661
-10.75 2.13698 116.704
0.23681 -10.5297 27.775
-11.9205 -10.7427 170.951
-0.94381 8.94051 20.8739
2.89486 0.87047 8.56963
-3.20011 6.27071 20.0711
-3.37573 6.00967 20.4246
0.61175 -0.73965 0.511
-11.6946 4.45914 141.734
11.7468 10.4913 165.505
7.61512 -5.79552 66.387
-8.42896 -5.18117 77.7585
-7.95112 -0.28439 63.2405
-4.63345 10.8825 51.0762
7.26099 8.08458 69.0621
8.50195 -9.55428 95.1043
-8.52806 -5.98965 81.6968
-10.8057 -4.8439 122.63
-4.21643 5.11972 24.3311
2.75845 11.9882 43.538
-9.47328 10.29 116.214
0.41167 0.12923 0.17365
-2.31464 -1.09054 5.65486
-2.78163 6.24976 17.5023
5.03109 -10.2797 51.7302
11.7635 5.71465 146.543
-4.30559 1.0885 18.8343
4.84352 -7.37829 37.0695
11.9929 -3.94951 147.728
-11.9436 -11.7774 177.326
4.54111 -6.25287 30.3963
7.89633 -3.78231 65.9285
-3.22017 3.08033 12.7416
-5.76712 -5.87604 41.8917
-0.0898 11.1051 30.8391
-11.294 -6.4256 137.875
-2.37285 7.00121 17.8847
1.68623 10.9726 32.943
7.32685 3.97508 57.6331
8.18833 7.51725 81.176
-9.20905 1.21959 85.1784
-10.5931 -10.0904 137.669
1.53234 9.57512 25.2688
-5.68136 -3.82659 35.9386
-11.3986 7.62628 144.468
9.50489 8.81947 109.789
1.70261 -6.56202 13.6639
6.94977 -2.13181 49.4355
9.14004 2.99153 85.7777
-11.7915 -1.6641 139.732
9.70774 -7.10112 106.847
-3.50543 -5.14208 18.8983
2.85332 10.385 35.1035
-4.06846 -9.60602 39.6213
-3.9731 10.3629 42.6332
-1.10293 -2.8539 3.25264
0.37627 -9.42921 22.3691
9.84628 -9.05497 117.447
3.44417 -6.03808 20.9769
-7.03487 5.17319 56.1798
-7.55096 4.56385 62.2242
11.5621 10.1344 159.359
-3.83157 -1.72108 15.4214
-9.48562 6.64464 101.015
6.83832 0.38672 46.8001
11.3125 -5.74643 136.228
2.60139 -8.55797 25.0769
-5.29811 5.54634 35.7604
-1.80302 -11.9389 38.8849
0.32131 -8.49309 18.1364
-11.8444 -2.97949 142.51
9.26289 2.76273 87.7092
7.32349 -6.66828 64.7499
1.06952 6.24982 10.9089
-10.6448 7.09532 125.897
1.59033 4.88146 8.4863
-2.58293 1.26468 7.0714
5.17739 -7.50701 40.8942
1.02557 7.44343 14.903
1.2432 -6.71213 12.8087
-4.73545 4.34385 27.1418
-10.2547 -10.8046 134.344
11.9535 -4.83004 148.718
-9.35079 8.92251 107.34
11.351 -1.68075 129.551
-3.11429 5.2152 16.4983
-8.28399 9.85037 92.8819
7.98893 3.60995 67.081
10.3475 6.3854 117.263
4.16586 8.40798 35.0279
-10.6409 1.36827 113.697
11.6523 6.41225 146.055
10.095 8.13565 118.456
-3.62553 -3.92772 17.0012
-1.15173 -7.93393 17.0633
9.70353 -5.68546 102.24
8.17083 -0.22742 66.7754
7.18734 9.76594 75.5013
-10.0923 6.75656 113.266
-2.1259 -10.8946 34.1925
0.67277 -2.46268 1.96882
8.07299 6.58258 76.0058
7.56047 -10.5773 85.1307
-8.2085 -7.53748 81.5828
9.40749 -10.4024 115.553
8.77414 8.80587 96.3714
6.7543 10.5359 73.3719
-9.67353 -3.52075 96.676
9.6986 -5.20318 100.831
-5.97897 -10.5483 63.5646
-1.09626 5.81088 9.64335
3.99339 -4.78207 21.6642
-1.65796 1.40473 3.24216
3.42109 -3.00771 13.9654
-2.5015 7.13815 18.9958
11.1591 10.246 150.769
6.00694 1.30186 36.5071
0.65948 9.42656 22.6499
-1.42317 2.98762 4.25687
9.5451 -5.51318 98.7077
-8.55201 0.53867 73.2093
-7.20426 -6.45695 62.3244
10.4097 4.5841 113.616
1.54159 -11.6072 36.0581
1.32643 -9.67625 25.1669
11.4407 -5.43131 138.265
-7.21019 11.7073 86.2522
4.96558 5.97013 33.5676
-2.03131 10.3228 30.7663
4.05224 5.16643 23.0937
-11.6129 -8.33179 152.214
-7.95062 2.93047 65.3593
-11.2681 2.74731 128.856
5.70613 3.69109 35.966
4.81373 -2.13437 24.3109
3.5498 -0.43618 12.6486
2.25674 -7.8552 20.5189
-2.66818 -0.64954 7.22465
11.5987 -2.9534 136.71
3.58327 8.21458 29.7097
-1.56108 6.6279 13.4192
6.00878 8.77088 55.3376
-10.6608 9.51081 136.267
-3.30552 0.36954 10.9606
2.77179 4.73255 13.282
-2.55506 -0.04035 6.52873
-5.4165 5.836 37.8532
-4.54243 -7.28332 33.8954
0.96574 -10.7237 29.6821
5.72154 -3.95172 36.64
-10.0358 10.4948 128.252
-0.25595 4.45681 5.03131
-6.01828 -5.04326 42.5784
4.78262 2.30611 24.203
9.33437 -9.9684 111.973
3.04197 5.33187 16.3608
4.72017 -1.86897 23.1532
4.314 10.425 45.7809
-5.87756 -4.51902 39.651
1.66588 9.16608 23.7794
5.66116 6.54664 42.7633
6.59419 6.34527 53.549
3.44065 -0.68248 11.9545
-3.54574 -4.70631 18.1096
-8.27402 11.2688 100.206
2.62069 2.19163 8.06881
9.25896 -0.35168 85.7593
-9.6622 2.99191 95.5959
-4.56222 10.0789 46.2101
6.80417 2.73583 48.168
4.42099 -10.4879 47.0442
-1.74738 -7.15337 15.846
10.5653 -10.9953 141.849
4.05521 10.3973 43.4709
-9.54757 -7.83975 106.522
5.92804 8.2668 52.2267
10.6638 3.95625 117.63
5.68394 11.1249 63.2478
-5.14135 -2.61039 28.137
3.67204 3.84487 17.1796
-6.23 -5.84297 47.348
-9.45858 -10.6086 117.6
-3.87709 3.12328 17.4706
-10.629 -9.47488 135.419
2.53603 6.55468 17.1724
-2.68513 0.92798 7.42523
11.8328 -4.33132 144.705
6.93962 3.34611 50.9575
6.01545 7.68792 50.9617
7.73674 -6.2137 69.5097
-4.08334 -6.04159 25.7989
5.35158 4.82837 34.4677
-10.6982 -11.9061 149.892
4.45193 -7.30338 33.1546
4.70953 -8.20933 39.028
-4.58351 6.28659 30.8889
3.37059 6.52562 22.0068
1.7618 9.23044 24.4042
7.18316 -1.71489 52.333
5.39837 -7.63601 43.7196
-11.9544 4.65472 148.326
-8.71308 -6.75511 87.3256
7.23815 0.64885 52.4961
-4.73765 -3.12368 24.8847
-6.02186 7.76879 51.3513
-6.20321 -7.50118 52.5467
7.05893 -0.8227 49.9977
10.7854 0.76908 116.473
8.25847 5.54592 75.8916
-8.81654 -9.75836 101.538
8.5608 -8.89893 93.085
-11.495 1.2763 132.543
7.20953 -4.95315 58.1108
-5.78826 2.8854 35.5854
-5.82686 -1.25063 34.3433
7.56576 -6.68555 68.4149
-5.24251 4.96054 33.6357
-10.5558 -5.34655 118.571
7.7081 -4.55007 64.5907
7.17714 0.6833 51.628
11.234 5.77458 134.539
6.63986 6.71899 55.3739
9.80179 -8.45025 113.927
-0.89259 6.28877 10.6839
-5.29512 -2.59793 29.7256
-0.41522 -11.7875 34.909
6.69517 10.483 72.2986
-0.20364 -3.8615 3.76926
4.16462 -10.447 44.6292
11.7883 5.60934 146.831
-4.07193 -2.64083 18.3241
-11.0595 -11.4882 155.307
9.49666 8.79125 109.508
3.78312 -9.75389 38.0966
-9.33603 -4.14378 91.4541
-10.2745 4.44736 110.51
-7.14185 -8.93715 70.9742
-8.10938 -2.63387 67.4964
-2.13002 -7.60225 18.9855
-8.11662 1.97874 66.8584
0.2743 -3.67965 3.46019
3.10346 -6.25263 19.4053
-7.91486 -11.2831 94.472
-8.34052 -3.14147 72.0315
-3.16864 -1.5214 10.6189
-3.99255 4.98728 22.1587
0.38477 -8.83335 19.6551
4.80403 6.0409 32.2018
-7.78531 -9.28008 82.1411
-1.10144 8.39075 18.8144
-11.272 -4.79137 132.797
-0.56092 -10.5368 28.0709
-11.7856 -5.11479 145.44
9.99956 -11.1842 131.262
-3.5818 -1.8548 13.6894
3.0073 9.09202 29.71
6.74344 8.12612 61.9825
11.702 4.54695 142.104
-9.7117 7.39693 107.996
-1.36418 -6.57956 12.6836
1.40885 -5.2243 8.80819
-10.9884 -7.31557 134.125
4.41672 0.02289 19.5075
5.97977 -5.35661 42.9309
-10.1389 -2.18818 103.995
-10.1382 -1.14686 103.112
5.21273 0.73828 27.3088
3.10463 2.68448 11.4404
1.43045 5.10528 8.56216
5.40718 -0.1417 29.2426
-1.45367 5.90889 10.8419
10.6367 8.0117 129.185
-8.83384 8.28464 95.1955
5.53446 -7.62539 45.1669
-7.04771 -5.97778 58.6037
8.7639 -4.30254 81.4339
-1.05396 2.01 2.12086
10.3206 2.82416 108.509
-4.90124 -1.17127 24.3652
-8.52606 8.37405 90.2248
-3.85392 9.38993 36.8954
-5.09257 -6.17943 35.4807
7.09304 11.7611 84.8923
-5.44933 8.42141 47.4253
-11.9352 -0.35634 142.48
0.83619 -2.02128 1.72061
4.70539 9.59404 45.1521
9.11427 10.0432 108.286
6.49989 1.32643 42.6884
-3.47609 -6.57411 22.888
-9.86521 5.68453 105.401
-6.62729 8.44169 61.7365
9.81617 -2.83909 98.3723
6.64676 4.29327 48.7874
-3.5695 -0.63039 12.8407
-9.12616 -11.8645 118.478
-8.78686 1.84998 78.0646
10.8758 -2.51013 119.858
-2.96092 1.08452 9.06108
-4.81682 8.99697 43.4382
9.66763 4.12319 97.7133
6.59304 0.01377 43.4682
9.12913 8.96554 103.436
1.29143 -6.19866 11.2737
1.04673 9.61435 24.2046
0.78083 5.32942 7.71037
-3.05038 10.9745 39.4145
6.1135 -9.08941 58.0292
2.74581 -8.64105 26.2064
-3.70427 5.92887 22.5095
-6.14112 -5.65895 45.7193
-10.9092 -4.45051 123.963
-8.31511 -9.15803 90.1085
8.22602 10.989 97.8567
-8.19287 10.4076 94.2027
-6.4872 0.93404 42.3018
-11.3312 -8.01695 144.464
2.05019 1.32797 4.64414
11.1664 -9.75785 148.493
-10.7311 -5.53248 122.809
9.63768 4.10625 97.1001
2.18888 9.22634 26.0726
-7.75592 -7.42659 73.9428
-7.58394 5.04628 63.8824
-1.27699 7.41715 15.3842
11.1093 -10.2233 149.546
-5.10763 -3.96883 30.0257
-6.33482 -6.44662 50.5197
-4.15751 7.31251 30.6531
-1.49165 5.88063 10.8705
-10.2188 -7.33743 117.884
-5.1831 8.94495 46.8676
-8.92129 11.8157 114.492
-6.61456 -0.56649 43.8327
-7.66229 -4.04102 62.7932
11.8454 11.586 173.872
-7.09361 -9.68329 73.7608
0.67049 -10.2048 26.4839
-1.70344 6.36157 13.0191
-9.61836 0.93894 92.7332
9.43528 4.02961 93.0839
-1.87821 -5.72605 11.7246
7.24062 0.72037 52.5564
-4.65428 -9.49838 44.2171
-8.11091 -6.1711 75.3076
-5.32155 -4.56861 33.537
10.2292 1.36772 105.105
-8.76045 -1.41737 77.2477
7.98501 2.243 65.0181
-2.80178 -8.17387 24.553
6.76323 -6.7301 57.0648
-8.137 0.42811 66.2565
2.54349 7.20819 19.4588
6.20583 3.78298 42.09
2.84543 10.0462 33.3281
-0.66701 -4.27371 5.01106
-4.23007 -6.86072 29.6608
8.80777 6.35297 87.6668
6.47432 -11.0072 72.2062
0.62673 2.13382 1.53109
9.85395 6.47768 107.59
-3.05549 10.0583 34.6284
10.7353 5.71667 123.417
-8.61802 11.4131 106.835
-7.81852 -7.92918 76.8472
-6.80605 10.705 74.9715
9.47543 -7.8433 105.163
1.5686 0.8027 2.6216
-11.4343 -5.94912 139.59
8.75625 -2.50001 78.2344
0.73313 -8.81439 19.9609
-10.6169 -3.43589 115.67
9.86676 10.1698 123.209
0.60818 -7.12741 13.0699
5.74213 11.6656 66.9936
7.68306 7.38869 72.6775
9.03176 -8.28298 98.7246
-4.62783 -7.79095 36.5915
-5.93653 -7.36226 48.7931
1.44301 6.9604 14.1941
1.02847 -6.38302 11.2435
-5.98296 -2.34491 37.1704
4.26409 11.7651 52.7868
5.59943 -10.6002 59.4447
-1.20142 -3.06974 3.79925
4.37112 -7.56408 33.4105
2.5258 -1.2106 6.74607
-0.83958 10.77 29.7032
9.4435 -3.84382 92.8734
-11.4928 -11.2205 163.559
-2.7326 -11.2322 39.0075
0.63185 10.3352 27.1033
4.2926 4.15923 22.7512
-5.03036 9.60395 48.3635
10.1085 6.63154 113.176
-0.76837 -8.63535 19.2327
-10.6961 -0.63873 114.508
10.862 -5.7719 126.312
0.74499 8.76775 19.7734
11.2462 -7.79629 141.673
-0.45585 4.64209 5.59505
-5.05896 -9.58433 48.5579
-0.31504 0.06169 0.1002
8.45042 -6.60517 82.3166
10.1191 -10.4893 129.903
3.37035 -8.8143 30.7823
-2.77233 -10.874 37.2467
3.76275 -11.6025 47.8126
-10.4005 7.08137 120.706
0.09782 11.8546 35.1425
11.4665 3.31299 134.225
5.3841 4.61124 34.3045
-3.97271 -5.05152 22.1619
-8.79824 5.58328 85.2023
3.54345 -1.3915 13.0401
-6.46662 3.45382 44.7993
-0.22238 3.23089 2.65911
-10.9534 6.77855 131.464
9.91619 -5.83028 106.829
10.6677 -1.63932 114.471
-5.69329 8.4294 50.1772
1.18469 -7.03936 13.7917
0.85067 6.73471 12.0627
-0.05114 7.80193 15.2201
10.7251 11.706 149.286
0.50899 -11.1975 31.6049
-4.75971 -3.53009 25.7702
6.6151 -6.00487 52.7742
-9.47666 6.07002 99.0184
5.31276 5.40502 35.529
7.8289 -5.23836 68.1518
-0.36156 8.96291 20.2142
-1.29815 -0.45934 1.73794
-3.08682 11.1759 40.7535
9.43906 -11.0926 119.857
-2.04381 -8.11855 20.6549
6.1414 5.11681 44.2622
-10.3253 10.9401 136.532
-10.084 -8.62238 120.273
10.4366 7.33346 122.367
-7.69486 2.25641 60.4837
-11.9187 0.83973 142.231
4.78628 -5.28088 29.8804
-1.25337 -10.1066 27.1067
-6.73285 -4.24243 49.8309
6.26367 -3.49483 42.287
7.1584 -6.12641 60.6259
11.1522 4.42254 129.262
-3.90683 4.75401 20.9134
8.13995 -9.40275 88.3617
-6.45356 4.05891 45.7671
9.25026 0.07856 85.5688
-8.46584 -8.64025 90.3339
7.64653 -5.96271 67.3579
-8.28615 -2.01699 69.6773
0.76152 -2.36494 1.97815
3.71332 -7.56835 28.1087
3.15794 0.36509 10.0059
-11.0879 3.80243 126.556
-10.0273 -8.33071 117.897
-5.85547 -1.79251 35.0898
3.0278 -5.01793 15.4625
6.76183 9.50949 68.33
0.78316 -8.92723 20.5372
-4.52455 -1.57849 21.0945
-3.87099 3.74258 18.4862
0.26515 3.63554 3.37459
-2.537 -6.66402 17.5387
8.12569 6.96026 78.1381
-4.67435 1.38179 22.3269
9.60774 -4.91131 98.339
-0.6652 2.86313 2.49187
7.54935 -6.99545 69.2268
-9.77265 -8.23819 112.472
9.19223 7.07113 96.9973
-6.76697 -10.8694 75.3281
11.5346 6.28716 142.929
-4.71176 5.78178 30.5579
-0.2396 11.5022 33.1327
-10.425 2.21271 109.904
0.7217 -6.9882 12.7296
-10.0783 7.95545 117.395
0.81953 -7.23924 13.7733
-7.97059 3.37665 66.3807
-4.73206 -10.5354 50.1411
-6.05592 -0.30613 36.6975
6.67699 -7.91583 60.2472
2.93472 -11.5787 42.1291
9.64932 -11.2152 124.554
1.02174 -2.72336 2.89812
-1.17321 -5.82379 9.85557
6.27215 5.84804 47.8898
-8.45007 9.61892 94.5345
4.32126 0.92305 18.8863
-10.7502 -7.82053 130.858
-1.92953 -7.47192 17.6805
-5.8318 -8.96698 54.1116
4.95539 1.39627 25.0433
10.4345 9.96403 133.699
-6.06729 -7.41582 50.5606
0.5502 0.62259 0.39963
3.08873 7.16241 22.3653
-0.92502 -1.37124 1.32574
6.02115 4.16161 40.584
-7.85287 7.94784 77.4596
8.61795 -7.13542 86.9976
3.81133 2.4087 15.9767
-6.04159 -6.08965 45.7718
0.33613 7.66639 14.8064
-0.88367 0.53367 0.85207
-4.6534 0.45829 21.7067
0.7483 3.22955 3.16745
0.32834 -9.11943 20.8988
-5.50987 1.47673 30.9038
-4.34632 1.80152 19.7019
11.4622 -0.98293 131.623
3.26984 -11.9268 46.254
-0.54041 -7.8016 15.5083
4.23779 3.26175 20.6187
-9.19884 6.79216 96.1519
7.47587 9.3522 77.7545
-0.86917 -11.7972 35.5492
3.0714 -0.63838 9.53541
3.69267 -6.77586 25.1139
-0.32533 7.53018 14.2817
10.4134 4.0103 112.459
-1.61415 -11.6582 36.5839
0.5079 -2.05462 1.31332
-10.9869 -4.11534 124.946
8.11879 0.55795 65.9926
-6.80033 -11.6742 80.3161
8.68828 1.41644 75.9878
-9.59539 1.21701 92.4417
-7.43305 2.09189 56.3442
-5.03271 -6.11759 34.6844
-11.7507 2.20413 139.294
5.26069 -9.70138 51.2041
2.19029 -0.53202 4.86815
-6.87941 -9.09213 67.993
4.97763 -0.63005 24.876
0.09819 8.49955 18.0702
-11.311 2.61537 129.649
10.3676 0.8244 107.658
-1.38636 9.31323 23.6061
-0.34489 10.2384 26.3251
-1.28391 6.91159 13.591
8.62232 11.6445 108.243
11.4325 -0.09973 130.704
11.1223 -10.455 151.033
-9.90834 3.66493 101.533
9.34423 -8.92694 107.237
-10.545 -8.51264 129.313
-4.11303 6.45491 27.3335
6.14893 -9.76915 61.6684
6.13147 -0.02457 37.5951
1.7112 -1.98631 3.91458
4.94328 -8.98791 44.6317
-2.51872 -3.07985 8.71531
-0.0386 11.5685 33.4591
-4.04115 -9.25324 37.7365
-5.42622 7.02697 41.7884
3.65321 -6.61645 24.2903
10.3163 2.80966 108.399
-2.33167 9.11705 26.2168
-2.34772 11.5351 38.7765
-6.5254 -2.4028 44.0242
-4.18092 -7.57281 31.817
4.6733 1.94219 22.7828
-10.4738 -10.5338 137.44
-10.5651 -5.62664 119.536
2.43067 -6.93767 17.941
-3.49062 9.3518 34.0485
2.22481 -11.5301 38.1858
0.75184 -2.04609 1.61189
-3.38227 -11.0692 42.0716
6.01297 11.6043 69.8208
-10.6403 -6.55243 123.949
-10.8271 -9.79891 141.232
7.11457 -10.2407 76.8353
4.46081 -9.17251 40.9326
-6.94989 -9.47064 70.7242
2.79784 1.57696 8.44959
-7.68628 6.21097 68.7229
-5.7397 4.8682 38.869
9.58633 10.4059 118.969
-8.28084 -6.11714 77.9272
-7.71295 5.86929 68.1017
-3.61689 -10.8825 42.6893
-9.73501 9.92141 119.379
-7.8695 -3.44514 64.8962
9.25895 5.93306 94.5285
-3.85562 1.71461 15.6008
-6.02008 -5.80783 44.6741
-9.99157 -6.1046 109.148
-7.08869 4.20096 54.6615
-9.14956 -3.5641 86.8901
-4.90725 0.90208 24.2846
3.43226 -0.66928 11.8924
3.30062 7.52929 25.0667
-2.60479 -8.2528 23.8121
4.18247 11.9094 52.9513
5.703 -5.71779 40.6975
-2.35689 -10.3195 32.1779
2.77757 -10.2057 33.7539
9.77867 -4.08818 99.8007
1.1327 8.71019 20.2499
4.49916 9.3432 42.0663
0.06202 -4.02489 4.05377
-9.67383 -11.4571 126.399
-11.2139 4.00986 129.771
-2.87156 4.96799 14.4161
-4.98663 6.3288 34.8799
-7.0502 7.8738 65.2045
-11.8922 8.5778 159.819
1.06225 -5.90912 9.85781
0.03712 10.0265 25.1339
10.5488 2.08493 112.364
-9.86419 -5.62439 105.211
0.80039 -5.14322 7.25381
2.07866 -7.70737 19.1717
2.54684 -4.23385 10.9678
-8.93948 -11.5981 113.543
-2.89109 -6.26503 18.1711
-9.9769 9.42057 121.725
5.14846 -7.26918 39.7168
5.48429 -0.56876 30.1583
11.3221 3.64918 131.52
0.14677 -7.64264 14.624
-5.7651 -9.94202 57.9473
-4.35702 11.9447 54.6524
7.70486 -7.51368 73.4787
-11.3339 2.50031 130.021
4.35944 -0.54702 19.0795
-1.66198 -10.7098 31.437
10.2194 -1.09957 104.738
9.39631 4.057 92.4055
4.27344 -6.65445 29.3328
9.73803 10.4784 122.278
-5.66314 11.6868 66.2163
7.538 -9.73652 80.5214
-4.21625 -10.069 43.1228
-5.34911 -1.91627 29.531
-8.63113 -2.88484 76.5769
3.09977 4.81984 15.4163
11.5045 -11.4559 165.162
-6.26781 4.34507 44.0053
4.6176 2.98372 23.5478
-11.0985 -5.63902 131.127
-7.32206 8.84535 73.1727
2.00478 4.51903 9.12452
8.11722 9.34694 87.7305
-8.98613 2.90589 82.8616
-8.89425 4.23961 83.6013
-5.17391 9.1431 47.6684
3.92612 -9.97298 40.2795
-0.23024 -11.6284 33.8578
-7.08522 11.1169 81.0968
8.43089 3.70098 74.5042
-4.48799 3.66795 23.5055
-9.85574 2.98368 99.3612
-2.73963 7.68515 22.271
-8.50754 9.29392 93.9724
7.97068 -9.91782 88.1226
-6.15169 -4.75167 43.4879
-0.09726 4.44443 4.9477
-9.2815 11.5053 119.239
-4.60696 9.12141 42.0241
9.08329 -9.26989 103.989
-4.67419 7.62917 36.3991
-5.88083 10.0719 59.9448
9.42524 9.56415 111.703
-3.06616 11.6136 43.12
-11.5196 6.25932 142.496
10.5 2.85912 112.293
-8.40667 -6.23819 80.4009
6.0242 -11.8827 71.5908
3.97629 10.4 42.851
-6.69403 10.6691 73.2677
5.20446 3.71356 30.5341
7.90962 4.3466 67.2853
-3.21319 5.81514 18.7785
9.11865 1.78343 83.9449
6.21646 7.18936 51.5661
-6.44012 -9.92192 66.0863
-6.15477 2.83988 39.8974
6.60826 10.5826 71.6671
-4.24616 -3.20745 20.6018
-10.4299 -0.88647 108.98
8.0516 -1.72635 65.5733
1.25038 -11.0699 32.1994
-7.55454 -8.09363 73.4478
-11.1175 -5.56689 131.346
-1.66322 2.8801 4.84003
10.4978 -4.11976 114.447
-10.0346 -2.87363 102.757
5.69704 -1.60984 33.1042
4.59828 -7.62651 35.6851
-8.54549 -3.43424 75.9739
10.8364 4.60499 122.729
2.66657 11.224 38.6049
-4.42803 2.2862 20.9141
2.70874 -2.25801 8.61191
4.4598 -5.62811 27.8087
0.86294 -8.52244 18.9027
9.48099 -7.53025 104.065
2.11708 -2.46053 5.99558
-10.5133 0.94037 110.75
-1.88677 -9.79284 27.5348
3.75899 2.65766 15.8958
-7.15548 8.94215 71.1914
3.39201 -9.11046 32.2558
-4.14877 -2.18102 18.4015
4.69669 -6.44254 32.4355
1.59071 11.4996 35.5905
7.63568 3.72949 61.781
-10.2444 -0.71683 105.076
-3.0049 5.02057 15.3309
8.44941 4.02648 75.4456
8.29434 -6.84906 80.5234
10.047 8.12137 117.432
5.03306 -5.34333 32.4695
5.48016 10.3884 57.0118
1.94095 0.21319 3.77863
-9.58986 4.4334 96.8791
2.51004 -3.95522 10.2112
11.3228 -8.86461 147.851
0.09574 9.97821 24.9003
1.39875 -1.88391 2.84377
-8.71811 10.202 102.025
6.32156 5.92077 48.726
11.2634 -9.38533 148.884
-10.9637 -2.88317 122.281
5.81653 -9.62346 56.9848
-11.6085 5.0376 141.101
8.92207 10.875 109.17
-8.49515 10.2476 98.421
-4.5149 -1.45812 20.9158
0.1991 5.62244 7.9426
-0.58495 6.68185 11.5039
7.59592 -2.67315 59.4845
11.2192 4.77074 131.561
-10.1761 -1.82176 104.383
-4.27063 4.4539 23.1976
-6.63174 10.4464 71.262
6.29954 1.96476 40.6493
11.4491 -6.02362 140.153
10.8723 -0.55429 118.284
-10.1671 1.79249 104.173
6.75185 8.18936 62.3539
-1.08861 11.1234 32.1176
-9.22643 -5.09013 91.6044
-5.26437 -7.92393 43.4108
6.1825 8.60911 56.7524
-0.9869 6.98924 13.1864
11.0503 -1.59401 122.744
5.93271 7.28021 48.4474
3.89275 9.03206 35.548
-10.6453 -8.83132 132.821
10.4348 -6.71753 120.165
-7.93256 4.4379 67.8493
0.14767 -10.1472 25.7633
-7.07064 2.65424 51.7551
8.23703 4.18536 72.228
8.99024 -0.4946 80.8856
-3.96918 -5.64386 23.7176
-8.49103 -0.75018 72.2382
0.09273 7.41134 13.7406
11.382 1.07716 129.84
-6.09475 -10.9932 67.3589
5.94401 -8.4826 53.3199
0.44642 -9.45185 22.5337
-0.39975 -9.22799 21.4487
-7.89054 2.65452 64.0223
-5.80822 -6.57937 44.5574
3.66911 -4.91129 19.4926
-1.98804 3.00576 6.21094
-4.94877 8.42826 42.2492
-6.28767 1.64201 40.2088
6.84187 1.09566 47.1112
-4.8613 5.12274 30.1929
4.44922 -9.93431 44.4682
1.97066 -10.5261 31.5831
7.00611 -6.17118 58.6064
4.69545 10.4127 49.1531
-1.74523 -6.00591 12.0635
10.3098 -3.90092 110.096
11.5842 0.14823 134.2
-7.86669 11.1842 93.1563
4.37757 6.60174 30.0589
-1.76598 4.82991 8.95068
-10.2164 -0.53177 104.446
-10.2524 9.98229 130.024
-10.9344 2.52531 121.156
-9.07104 5.68205 90.3552
-9.80401 3.32606 98.8842
0.76691 2.284 1.89232
9.10085 -2.36229 84.2206
1.19786 1.14416 1.76216
-10.8079 -10.1423 142.527
7.21302 3.73118 55.5081
6.05534 -9.42816 58.8897
2.52408 10.3505 33.154
6.42199 -9.69694 64.7495
-11.031 5.31861 128.756
8.53777 2.72721 74.753
-3.97806 -9.18449 36.9136
6.87923 -10.614 75.4882
1.3379 -4.08382 5.95937
1.85357 10.618 31.6214
-5.402 7.85869 44.6213
-1.04286 2.54168 2.70258
-10.8584 -0.72514 118.036
2.82793 5.0703 14.4242
5.05936 -5.00076 31.849
-1.70183 -1.10499 3.20149
5.6162 -9.4657 53.9415
0.52618 -3.773 3.83575
-0.4122 -10.3965 27.1918
-3.87061 -4.42415 19.8749
-7.35148 6.47159 64.5147
11.4062 -2.91984 132.233
9.4627 1.15476 89.8761
11.3787 8.20713 146.315
10.6799 11.8457 149.14
4.65787 -7.32456 35.1081
-1.66817 11.9456 38.457
7.36349 10.1559 80.0068
-1.81769 5.0198 9.60357
8.40872 4.93664 76.7992
-1.90895 -9.92958 28.2932
11.2903 -7.01032 139.758
0.86451 3.14552 3.22095
-10.6221 -8.39821 130.461
-2.41286 -6.12694 15.2067
-8.53168 -2.60171 74.4818
-6.70697 -1.45219 45.5106
1.40468 9.36019 23.8764
5.92833 -7.93619 50.8909
4.08635 2.87555 18.7655
11.9488 -2.14828 143.927
8.95758 -11.3698 112.556
-7.39871 6.38534 64.934
2.4335 1.49486 6.48058
-6.82095 -4.92946 52.6003
-3.37333 3.70607 14.8131
-5.85973 -0.14695 34.3418
8.5461 -3.03921 75.345
2.89612 4.57146 13.6121
-7.72917 10.1204 85.3454
0.21441 -8.26548 17.1255
-5.18606 7.5823 41.268
-5.80094 11.4192 66.2504
1.99319 -7.02581 16.3133
9.83615 11.8489 131.849
-3.29436 2.32638 12.2058
11.418 11.3313 162.471
6.94658 -9.5095 70.8626
-4.39554 -7.31388 32.694
1.88731 -2.03878 4.6011
7.55691 0.77226 57.256
-1.78535 -8.01939 19.2651
5.8226 0.45902 33.9553
-2.07767 0.78451 4.47058
-3.10309 11.8105 44.501
2.52703 4.7106 11.9333
-3.42451 -2.8956 13.8234
-11.6851 -9.90384 161.062
6.75865 -11.3164 77.6944
2.33459 4.89858 11.4493
0.91744 -4.52435 5.95913
-1.61772 -4.47071 7.61382
0.00115 -9.37022 21.9503
11.0183 -8.12112 137.892
1.37238 6.95845 13.9884
-1.26414 0.16974 1.60525
-7.73931 7.42413 73.6763
-11.5393 9.22405 154.425
-3.29266 2.19403 12.045
-7.56883 0.94106 57.5087
5.88398 1.12711 34.9388
1.82267 -1.01164 3.57797
9.16622 -4.9495 90.144
-1.54268 7.47748 16.358
9.42886 9.35698 110.792
9.98941 -7.3464 113.281
0.66509 -4.61972 5.77781
-7.34499 -5.1452 60.5671
-4.56797 4.78709 26.5954
-7.95492 -11.8761 98.5413
-7.98422 9.19282 84.8747
-10.4657 -1.51683 110.106
1.34344 -5.9918 10.7802
11.0922 -7.20767 136.024
8.53067 4.70766 78.3128
-0.5779 -3.6799 3.71939
5.95829 -8.71051 54.4695
10.97 11.9362 155.959
9.7783 -5.97584 104.543
-7.0891 11.7756 84.9216
9.59088 -6.47362 102.462
10.2738 -3.74922 109.065
3.49641 -4.26888 16.7807
10.3529 -10.457 134.519
-11.9948 -7.82487 159.183
2.1957 -4.9275 10.8912
-4.85935 11.1898 54.916
2.72648 -5.46811 14.9087
8.02934 -1.98086 65.4512
-9.82098 4.32317 101.124
8.43807 -6.20007 80.8113
3.20467 -7.06326 22.7423
4.78777 3.38271 25.7834
1.70441 -0.84413 3.08317
2.22927 -5.51532 12.5743
0.7013 -4.72946 6.08378
-3.26726 7.0786 23.2016
-6.2697 7.47075 53.2622
0.65714 -2.3254 1.78371
1.69641 7.66342 17.5598
2.24618 9.89619 29.5289
7.48107 11.0692 86.5985
-5.38665 9.16197 50.0014
-2.79434 -11.1832 39.0743
-9.2994 -1.82278 87.3095
10.2739 -3.15068 108.035
1.2315 2.09738 2.61635
-7.90807 6.95146 74.6183
3.43472 -0.06809 11.7985
2.51298 -2.7125 8.15448
6.49851 5.8957 50.9205
3.99454 5.06701 22.375
4.44014 -2.40809 21.1646
5.5739 8.64427 49.7492
5.99947 7.35655 49.5234
1.08757 11.7721 35.8284
-6.19632 2.02399 39.4185
3.66328 -5.76721 21.7348
-10.6119 -0.60624 112.704
-3.18954 -1.01396 10.4302
7.5267 6.73339 67.9858
4.99222 -3.68333 28.314
-6.67419 -2.01708 45.562
6.06844 -8.59125 55.2784
-11.0242 -2.57437 123.19
-8.84217 -1.04711 78.4581
9.12033 5.23542 90.0328
8.13206 -2.49743 67.6897
-9.51691 -9.24023 111.917
-4.20479 -0.84877 17.8603
9.96222 -9.07383 119.83
9.75665 -1.45211 95.7194
2.353 4.79656 11.2883
-1.61664 -7.97035 18.4952
10.5335 6.85124 122.689
4.89016 -11.3404 56.0649
5.43691 -5.37231 36.7754
7.38915 -10.6071 82.7272
-6.50657 -11.0649 72.9432
-0.57623 3.52295 3.43484
-6.12439 11.16 68.6444
-3.5092 -6.77438 23.7876
-0.28 -5.87459 8.70609
-0.20811 -11.9085 35.4967
2.58082 7.80839 21.9034
3.17543 3.47629 13.1045
4.18046 10.9517 47.4613
-0.28152 -10.7394 28.9127
-3.61822 8.88681 32.8353
-8.42723 9.7759 94.9103
-10.0711 5.13509 108.02
-10.533 -2.32277 112.294
9.65042 -10.7072 121.792
11.7916 7.97159 154.929
-11.3097 1.50391 128.474
11.2714 4.51794 132.148
4.10789 -0.67656 16.9892
4.89656 3.05484 26.3093
3.95453 -9.50504 38.2248
-6.72837 4.60435 50.571
1.97961 8.53578 22.1338
-10.3491 9.55246 129.917
-7.68184 -6.08551 68.269
-4.20878 -6.43221 28.0571
