ply
format ascii 1.0
comment Created by Open3D
element vertex 1883
property double x
property double y
property double z
end_header
8.66887 5.83537 -0.511365
13.0509 0.120923 -6.2825
5.64172 6.20996 3.25282
-3.36545 -0.827621 3.00491
-1.11887 -10.1757 -6.21985
-0.960235 -9.60371 -3.26468
-6.67108 0.229251 7.82559
-0.184569 -0.625649 2.13908
-7.29711 -7.35371 3.1197
4.87987 -9.64316 -6.23768
-8.13132 -2.8438 6.19949
2.6246 -7.57332 -3.42387
-9.13891 0.054586 10.0524
-4.0606 -1.82837 6.99326
-1.07493 -13.2817 -5.84017
-10.5159 -2.88091 7.11141
0.347439 -9.3933 -4.05167
-2.49656 -7.71748 -2.48383
13.5321 -2.12974 -5.75234
-6.1152 -9.34338 3.12673
2.06475 10.6202 9.2951
1.8998 -7.35232 -1.57651
5.42964 7.42248 3.31975
-0.0745711 8.93619 8.86037
4.50054 5.95845 3.75466
4.34447 6.24903 6.62767
5.34155 8.00987 3.76182
-4.71034 -7.83687 -1.13238
-1.15053 8.66838 8.60282
2.86325 -7.1118 -5.7286
9.16854 -1.34603 -6.74054
6.76158 -2.53548 -2.12743
-4.5051 4.36868 7.69598
13.5449 -0.0146661 -6.4666
-4.61174 3.59196 6.58451
-5.72951 -10.6682 -0.909643
1.13075 -11.3984 -6.94766
3.97499 -8.8128 -6.16424
1.90726 -2.00837 -1.4355
8.20468 3.84952 0.684677
11.6987 0.167132 -5.48935
7.68245 3.13187 0.726835
6.4214 -4.40838 -2.83761
4.73925 -8.93829 -6.49166
1.88238 -8.522 -1.71226
11.1769 0.372313 -3.21797
9.85939 7.07916 1.36553
-2.15791 -12.9231 -2.65528
6.54961 -1.28638 -2.3861
-3.0738 -13.5963 -2.8293
7.92507 -3.52178 -6.27472
4.38247 -9.41242 -6.07657
-0.377702 -9.55743 -4.91221
3.01494 5.88285 6.06734
3.63775 1.62911 1.94717
-1.72539 -11.5358 -4.58169
2.684 -6.25585 -2.94733
0.031578 -0.261812 2.41032
5.47163 8.34723 3.16327
11.2621 1.47941 -2.11167
-3.39778 0.46456 5.6435
0.0774544 -4.12911 -1.88547
8.83126 2.33059 -1.1831
4.02177 11.983 6.32153
-4.14499 -6.69615 0.446354
-8.70976 -6.06551 7.29265
0.155422 1.8797 5.82512
2.34139 2.10465 2.52345
-4.54005 4.46039 8.22276
-4.60676 -9.23882 -1.34458
3.35074 -5.49547 -4.31151
8.84566 6.21548 -0.511804
10.2704 6.44489 -2.1823
1.94611 -1.72519 1.3602
-0.712972 -8.83004 -2.3494
4.7633 -1.21831 -1.461
-1.58039 -5.88539 2.06792
6.83142 0.563344 -2.53396
-1.84188 -11.5305 -2.7337
-5.57693 -6.46594 1.93585
1.72446 9.84501 10.8877
-2.82009 -5.497 2.6864
2.59633 12.551 8.28966
11.1779 -1.12187 -5.79183
8.6415 2.68014 -1.12676
4.32985 -4.42482 -2.14752
-2.6622 -0.624953 2.10106
7.91814 -0.795551 -3.43375
4.21668 1.21229 -1.19516
-2.4352 -13.1999 -2.34208
-7.94531 -4.87675 4.95092
5.88931 2.98606 2.17415
2.32073 5.68176 5.32431
8.60692 -5.18829 -5.89236
5.91361 9.62211 3.63922
5.10869 -1.9594 -1.35641
4.67116 3.19276 1.97024
-1.00257 -4.36922 2.69155
0.365661 0.296431 2.85215
-1.91285 -11.6981 -2.49303
-8.12858 -0.938012 6.9058
-5.6849 -9.84524 2.6931
-5.43981 -9.60797 2.57165
-9.30774 -7.29071 6.13905
0.48864 -2.68712 -2.24463
-4.33019 -8.20949 -2.03743
6.1931 10.591 6.33444
5.35216 -8.17513 -7.05449
-3.1682 -5.76812 2.28404
6.73602 2.55557 -1.08475
6.82981 -1.84684 -2.45126
-0.026358 1.74348 4.9596
-1.71475 -6.05771 -0.186351
2.00688 -0.00380603 3.2205
-10.3256 -0.433652 7.46814
0.973052 7.73788 6.88805
0.626571 4.01451 6.43983
3.85952 0.0920486 1.81003
-3.84671 -1.95331 5.31648
0.66317 -9.21086 -2.54925
-1.60617 -2.03998 2.14497
-4.54591 -6.50013 1.44643
-0.223129 -8.68052 -2.02239
1.97249 -5.55879 -2.36428
-1.47913 -5.9675 -0.099596
9.2466 -0.979577 -6.38657
8.08999 4.60472 2.38911
3.09265 2.72443 1.93418
8.71218 -4.88193 -6.0641
-7.38977 -6.88783 3.02766
2.30481 10.9291 7.67716
11.3913 0.833427 -3.80554
4.5881 6.33696 6.21386
3.51879 -5.00252 -3.01771
11.3377 2.57957 -2.53134
2.84502 11.1543 6.79455
4.65664 9.07567 6.6806
4.2427 7.60141 7.50733
8.77338 6.0359 -1.11126
4.13295 1.4391 1.10421
10.3547 4.21974 -2.46345
8.38412 4.44814 -0.154248
-2.0113 -5.42269 2.94218
0.29669 -1.55435 1.76311
1.37088 -0.375359 2.97807
-0.912557 6.06377 6.63226
-10.9282 -1.47849 7.47241
-6.01504 1.7064 6.99913
5.21376 -4.80887 -2.75833
-1.81903 -12.095 -4.53893
3.34982 -4.10748 -2.31061
-1.76428 1.266 3.74482
-3.0309 0.314508 2.52002
3.55478 -5.79471 -6.60662
6.85749 -3.84346 -3.44281
-1.63389 6.94855 6.75464
-3.53191 -8.93227 -2.31768
6.42043 0.415018 -2.62023
4.11368 -1.84775 -1.11701
-6.8393 -0.32348 7.70113
14.8362 2.04849 -6.77656
-6.80456 0.864774 8.08071
-3.25588 1.90148 6.33142
4.50391 -1.55728 -1.24269
-5.55615 2.30442 6.47231
-5.38281 3.948 6.81349
5.25552 -6.00968 -6.69118
-6.27954 3.68062 8.49108
-0.393607 -9.42545 -3.16436
-7.86234 -0.633304 7.23715
2.60471 -8.35047 -5.13634
4.19658 -2.09986 -1.16736
2.81242 0.959927 2.83381
-2.0524 -13.0278 -4.81303
-0.450407 -3.80109 1.29101
-9.64275 -3.51063 6.88046
2.14257 6.71296 6.91683
-1.72586 -12.3632 -5.2897
6.89026 2.8496 1.83491
-7.73171 0.394037 10.4922
12.6496 2.37804 -6.91828
-3.06614 -7.55401 -2.54954
4.78313 2.4403 1.21135
-1.62511 -10.8673 -3.59062
11.7502 2.46382 -5.22194
-7.30543 -4.85598 2.19878
0.0571096 -4.79884 -1.60087
-9.13555 -4.45768 7.08428
-4.92578 -8.74441 -0.0505086
1.04715 -2.60531 -2.347
-0.120058 7.98447 6.56851
5.88868 -4.87707 -5.16462
-4.28158 -6.46963 1.30516
-5.10699 -8.71503 2.10493
-6.16707 -7.88764 2.86443
1.86723 -7.93112 -1.47772
-5.24031 -9.79614 0.0443285
-3.70115 -6.45284 0.592039
-7.32048 -0.954298 7.27633
3.31577 -7.25699 -6.43486
2.03621 3.47522 2.0663
-4.65737 -11.138 -1.19274
-0.715774 -5.1202 0.716985
-1.52152 6.82221 6.69438
3.54634 -9.27325 -5.7896
1.28473 9.33884 10.0748
-5.685 -9.6363 2.84353
0.273636 -9.72813 -6.21091
5.86766 -4.69981 -2.91617
-8.21359 -3.55021 6.16118
-4.90764 -7.87407 1.47814
1.08746 0.510746 3.17106
2.64048 5.66212 3.35635
-8.51517 -7.07771 3.9345
6.28295 2.66316 -0.138218
7.07211 -2.67618 -2.86288
-4.33179 -3.52693 3.11908
11.5465 1.48163 -4.08991
-2.47979 5.83837 10.323
0.825755 1.39209 3.38083
-3.71918 -1.55993 5.55606
-2.60023 -3.36025 3.14872
7.08064 9.6587 2.32488
5.2332 -4.83207 -2.92824
-2.62695 1.00999 4.72149
4.49922 -8.89988 -6.38315
-2.29544 6.69973 9.96323
-9.94187 -4.82583 7.56946
-1.25137 -1.64575 1.88751
1.01686 6.90895 6.52079
8.53371 1.75377 -1.31943
11.5035 1.30831 -3.24495
1.7781 -6.50621 -1.81839
1.45757 -7.29032 -1.35733
1.87681 10.294 10.9918
3.88262 -11.5274 -5.8934
-0.522887 5.7458 6.59726
-5.52674 -6.7526 1.99415
-1.03329 -5.97812 -0.686693
6.5122 10.2437 5.91081
4.5462 -2.22474 -1.19985
4.85445 6.57674 4.79361
10.9161 -2.84275 -6.78107
-4.89433 -8.31204 1.24722
-4.7698 -8.26143 -1.07195
3.2294 1.38804 2.37714
-7.90248 -5.33331 3.2919
-0.782312 1.46562 5.20822
-1.96487 -1.45134 2.05584
2.08581 -11.649 -6.71421
8.76259 6.51064 1.2123
-7.34602 -8.68107 3.1922
2.53126 -0.0516955 3.19491
-0.119093 -2.81377 -0.269097
4.58142 -8.76969 -6.48973
4.87253 -5.96099 -6.80067
2.80442 -1.85942 -0.999962
-5.05359 -10.2307 -0.855373
6.12399 9.48018 2.41654
7.2322 9.24622 2.04208
-4.36731 -1.11812 7.3104
8.45065 0.830796 -1.72646
11.6365 -1.48123 -5.80364
3.19176 5.81028 4.22701
6.03785 2.60422 -0.633391
4.22028 1.18911 -1.25078
1.11191 -1.01138 2.50215
-0.165891 -2.00132 1.51498
6.60779 7.23101 2.28052
-6.6608 2.61344 9.34691
6.35827 10.3755 6.13334
-10.9438 -1.71271 7.43347
-1.94882 -11.574 -2.40767
11.4061 0.860511 -4.19055
3.84701 -0.100174 1.76102
-1.13813 -5.87655 -0.398525
-4.89875 -8.56473 0.437784
-6.5156 3.04483 7.72236
-3.42283 2.25336 6.43575
12.84 -1.68816 -5.65635
-2.39676 -1.34689 2.20513
1.52962 9.66166 11.137
-1.87309 7.22729 7.00391
0.0163083 -5.54055 -1.31499
3.13792 12.9781 7.49081
9.66865 6.88033 0.470198
4.76968 1.39581 -2.28095
-2.75694 -6.2988 -0.885934
-2.58748 0.263067 2.06542
-4.39795 -1.3446 7.37845
4.62532 5.36324 3.14043
-0.850585 -9.76288 -4.47978
11.6217 2.03082 -3.47163
1.90537 -4.12043 -2.6255
-4.15494 1.19398 6.31313
8.48467 5.41516 1.18973
-11.1032 -1.81683 9.44907
-1.16245 5.55417 7.00454
12.0274 2.09181 -6.36019
0.260493 -15.2228 -5.77971
-6.94154 -3.53318 2.70672
1.58021 -8.81862 -1.84564
3.9428 8.25335 7.46687
1.10723 4.60672 4.6158
-1.94887 1.24282 4.61601
-5.7448 -3.91966 2.24566
-4.00692 0.825578 6.31386
2.01152 5.15835 2.31812
4.69291 2.1621 0.515926
7.24265 5.222 2.91416
-0.231223 -10.0358 -6.66499
-6.35765 -5.57699 1.93623
8.5489 5.42495 0.462554
4.80321 2.20337 -0.264854
-4.95175 -9.08311 -0.427036
12.3091 3.91303 -2.9518
9.03489 -0.546809 -4.77863
0.129818 0.409308 2.80779
1.41061 8.65744 7.68286
3.91298 5.47952 3.04712
-1.50363 -1.88233 2.04057
8.08387 -5.12408 -5.74371
-1.53591 1.48394 6.23212
5.40141 -7.80645 -7.08975
-8.34722 -6.35614 6.48307
6.79218 -2.17555 -2.29397
12.5278 0.938202 -6.39317
-8.39923 0.0271411 8.02297
4.14629 0.201101 -1.21166
11.7922 2.08786 -5.85522
-8.20007 -4.61689 6.27355
-3.12208 -13.6294 -3.1849
3.92767 0.000350298 0.357937
7.79433 -5.1947 -5.6647
-2.67298 -2.2953 2.80699
1.57655 -2.34544 -2.04191
-6.87369 -2.42702 6.6786
7.47717 -3.00173 -6.02413
10.0628 -2.48361 -6.92569
-2.32264 5.12887 7.98046
0.434725 -14.245 -6.16464
2.67025 12.6488 8.09681
9.60657 5.80524 -2.49295
-1.59603 -6.8525 -1.60681
-2.34061 -6.11962 1.60726
-2.73814 -6.27904 -0.748713
7.26632 -3.1886 -5.57046
-7.88558 -8.04604 3.23637
8.5922 3.2102 -1.0769
-4.03132 -9.76271 -1.65363
-1.52835 8.14576 6.9014
-3.45501 1.35331 6.10154
6.6171 2.7612 1.49736
-9.1094 -7.30869 4.20804
2.4228 -1.50914 2.19391
4.98525 -2.01609 -1.30456
2.04535 -9.34546 -5.36378
7.15865 -1.87224 -3.03908
-2.23558 -12.5827 -1.87851
3.88814 -0.225522 0.0026163
4.44864 4.73608 2.68555
-2.58349 1.02197 4.05213
6.09851 -5.66774 -6.0888
-4.98013 -11.1002 -1.20083
-1.88959 6.73489 7.11993
-4.96438 -6.07403 1.73683
3.27842 -1.28058 0.776135
-10.6234 -2.13388 6.9192
-2.98294 1.61124 6.21019
3.92962 -8.00486 -6.53467
-4.05988 -2.25499 6.41488
4.67172 2.09814 -0.371698
-8.8649 -7.11224 4.98551
-8.79009 -7.05253 5.83909
-9.32209 -7.34236 4.4861
8.53094 -0.0440894 -2.30724
12.1089 2.8921 -6.33129
2.12528 11.0205 10.0503
11.9487 2.41588 -6.22629
4.81394 7.13009 7.03872
2.25873 11.9514 9.95664
-2.39681 -14.1878 -5.69792
6.19622 6.39053 2.90148
1.27897 -1.8806 -0.279569
2.75729 -6.94677 -5.03261
3.25512 4.47879 2.02281
-6.68992 -9.64005 3.04703
0.802456 -13.3707 -6.80653
-1.75955 -2.89373 2.62716
8.27006 4.22731 1.76827
2.06658 -10.8578 -6.31352
5.07441 10.0133 6.18164
11.3118 5.58245 -2.32802
-1.47255 -0.809961 1.8185
10.6306 5.31034 -2.59704
-4.8465 -8.34775 -0.504089
-2.73598 -12.4568 -1.39446
3.70909 -0.802735 -0.0225426
8.99338 6.72005 1.16023
3.38117 -5.55085 -5.8976
9.65896 6.23706 -2.34182
-9.26374 -3.95927 6.9114
6.47703 2.61022 -0.887412
4.48814 7.80199 7.32338
0.095106 1.86101 6.26907
11.6226 1.04106 -5.33646
0.294543 2.0086 5.4936
6.14603 -1.04274 -2.24854
-6.69162 2.46098 9.58264
-0.411614 6.94346 6.26574
11.9486 0.304083 -5.71199
4.66127 -5.26544 -6.18558
-2.56457 4.55755 7.90019
3.59693 -1.14099 -0.351248
0.498473 0.436223 2.9736
-0.415628 -3.89122 -0.0061589
-4.80895 -6.96105 1.4577
12.2857 0.785491 -6.15141
-4.51407 -2.50738 6.93043
-2.45449 -12.7714 -1.67801
-3.76831 -7.64294 -2.49254
1.67865 -6.61374 -1.70719
2.4631 -1.62089 1.60556
2.17304 -2.04853 -1.44649
4.69602 6.78558 7.03658
4.55999 -11.1915 -5.74916
13.0529 0.213368 -6.32952
-5.5383 -11.4134 -1.48719
-11.966 -3.92403 10.5354
1.14122 -11.7573 -7.0349
3.22343 5.29488 2.5732
6.64352 2.48154 -1.27234
-12.2286 -4.36391 8.05077
-6.513 -6.84612 2.5402
1.15961 4.03597 2.77843
-3.45272 -10.5644 -1.58716
0.319749 -9.3005 -2.86595
6.3813 -7.25672 -6.80027
-1.14796 -9.14297 -2.69623
11.7269 1.18969 -5.60399
-2.66851 -1.68559 2.52051
-1.18392 -11.3719 -6.48023
-7.58164 0.385723 8.71709
-0.336862 -3.48717 -0.375919
-1.5893 0.262007 2.00764
11.4161 1.7557 -2.50184
9.66689 4.96003 -2.45138
4.70557 5.76697 3.45825
5.229 11.7395 6.58754
7.16737 -2.54983 -3.62094
8.52967 -2.54307 -6.97098
4.4044 -4.40138 -2.09285
-0.165874 7.31105 6.30594
9.49921 6.79472 -0.0170766
2.69842 6.23223 6.74199
-8.18894 -5.45495 6.37035
-0.86147 5.32873 6.95611
7.67667 3.1285 0.876735
2.33315 -2.58666 -1.97231
2.30433 -1.73178 -0.444127
12.0948 3.59521 -3.2154
-7.52565 -5.00693 2.45556
5.35063 9.59234 5.95445
-3.13955 -9.89466 -2.06433
5.72496 0.413233 -2.57515
6.52868 10.0227 4.91663
12.0707 2.32913 -6.44574
-9.33008 -3.93699 6.93513
-6.12488 -8.82967 3.12903
-11.2677 -4.24188 7.87756
5.82723 -5.30352 -5.88162
12.5073 3.58526 -4.37025
5.32878 8.13806 4.45252
9.96149 6.91555 -1.11734
-7.41712 -4.63109 2.28426
-2.06689 7.24325 7.48596
-7.09874 -4.7386 2.03964
2.22282 11.4618 8.55808
0.75677 2.77725 4.05961
-5.08554 4.44191 9.988
8.42601 4.55814 -0.476979
5.68031 2.5409 -0.718357
5.07817 9.29786 6.23351
-5.05645 -2.42578 7.26655
-4.68168 -7.35127 0.905514
-1.71447 -11.487 -4.7195
2.35202 7.54229 7.43043
-10.6589 -2.95387 7.27309
2.98461 7.46218 7.59753
14.0903 1.54711 -7.06902
-1.618 -1.8344 2.068
2.36427 -9.17149 -5.32724
-3.77089 -1.38614 6.38488
-1.81849 8.15345 8.88434
2.7189 -6.67629 -3.17066
-1.00371 -11.5332 -6.60302
-2.53233 0.37871 2.09049
-0.799773 -7.0106 -1.40378
3.20149 11.2629 6.51385
-5.53202 -4.67148 1.95908
2.26661 11.6991 9.1751
6.62126 -4.21886 -2.98262
1.68296 7.06215 6.89476
7.9055 4.50525 2.6685
2.42799 -0.636678 3.11741
8.61307 5.67741 0.32872
7.2131 -2.34434 -4.45812
2.9583 9.91723 7.23758
2.0858 -6.55783 -2.03087
4.08407 12.8463 6.84654
5.19368 -7.66567 -7.0662
8.06087 7.05913 1.79065
-9.86055 -0.0860391 9.83426
3.84042 3.17467 1.81156
-0.884999 -3.61889 2.31834
4.14351 1.70233 1.2547
1.29227 0.895619 3.24898
-8.71931 -4.53927 6.84346
6.81021 2.62644 -0.879761
13.8994 2.25085 -7.00398
1.72058 -0.320053 3.10914
5.16593 -8.44403 -6.91938
1.0381 2.92816 3.22316
7.25071 3.51637 2.9433
-6.80973 1.78761 9.48834
-0.957056 -15.3665 -5.75948
-5.99391 -6.83405 2.27319
-9.65347 -7.24785 6.66588
-3.79983 -3.47467 3.2464
-3.38282 -4.46794 2.99747
10.877 -3.12246 -6.95697
-7.03476 -1.37617 7.20083
13.4268 2.65326 -6.98416
3.24557 -5.63943 -5.56492
-0.32587 -3.42543 0.263482
-3.477 -0.737516 3.39356
2.65903 -6.97109 -2.9716
-0.793374 8.74338 7.72061
9.0259 -0.929975 -6.37258
4.45072 -5.20458 -6.065
-6.51517 -1.72341 7.27665
-5.55196 -4.47916 2.01999
11.0537 0.202723 -3.78389
5.83559 4.30952 3.07414
-0.582007 -1.30081 1.80584
4.58101 6.1172 3.99962
8.55718 0.0700842 -2.18513
5.63753 2.5298 -0.761985
3.08702 5.738 3.56472
-0.762717 -15.9075 -5.91421
-3.64381 -7.16206 -2.38958
-6.7028 2.48604 9.89043
3.91963 -1.84851 -1.08063
-1.998 3.12121 7.47222
3.04177 9.76817 7.2512
4.16746 12.1221 6.38525
-1.17944 -5.71361 1.7249
8.61086 -0.494233 -3.05655
9.407 -0.523648 -5.19631
11.255 0.500435 -3.90649
-3.26384 1.24903 6.00143
-1.98431 2.46549 7.1846
-3.82504 0.209068 6.29114
5.82034 -4.7408 -4.28667
-11.7539 -3.75004 10.3998
3.43362 6.58147 7.32709
9.20758 -0.512454 -4.43065
4.24009 0.0981337 -1.4059
-8.97516 -4.34173 6.93231
-9.11534 -7.24726 4.90762
-0.653455 -12.2304 -6.55814
-8.41728 -2.14815 6.30996
12.2818 1.48011 -6.45087
4.62555 -4.95316 -3.4088
4.05831 1.92679 1.48096
9.30624 6.68681 -0.312124
-1.77393 -6.80317 -1.63989
9.80498 1.45545 -1.21899
-0.858161 -9.36779 -2.92408
-11.095 -2.51115 7.90434
-7.19895 0.820848 10.281
-10.9562 -1.4333 7.65586
6.47356 8.57081 1.93071
-2.90843 0.396485 2.39638
7.01945 2.54101 -1.09104
-7.58078 -8.74656 3.12793
7.62777 3.19629 2.19477
-0.774107 -5.5843 -0.505447
-2.50342 -4.58052 3.19615
9.74546 6.88291 -0.831635
-5.52339 -8.16697 2.56393
-3.38371 -10.2336 -1.77463
6.75298 -0.0780146 -2.64706
1.07501 9.22842 10.0045
5.5183 2.49039 -0.952112
8.21458 5.17994 2.0259
-2.18675 1.17929 4.35115
-2.13221 -11.4804 -2.09678
-9.04458 -2.78824 6.35023
5.01613 3.03676 1.95124
0.67986 2.62445 4.35577
-1.5504 -12.5182 -5.63327
2.10272 -1.45473 2.34209
-4.50284 -3.47369 3.11518
-12.2256 -4.08766 9.95754
11.8438 1.15992 -5.81775
0.918615 -9.29067 -3.88522
-2.18781 7.2033 9.21098
3.84777 5.48339 3.03169
4.56278 6.39589 6.63543
4.35594 0.512946 -1.72277
3.98834 -9.10948 -6.03387
-2.24616 6.83152 8.44926
-1.41698 -10.3817 -4.28894
-3.57995 -0.87881 4.68758
8.69344 -6.88365 -5.75656
2.032 5.43457 2.86073
4.86295 -4.93784 -4.01511
-1.72485 3.0612 7.54065
3.72483 -5.24872 -4.94729
-1.61963 8.26656 7.31481
1.78924 -8.98579 -2.95297
4.37425 1.74564 0.278409
1.73654 -7.93685 -1.40247
-4.00155 -6.7949 -1.77486
-5.45274 -1.21173 7.67147
8.37121 7.51206 1.79216
6.82913 -4.83988 -5.40423
-0.511067 -9.58618 -3.9536
-6.31321 3.60872 7.88611
8.33963 3.44813 -0.775682
0.693138 -2.0545 0.0686035
3.93827 0.055768 0.708974
1.97373 -6.70963 -1.86941
4.63772 -9.13962 -6.33747
-6.76718 1.86822 8.5358
-7.78788 -3.75876 5.70687
-12.4956 -4.23443 8.67846
0.255974 8.98175 8.64076
-1.16245 -5.72141 0.854567
-3.55583 -7.24097 -2.44373
-8.87095 -7.12313 4.81545
0.752306 -8.85354 -1.82939
10.2821 2.70048 -1.75032
11.8891 0.938476 -5.81913
12.7991 -1.24931 -5.68808
7.34503 -1.82488 -5.09395
-8.43154 -6.66909 5.35241
-6.21359 3.71532 7.59134
-3.79031 -6.60082 -1.49772
9.18666 6.25342 -2.02928
0.0650002 8.86713 7.90531
-9.387 -7.56284 3.53037
-0.451879 -14.5009 -5.7159
3.60804 -11.6669 -6.06058
-0.427438 -12.2032 -6.68953
12.0158 3.15916 -4.02175
-5.97969 3.60935 6.81303
-1.226 3.72568 7.66129
4.46877 12.1949 6.49397
1.62614 -5.46853 -2.21687
4.28676 -6.73326 -7.04404
3.48059 12.7582 6.72527
-11.0921 -1.60838 9.84986
3.16308 12.4919 6.60595
1.95699 2.80811 2.38352
11.534 -1.70325 -5.92191
9.5639 6.68622 -1.68349
7.16745 6.14725 2.52897
3.44178 5.30146 2.66272
3.3717 7.19459 7.60273
2.18549 -1.66375 1.62956
8.14111 -0.836693 -5.4944
8.55342 2.83426 -1.08168
-7.87307 -7.61531 3.31431
-2.65235 5.28718 8.735
10.5644 1.84141 -1.53388
7.13767 -1.76439 -2.96626
-6.57416 2.99478 8.83967
6.97168 1.21365 -2.25238
-3.82552 -2.62425 3.66333
5.47053 -1.32411 -1.77077
-6.38207 -3.20115 3.97806
8.42442 4.94709 1.26996
-0.21927 -7.94275 -1.57378
-6.44778 -3.2155 4.02458
10.4176 -3.40679 -7.15023
3.07645 11.8528 6.48245
9.58848 4.47068 -2.24624
8.75535 -0.586681 -3.73295
8.17217 -4.86615 -5.847
4.93844 2.16576 -1.6607
-9.76249 -2.49569 6.48804
-2.8102 -9.12786 -2.50774
9.38459 -3.76747 -6.89377
-5.88775 -9.4637 3.02732
8.1864 3.69913 -0.0864014
0.394001 0.497731 2.9641
0.768088 3.41346 6.06673
5.32254 -6.57335 -6.90731
-4.90125 -8.51554 1.02004
8.02297 3.4944 1.1801
2.57235 -8.32595 -5.04475
-8.28759 -1.88723 6.40869
-7.53155 -3.83419 4.35319
8.91357 -0.629965 -5.57687
11.6953 3.56793 -2.90822
-6.52172 -8.59972 3.19475
6.84019 -3.99378 -4.54625
-1.71159 -4.50363 3.15037
0.310738 6.11917 6.25329
-4.83146 -2.86448 5.4015
11.1295 3.77065 -2.61337
5.46197 -3.06938 -1.22462
6.18875 9.91031 5.16846
-2.78601 -0.747273 2.2187
0.622743 -14.1913 -6.31854
-5.2604 3.43972 6.41074
-0.779736 -13.2655 -6.00238
0.877991 3.57258 4.02238
-11.1149 -2.77467 7.95308
-4.63721 -8.83946 -1.40807
3.63511 -5.17257 -3.45746
-0.0795208 -10.3398 -6.87176
-5.04985 -3.18383 3.38751
2.51261 11.5217 7.11674
-3.13319 4.9058 9.38436
-8.54558 -5.90593 7.11449
-5.53349 -8.29385 2.62294
5.85908 -4.47162 -1.92972
2.18441 11.6827 10.1585
-6.16013 -7.16194 2.51876
2.64294 6.10796 6.55323
4.56044 1.63214 -1.92139
6.34316 -4.49082 -4.06581
-1.79384 3.36676 7.60199
1.05531 3.76259 3.05464
-2.99084 -4.80557 3.01238
3.58474 -5.32864 -5.17227
-0.43975 -4.02843 0.348632
4.93938 -4.4072 -1.89728
6.02986 9.54848 2.66097
3.38385 -2.66508 -1.5498
4.43964 8.80134 6.96343
8.08857 1.79423 -1.44077
-2.29824 -0.919607 2.00405
4.21418 -0.783199 -1.1681
-2.90017 5.0977 10.2271
4.34141 1.65216 -0.836373
-5.72797 4.04987 7.26523
-10.0968 -0.244387 8.62906
3.37875 -7.47739 -6.4066
5.28999 4.43798 2.92163
4.98191 2.30957 -0.766391
7.32487 -0.390114 -2.758
2.25443 11.5771 8.2452
-9.08577 -4.86432 7.24064
10.8564 -2.25718 -6.50361
-9.37446 -0.112708 7.62515
6.25456 3.1569 2.52624
-3.20481 -13.7167 -4.84918
0.233112 -2.34032 -0.18097
1.13913 -2.72886 -2.4205
-0.886249 -8.65603 -2.29145
7.12805 -1.88994 -2.95899
-2.31194 -14.43 -5.82861
-2.49038 1.0411 3.31739
2.85504 6.08737 6.5848
2.56697 -8.1709 -4.90849
-2.7488 0.859464 3.00998
-7.74473 0.36337 9.20632
-8.26413 -8.16638 3.13837
5.01242 6.89957 5.99523
-4.07063 4.53085 8.37633
-5.41597 -0.863772 7.64836
-6.11696 -4.90195 1.82327
6.29999 10.1589 5.79247
-7.15442 -3.56338 2.98891
7.7639 6.97612 1.90329
4.35494 -3.16789 -1.39171
-0.403413 0.575197 2.67054
-5.1089 -2.72763 6.83462
-1.43618 -8.84165 -2.56644
5.67908 5.74667 3.26704
-1.25965 -10.0067 -3.66213
4.11991 6.44341 7.19573
-3.40918 2.50084 6.54184
7.78685 3.22725 1.53917
-3.98505 4.37377 7.74661
-4.2253 -8.0603 -2.17841
-4.81464 -10.7587 -1.11346
3.22042 12.969 7.28021
2.17182 8.84977 7.7817
-1.39596 1.4418 6.06962
-5.34136 -6.15178 1.80455
-1.3618 8.56281 8.67864
-6.67422 -4.1117 1.99075
-2.23991 6.91029 8.62424
-0.975485 -9.8532 -5.25192
-10.9664 -1.29252 8.19356
-3.72329 -5.94476 1.89242
-7.44449 -3.73194 4.32354
-1.50419 0.0965392 1.95854
-0.255444 -7.08835 -1.28407
7.51499 7.53154 1.86041
-2.32594 -3.52895 3.11935
1.93764 -0.218497 3.18042
0.301686 -10.2029 -6.71572
2.85114 12.8416 8.48288
5.11582 9.33152 6.18943
-2.46425 -6.17604 1.22121
-9.12823 -7.27823 4.47005
-2.66793 -1.98603 2.66214
9.14058 6.54959 -1.0294
-6.18936 -3.16438 3.93011
1.99884 2.06328 2.71967
1.26316 -1.87641 0.57265
-3.25974 -4.64101 2.97813
3.5647 6.71714 7.44028
10.3901 1.42261 -1.33964
10.3243 5.54349 -2.59377
-7.93053 -1.10176 6.90482
-1.54304 8.42146 7.80801
10.3107 6.29142 -2.29941
-8.04134 -2.0293 6.4393
-1.27337 8.54198 7.44345
9.9137 -0.381403 -3.65829
8.8423 6.12976 -1.31445
-1.43771 -11.3305 -6.1092
-2.04576 -4.21272 3.19595
2.60167 12.5686 9.00036
-6.80241 1.81495 9.10342
-1.62981 -5.97336 1.48377
-6.10692 -8.70693 3.10264
8.66249 -5.31242 -5.86754
9.66322 7.05523 1.35703
15.2764 1.69174 -6.76382
0.565741 -7.62039 -1.23961
-3.22476 -0.338035 2.65343
-4.95859 -3.42124 3.03314
-8.57445 -7.46232 3.53696
-6.46786 -7.45845 2.8149
10.3755 4.18617 -2.45949
-4.81626 -9.06558 -0.97667
-5.59808 -10.0265 2.26825
-5.25248 -11.6303 -1.49016
-3.6447 -6.73181 -1.96835
2.61807 3.35513 1.90093
-1.76984 -11.7786 -3.9877
5.10519 3.40247 2.27707
-0.580742 -4.70041 1.24231
11.6121 1.87669 -3.76713
10.8988 0.0890881 -2.57383
0.324626 8.99578 8.69654
9.61148 0.187918 -1.67429
5.879 8.87509 2.33677
-4.5997 -5.20706 2.08896
3.08363 -5.03203 -2.90467
9.63478 -4.8521 -6.61947
8.3344 4.2741 0.325906
9.39548 -1.51444 -6.77345
6.48654 9.98265 3.59525
11.6053 1.82154 -3.94124
-6.95561 1.26942 9.55446
2.05508 -7.75014 -1.63199
-10.2345 -6.56634 7.35298
9.17714 -0.515702 -3.8748
9.78144 5.28717 -2.55112
-2.31129 -6.36793 -1.19887
2.07503 -5.60261 -2.40947
-0.972735 -9.85323 -5.31541
-1.79004 4.69097 7.65285
-3.20176 1.13966 5.90447
0.48074 -9.53469 -5.74884
-0.898148 -5.00792 2.49225
1.24193 4.49754 2.70483
-6.37801 2.69333 7.12136
-3.56944 -6.55526 -1.59696
4.93972 6.72962 5.20101
-0.0928748 -5.58878 -1.22889
-0.832343 -2.89135 1.99617
-5.67065 -7.11729 2.21713
9.6049 4.48847 -2.26215
-5.56948 -10.4002 -0.578675
-0.743246 -2.68238 1.85704
-0.0837647 -5.93238 -1.18777
-0.904497 -2.81264 2.03572
11.3609 -0.0873443 -5.27587
-5.9076 -8.86132 3.04603
-3.96388 -7.79103 -2.40532
9.77255 6.58505 -2.0194
-4.69103 2.23844 6.27015
0.836639 3.41255 4.94025
-3.51718 0.345973 5.8303
-2.24275 6.1164 7.99526
0.0723382 -6.34262 -1.20613
8.43407 2.69241 -1.06865
6.88127 -2.29144 -2.39016
5.42471 8.39027 3.42984
11.41 0.894334 -3.41654
4.481 -0.0633914 -1.69725
-8.84749 -1.19579 6.47058
3.49619 5.806 3.77456
-0.124277 -4.5189 -1.48566
9.58731 3.59176 -1.83482
1.63689 -2.49949 -2.17215
9.26143 6.40265 -1.93354
2.99172 12.3267 6.6236
-11.385 -3.9836 8.05103
1.55444 0.860065 3.23124
-1.2505 -12.2395 -6.09465
-2.38483 -12.0068 -1.6584
6.3792 0.91496 -2.55547
4.84838 3.2673 2.07833
10.1931 3.51108 -2.10369
11.2728 -1.71674 -6.03661
-2.72999 -0.302181 2.08548
-0.881003 -6.73261 -1.28807
6.80584 0.852128 -2.45758
4.3135 -5.04562 -4.49119
12.0837 3.21358 -4.97536
-2.58703 -13.4855 -4.65575
0.50262 -2.10713 0.607313
-4.58123 4.09318 7.07464
10.8155 3.67248 -2.45962
-5.43466 1.66559 6.65094
3.33149 -0.377895 2.83302
2.7673 9.64952 7.46674
1.61279 -9.08322 -3.67364
4.44529 8.22875 7.2104
2.63584 -7.53516 -3.77567
8.52575 5.28488 -0.349247
11.1094 0.349483 -2.46557
5.1678 1.91499 -2.23558
0.181317 -4.67922 -1.76754
7.27208 4.89056 3.01529
-1.12979 5.02526 7.23945
7.49872 3.26358 2.55138
-7.22878 0.0134079 7.88098
7.12932 -2.76818 -3.48352
-11.0415 -1.79098 7.84955
1.58285 -1.6868 1.69382
11.5026 4.93184 -2.49578
-9.915 -0.172571 8.24312
1.024 -9.20961 -2.68247
-2.61153 -6.19977 1.16299
9.52741 -2.36639 -7.02471
-5.82012 4.08018 7.6811
7.46401 2.73749 -0.750933
-4.42101 -5.58022 1.97405
11.982 3.01201 -5.64709
2.34832 3.24397 2.01467
7.44671 1.62173 -1.81055
-5.25621 0.490228 7.12799
2.56843 2.50569 2.21968
5.00472 7.02096 6.44709
-3.03335 -8.33942 -2.61149
-5.75267 3.87719 6.90324
-1.15906 -12.6845 -6.00013
-8.81157 -6.54067 7.24845
3.41968 -2.61805 -1.50992
1.42038 -10.892 -6.64511
-0.171786 -2.33484 1.31069
-8.45191 -6.68971 5.94159
0.292112 -10.0704 -6.61609
-2.90743 5.12358 10.7204
-1.02133 8.69374 7.81868
1.28972 4.74184 2.79901
-9.07947 -4.51579 7.07927
-9.18263 -0.0345205 7.96415
-3.47562 -0.32225 4.64296
7.60216 7.50958 1.84802
-8.17446 -6.05796 5.37888
0.45818 2.02467 4.12902
6.41036 -4.59423 -4.83516
4.24689 -4.93107 -3.0564
2.55315 12.4757 8.06982
-6.65065 -6.16668 2.27743
-2.44086 1.09585 4.724
4.16084 0.617519 -1.26828
-5.39569 1.18742 6.85374
-10.8084 -1.20267 7.24551
-1.02812 1.8555 7.04831
-1.06576 -5.67762 0.135835
6.22871 -4.80579 -5.14174
-3.93608 -5.42149 2.25009
4.50373 1.87259 -1.24314
-9.50079 -7.37253 5.69839
3.27241 4.15276 1.91908
12.4823 3.22251 -6.51409
10.3404 -0.514911 -5.3592
-2.40086 2.56722 7.04391
-2.4993 -14.1967 -5.72679
0.305844 -4.71043 -1.85693
-1.4598 -4.92675 3.0524
0.15328 -8.8951 -2.07236
9.10835 6.81066 1.18319
-3.52519 -0.329812 5.51975
8.1582 6.27647 1.8286
-9.37509 -1.34327 6.31588
-6.79771 -1.35286 7.31909
-1.85897 -12.0235 -2.84472
4.70012 7.80375 7.14413
4.22182 8.46419 7.25265
7.01138 -3.27956 -2.91038
11.8238 3.83668 -2.86414
-4.08724 -2.40308 4.62145
12.3292 -1.81557 -5.71528
-6.1021 3.9806 9.58359
8.01441 8.79864 2.08457
0.353869 9.00643 8.81448
8.04007 -2.71639 -6.69525
11.8437 3.14484 -3.34014
-2.47004 -13.3416 -4.26216
-4.28644 4.58762 10.4393
-11.0252 -1.6175 7.91825
-1.62393 8.30614 7.48354
-0.272755 1.63485 5.96827
0.866427 -10.8933 -6.86945
-11.8205 -4.98949 7.48286
-1.47051 -5.91434 0.836868
2.45243 5.49079 2.76636
7.85873 -2.87166 -6.50357
5.70329 -4.27542 -1.6301
2.67713 -7.30113 -3.66267
4.26872 -4.99951 -3.38139
6.75063 2.4959 -1.22148
-5.40769 4.29412 8.35057
0.451685 3.948 6.72412
0.633735 9.04205 8.60591
-1.65147 8.34103 8.11669
4.45039 -10.4489 -5.74678
2.48853 -11.6514 -6.53748
-5.08188 3.68107 6.54717
-4.56134 -4.38828 2.49562
6.58599 9.98571 3.22931
3.14702 9.40114 7.35071
0.547616 -9.12138 -2.30873
2.49394 3.43186 1.91394
-3.33162 -12.5062 -1.27962
4.10213 0.730814 -0.921431
-0.0743198 -7.71053 -1.42159
-7.87494 -0.901893 7.04942
7.01186 9.80165 2.50082
6.40768 -0.900462 -2.43495
2.93689 -4.50229 -2.62306
4.59085 6.22646 4.30987
-1.04599 1.47354 6.10998
-10.9285 -2.70441 7.53154
-0.947469 5.41767 6.95594
4.88057 7.65183 6.95673
-8.86255 -7.12836 4.66927
0.681006 3.49247 6.41774
4.06735 0.812064 0.665578
0.257818 -13.2145 -6.55072
-1.99892 -6.08106 1.4504
-0.0472961 1.69297 4.45556
-3.52558 1.8044 6.25273
14.2254 1.41844 -7.07445
0.137659 -13.309 -6.442
-10.2505 -0.29082 9.41482
-4.11369 4.41016 7.83543
2.2264 11.5576 9.64257
-0.72993 -9.99705 -6.46885
4.68633 6.18473 4.00106
0.0331516 1.87134 6.57515
3.47339 5.86094 4.37079
4.20512 6.07724 4.88365
7.06165 -6.64562 -6.15691
1.64636 4.96348 2.37349
6.71623 -4.18544 -4.47564
-4.05654 -8.82807 -2.06197
-7.32312 -3.77959 2.7133
9.98243 -3.69649 -7.11958
6.72109 2.77914 1.51853
-3.0591 -2.95171 3.20623
2.17584 4.07588 1.88979
-4.262 -6.82231 0.155274
2.05141 10.0574 8.2799
-9.27119 -4.17467 7.02173
6.52461 -4.32918 -3.37221
3.79334 7.60636 7.64112
-6.88432 1.09881 8.37419
4.00126 2.6623 1.69054
5.80093 9.49923 4.34328
13.3598 0.861319 -6.77803
10.9008 -0.801411 -5.6618
-2.14144 7.07802 7.75262
-5.21338 4.35493 9.12521
-7.12061 -1.16493 7.26102
6.46433 -4.36314 -2.71805
2.82532 -2.66994 -1.80258
-4.54793 -2.73791 5.7386
-2.47693 5.6884 8.73133
12.1329 3.51228 -3.38909
-6.78019 -7.55962 2.98895
0.258015 7.23735 6.37969
-2.43308 6.2695 10.6918
4.83866 2.68017 1.5523
0.531042 -13.908 -6.38261
-1.80463 -1.30662 1.95326
3.79432 1.81365 1.75918
6.68652 4.82094 3.2023
-3.6315 -1.16969 5.03925
6.46622 10.2245 5.87843
4.15954 -0.928969 -1.09298
-2.34437 -10.5843 -2.22021
-0.140122 -4.71603 -1.4008
10.2347 1.52666 -1.30608
-2.11605 -4.90065 3.16665
-2.57876 -8.61172 -2.62431
4.66055 -4.94828 -3.40563
-0.427501 -3.95574 0.46266
9.45347 0.691344 -1.40145
-2.61312 -6.86046 -2.03616
3.81783 5.94698 4.90849
-6.15259 3.84389 8.8448
0.75133 -2.12183 -1.49924
7.00621 -3.85157 -4.99792
-3.15084 -13.6425 -3.56067
-6.09674 -9.56113 3.06943
7.57969 -5.89018 -5.70175
-2.45525 1.12065 5.1135
5.67455 7.01142 3.05042
2.45889 -10.9071 -6.14551
-4.851 -8.18825 0.94415
-6.73021 0.25901 7.8558
-2.39286 -3.90856 3.20886
-11.078 -1.70867 8.79479
-1.08999 -4.44623 2.79471
7.70491 -1.1815 -5.60289
-2.83229 -10.256 -2.04804
8.16936 3.76273 0.623279
5.74074 -4.58635 -2.13585
-2.17787 -4.09128 3.20248
-3.69116 -3.85742 3.11763
4.2229 10.8901 6.29418
-0.647265 8.80484 8.01341
-5.66719 -8.69501 2.86453
1.21558 6.14967 6.24226
13.2319 3.12605 -6.79211
7.02509 -3.37246 -4.36744
-6.81735 -9.45698 3.1024
0.998086 -6.95967 -1.29709
6.71147 -2.19019 -2.18743
2.11071 5.60222 5.09226
2.23983 5.43305 2.69282
2.49239 -6.59708 -2.52096
-6.63138 1.83251 7.83621
11.1973 2.76607 -2.42124
4.14732 -7.58728 -6.8179
-7.83701 -4.44834 4.66537
-6.60332 2.89185 9.28061
4.62434 6.16982 4.06236
2.71266 -0.0453642 3.15446
1.22337 0.0522624 3.07971
-7.7548 -3.96403 5.43391
8.40767 -0.428186 -2.86972
13.1334 3.82384 -4.64081
-5.5625 2.42238 6.44327
0.108939 -12.0822 -6.93945
3.11344 -7.3087 -6.18389
12.4977 -0.0801365 -5.91974
11.1823 -2.08964 -6.25778
-11.0637 -2.2764 7.80335
-0.454429 7.64569 6.34597
5.42285 7.40092 3.33742
0.595781 -13.1605 -6.7578
-10.4042 -0.426954 8.72172
-8.03603 -0.43682 7.33048
-6.31174 -10.5013 1.26122
-6.09325 -10.4329 1.18752
4.47566 -10.2285 -5.80711
-6.55302 3.08061 9.16076
4.52052 5.45503 3.18449
12.1329 3.38681 -3.68265
-2.86878 -1.16413 2.43629
6.15489 -4.5932 -3.76165
1.91535 10.1188 9.96886
2.52534 -8.96466 -5.31012
1.5537 -1.0449 2.66678
-1.30117 -5.85925 0.0595667
7.04208 -3.24289 -3.30671
12.876 2.31616 -6.99302
-2.95918 5.03753 9.48756
3.22912 -5.711 -5.85081
-7.32469 0.628377 9.02166
1.64388 1.94628 2.96125
4.29305 -1.5832 -1.15343
4.84471 9.35628 6.42887
5.1512 1.76618 -2.34102
2.29656 11.8156 8.46378
6.75377 -3.35278 -1.97285
1.16151 0.0759646 3.0677
6.33597 9.9413 4.84094
0.177212 2.05508 6.7717
9.07056 6.08403 -2.02355
9.51644 -4.84818 -6.5328
4.2209 -6.9853 -7.00665
-4.41181 -2.86561 3.89469
3.44598 8.44571 7.56889
-9.92991 -6.28619 7.56082
-2.13888 1.16665 3.43172
-11.8653 -3.86472 9.5184
-2.99784 -13.5635 -2.72749
13.282 0.501528 -6.58437
-7.55537 -3.84097 4.77018
-0.97699 -4.94336 2.65285
4.82669 -9.0636 -6.48098
5.98543 -4.67108 -3.85108
-2.90451 -6.51621 -1.64009
9.03671 5.82923 -2.10398
9.23478 0.0780825 -1.90207
2.37771 -7.83047 -2.12174
-3.81943 -6.30708 1.33204
5.12262 8.2322 6.38266
-4.73966 -0.00175983 7.10453
8.21095 6.19955 1.79274
-1.52035 -5.90921 1.75958
-4.4167 -7.91378 -1.97593
6.66642 2.72795 -0.0827244
-0.235785 -9.51534 -4.56442
-3.38913 3.01252 6.78207
-9.56328 -4.5465 7.33837
-4.49219 -0.577739 7.21359
0.757759 3.01129 4.91696
4.70513 3.12748 1.93679
-7.8317 -6.239 3.25044
8.17279 3.75688 0.355243
-2.48703 -6.19902 0.205803
3.44477 -5.42496 -5.11148
-5.22185 4.13529 7.10108
-2.86622 4.51221 7.94059
-4.64785 -7.40762 0.509888
-1.0512 -10.3174 -6.50142
2.18062 5.21233 2.32762
2.5903 -0.698496 3.09095
0.145066 -2.4278 -0.670047
4.34889 8.43565 7.18908
-7.97183 -5.03124 4.65271
-1.13968 -5.48527 2.44753
-0.968962 3.53381 7.65336
0.203518 1.93237 6.07253
13.5541 3.30231 -6.59467
0.510714 3.80491 6.69253
5.50447 6.65459 3.30526
-0.196627 -3.41399 -1.48344
-0.545986 -4.58296 0.763923
-2.55514 -7.21539 -2.27975
13.6858 -0.0141999 -6.54362
2.05528 -8.71608 -2.35945
-0.884384 -7.32532 -1.58672
-1.37891 -13.3371 -5.65526
7.93322 3.24265 -0.193302
9.89118 -3.21499 -7.08945
-3.76074 -1.51608 6.23457
2.28683 7.50891 7.39205
-4.71985 -11.0619 -1.17965
1.30267 4.53987 2.58698
-10.7517 -5.95309 7.45128
-2.30496 -6.16059 1.01889
12.9552 2.1179 -6.99954
12.9793 -1.62817 -5.66792
-7.09198 -3.42457 4.96291
-2.22569 5.76783 7.93029
-7.8497 -5.27967 3.1176
-4.93908 -8.67952 1.26042
0.288291 -14.8939 -5.85074
0.682644 -8.61459 -1.61601
2.6038 2.04078 2.42412
-0.321166 -1.67848 1.69778
12.6428 3.58022 -5.89613
-10.0428 -5.50355 7.67446
7.77759 -0.701472 -3.12751
1.90941 -8.57769 -1.79599
1.66426 -6.40839 -1.79241
1.37824 -9.17902 -4.18081
-0.554077 -6.77571 -1.24456
-8.76259 -7.6614 3.37503
2.73597 5.70276 3.57245
-6.78415 2.29366 10.401
2.34661 9.99106 7.74298
-3.18194 4.46662 7.93781
4.51135 9.67036 6.53442
-11.58 -3.53217 10.2894
4.04928 -4.62584 -2.47858
4.18633 3.1377 1.83554
4.88465 6.92013 6.76786
-2.35128 -6.68131 -1.74706
2.50551 12.3108 7.60964
-7.93591 -2.25653 6.38932
-3.37756 0.0143661 3.67784
1.33661 4.28979 2.45594
7.44425 9.52092 2.28434
6.75133 -3.50532 -1.99754
6.70363 -0.155862 -2.64627
1.20623 -5.90486 -1.79092
10.4862 6.46293 -2.11431
-7.94502 -6.03655 3.43467
-6.43281 3.5597 9.69679
-1.11579 -1.21119 1.8154
-5.0227 -9.20505 0.0628689
6.952 8.15623 1.85684
3.04463 -5.45771 -3.21062
-8.35502 -7.0051 3.80568
-0.589374 -10.0606 -6.62391
-1.31971 -11.841 -6.16596
-12.256 -4.12324 8.99803
-6.82064 1.73252 9.18699
10.4002 2.8719 -1.89679
0.203799 1.21818 3.37013
0.704799 -9.33201 -4.26935
-7.58194 -5.8029 2.78463
0.453962 -9.37505 -4.19148
13.7665 -0.716588 -6.25709
-8.32946 -6.49808 4.83909
-0.46855 -13.4815 -6.059
9.89685 -2.21385 -6.89225
1.98829 -0.488067 3.1164
-5.97276 -2.40372 7.08426
-7.6879 -4.08029 4.4613
7.79128 0.113264 -2.44049
9.25007 -4.80919 -6.37856
1.24328 -10.8841 -6.71999
2.37275 11.3832 7.44953
-2.428 5.98381 9.97946
8.97047 -5.23141 -6.02913
-11.1375 -2.24067 8.22344
2.59901 -7.64029 -3.10887
-2.74222 0.726247 2.59466
-8.28265 -6.20027 6.39316
-1.72326 -11.0436 -3.13962
2.41333 -9.55856 -5.55304
-0.865333 -9.92155 -6.1717
-11.7564 -4.96351 7.51844
5.34401 7.1099 3.52034
-4.6856 -2.73121 6.50505
-3.26891 -4.69921 2.95131
7.05041 -3.22829 -3.67374
5.1384 7.28347 5.95771
2.46204 12.3734 9.43225
2.73534 -6.91729 -3.60703
-3.66913 -1.76331 3.89019
2.28572 0.381336 3.19508
-1.76947 -6.20612 -0.776467
4.56659 -9.74416 -6.01815
0.069616 0.986646 3.16234
7.01238 -2.7848 -2.62478
-3.44007 3.36544 6.94167
6.78997 10.0907 4.10338
4.46564 6.5766 7.12216
14.7496 1.22093 -7.09188
-2.22113 2.08181 6.82122
-4.51381 4.4806 8.43869
6.77919 -4.17864 -4.71235
7.40284 -3.47648 -5.76739
5.69208 -0.812467 -2.13288
3.28813 13.0702 7.65019
5.66621 5.23417 3.23937
1.79027 -7.05366 -1.59757
-7.13128 0.641845 8.44455
2.90079 5.94857 6.29465
8.62709 -4.04075 -6.43227
0.0760699 2.37752 7.2652
7.02136 -0.161473 -2.66993
4.8742 6.79921 6.63625
1.59181 5.2669 3.28251
2.12148 -7.23582 -1.80345
3.66826 -0.808902 0.466733
7.6368 6.69767 2.0385
5.78647 9.97205 5.79757
0.669919 1.77298 3.59284
1.06331 4.47381 4.02348
2.474 -1.02894 2.90716
2.34481 -8.42472 -3.32479
7.47045 1.68268 -1.7634
-3.21465 -13.589 -2.51685
2.25698 -0.563137 3.13192
-4.30469 -5.95232 1.77981
-8.43505 -4.76148 6.65978
-8.81769 -2.75067 6.29198
-1.21021 -8.2513 -2.20369
9.95491 6.76089 -1.73336
3.89609 -0.0479592 1.41315
-4.22585 -2.08548 7.10045
-1.22931 1.37809 4.90499
-0.193235 2.10833 7.25125
-9.18259 -7.27209 5.50751
3.61842 12.5937 6.56094
7.65434 -1.20864 -4.47241
-0.566771 8.80219 7.85369
7.98237 4.94885 2.45581
-2.97349 5.03423 10.3476
12.4098 2.93175 -6.68543
3.35698 1.5579 2.20844
0.154796 -2.41643 -0.483612
0.191852 -2.03934 1.2656
-2.13677 7.41522 8.5754
-5.02372 -7.78603 1.77023
11.4036 0.87232 -3.51104
5.52879 8.99965 4.73056
-5.68566 -2.40751 7.18136
-0.755153 -5.21479 0.439877
-3.426 0.0515546 5.32192
7.93649 -2.9998 -6.51451
-11.0416 -1.54496 8.88128
-8.21913 -4.16875 6.21992
-0.340933 -2.16054 1.54574
2.59847 -11.2037 -6.22489
-1.05923 -5.95341 -0.631772
1.87703 -1.46127 2.29014
-2.47875 -13.3176 -3.39856
3.03683 5.79054 4.80768
-10.3605 -0.988427 6.64869
-0.147053 -2.86874 0.0636043
1.39106 -8.63464 -1.56783
-8.55611 -0.169074 7.50935
-3.79422 -11.3887 -1.23453
-2.85642 -6.26376 -0.108965
-6.87272 -5.69029 2.18122
-0.345686 -2.60424 1.40139
-1.25793 -10.1338 -5.13953
1.97836 4.04984 1.95781
3.77873 -5.2154 -4.19411
-8.32048 -5.90136 6.71351
12.6306 2.02052 -6.86295
-2.10622 -11.9466 -2.02604
6.40564 -1.88895 -2.02956
1.5341 -9.09984 -2.84654
3.81148 6.30752 7.09006
4.0843 6.25021 6.91475
2.93852 12.8924 7.78733
2.00528 7.6811 7.34776
3.46902 9.39222 7.19819
-1.59213 -5.96866 0.870102
-0.936158 -6.96094 -1.42468
-3.90747 -12.0833 -1.2469
-2.59691 -6.50841 -1.56594
2.15088 11.0674 8.98265
11.1773 4.20097 -2.65165
-8.0751 -5.95298 3.89494
-3.81084 -2.64139 3.63968
-8.16806 -6.01439 5.67724
4.6815 2.4111 1.24056
3.0258 12.9717 8.51349
1.31058 -11.7013 -6.98996
6.38327 2.68428 0.397953
-4.18108 -6.76224 -0.792822
13.5718 1.43956 -7.01724
2.61182 0.631075 3.04764
5.05157 1.6778 -2.35326
2.42535 12.2255 8.69186
4.14931 -4.75378 -2.63989
-4.55786 -8.48712 -1.64585
0.646673 -9.62088 -5.9274
7.98782 -0.919287 -5.40809
2.81995 -6.10014 -3.26377
5.65064 9.49433 5.40116
8.73411 6.00888 0.115718
9.14064 -1.29565 -6.71322
-9.18727 -2.19014 6.27364
-3.16524 4.8905 9.62024
4.83922 2.23139 0.0295924
-5.06531 -0.118507 7.32056
3.41215 4.98733 2.36643
6.05531 2.89598 2.06395
3.92722 0.00275111 0.819487
9.55944 -0.138049 -2.09309
2.22227 11.0999 8.01234
2.38802 10.9352 7.47636
-6.37202 -3.25833 3.25022
11.6782 1.19049 -5.48584
-2.38829 -10.8284 -2.07883
-8.46732 -7.53385 3.45499
-5.19862 -9.65988 0.42507
-8.12471 -6.21994 3.93179
-1.72897 -8.6279 -2.54586
-0.935715 -9.20727 -2.73613
-1.86982 -4.53867 3.18875
6.97914 2.32635 -1.43429
5.80166 1.7571 -2.37195
4.14061 8.96484 7.06878
-0.580534 -9.57804 -3.65971
-4.41485 -10.5799 -1.21184
-1.54706 2.4587 7.36166
-8.46891 -7.76639 3.30519
-2.80422 0.885447 4.17202
-0.882643 8.86246 10.0526
-10.0746 -5.45871 7.67468
-2.90887 -6.14205 1.65167
-10.0431 -0.220179 8.74511
12.9929 3.78842 -4.15482
3.93357 -5.32143 -6.17733
-9.48464 -0.0325262 9.61892
-11.2575 -2.73239 8.82419
1.97903 -1.65638 1.77267
-3.99321 4.51635 8.23154
-4.29039 -2.32862 6.93088
0.502053 -7.5206 -1.2335
-3.2638 0.676996 5.56059
-1.16783 -11.2797 -6.5201
10.4154 -0.232288 -3.40994
7.2191 -2.28561 -3.84534
2.80736 -9.45179 -5.56218
-11.1711 -2.1352 9.91157
4.48194 6.02734 3.90358
12.7819 -0.806629 -5.78262
8.19992 3.84644 1.29119
-2.83398 -9.86801 -2.22753
11.6453 1.37745 -5.37717
-4.84868 -8.27594 0.0432325
-3.11285 -0.579081 2.498
13.5664 -0.907092 -6.05515
-5.72004 -10.4532 -0.549047
-0.381842 3.80564 7.41855
-7.07596 1.15559 10.9401
0.63677 1.71924 3.59014
-2.2792 6.94873 10.1084
-3.74841 -2.94008 3.45937
-2.53252 0.933739 2.82336
3.71959 4.67513 2.30209
0.0365953 -2.62446 -1.33633
2.21958 -8.20329 -1.93583
5.02588 1.55897 -2.39269
-4.05939 -7.44395 -2.31357
2.5296 -2.29401 -1.63535
5.88678 -4.25283 -1.6355
-8.55121 -4.89733 6.84365
5.51367 2.52466 0.56548
-0.00647624 -3.12874 -1.87779
4.3113 8.9033 6.99862
-5.22085 -8.39567 2.28306
-4.0312 -2.7337 3.76209
2.1288 -0.282547 3.19094
-4.71905 -8.37267 -1.29334
-5.83724 -5.38003 1.81994
2.20724 -3.74041 -2.54298
3.83603 5.32168 2.84109
2.52444 4.38174 1.86368
11.8676 3.51053 -3.07383
-2.08275 -14.6267 -5.85536
-7.23403 -2.39072 6.55743
9.51451 -1.38389 -6.65279
3.27114 10.7875 6.64412
-4.25575 -7.66399 -2.17571
1.44857 5.17516 4.65954
4.8189 -8.85137 -6.57688
4.2732 1.72707 0.909856
0.59079 4.15097 6.46042
3.26167 13.095 8.19076
-1.18726 -6.93274 -1.49936
6.50959 -4.17406 -2.11264
-2.10949 -6.63532 -1.60032
-5.40328 -2.66227 6.95579
6.59069 -4.32233 -4.40287
-2.53661 -6.20771 0.178205
0.569378 -9.85786 -6.31164
7.87616 -4.38217 -5.88034
-6.46032 3.30158 7.92446
-1.71308 -13.7788 -5.52245
2.9558 -6.85621 -5.99948
-8.73088 -6.76055 6.94371
12.0447 4.13478 -2.73535
4.88355 1.10138 -2.38293
3.107 -8.2914 -5.82837
-7.16258 -3.52983 3.23447
9.41812 6.75257 -0.305477
5.79455 9.48909 3.91377
2.80134 -6.33462 -3.36839
2.43545 10.8828 7.39845
-7.46432 -8.22274 3.23318
-5.54976 -9.98455 2.25578
8.66045 -1.20647 -6.71561
-0.279969 1.51343 3.99839
-5.48373 -1.52783 7.64141
5.8833 -0.23076 -2.45174
11.0294 1.64673 -1.82576
-6.48631 -3.63618 2.34685
11.6558 2.09766 -4.36841
3.13311 -1.26735 2.24137
1.63697 -4.48933 -2.55632
-1.36484 -10.2401 -3.9466
-12.0827 -4.02675 9.19274
-11.2016 -2.23966 10.1397
3.02835 7.1946 7.53081
5.62377 10.1668 6.01919
2.78494 7.39776 7.5278
1.48021 -3.38668 -2.59749
-7.2838 -3.26546 5.74741
-0.770774 -13.2859 -5.99842
-8.51328 -6.88174 4.35995
-2.35138 -3.39001 3.08683
-10.1237 -0.387328 7.2118
-4.85175 -8.28838 0.485733
5.89274 9.37506 2.64266
9.61405 6.84879 0.218736
-3.97568 -6.33762 1.33605
-10.1449 -5.50685 7.67294
8.55328 1.0598 -1.57047
8.56418 -4.87453 -6.00176
4.22794 1.7535 1.0888
-0.768934 0.220586 2.27514
-1.54473 -11.6314 -5.82082
-0.551815 -4.73246 -0.215194
-6.56728 -1.21998 7.46358
5.63055 2.54927 0.52712
11.0344 0.733719 -1.79112
2.85691 5.48753 2.75684
14.1873 0.356255 -6.96485
-0.30023 -11.8902 -6.8656
-5.16966 -10.1872 -0.722126
2.66542 12.6474 8.68394
-10.8833 -0.935841 9.61559
2.61722 0.715343 3.01797
12.5153 3.85928 -3.09762
-1.77896 -11.9849 -4.83827
-8.99918 -6.78979 7.19298
-0.869271 1.38877 3.88029
5.98503 -4.48296 -2.0274
5.22163 7.62096 5.71152
3.03426 0.975033 2.70039
2.53803 -8.14867 -4.74829
4.9931 9.06207 6.37709
-6.25457 -10.4882 1.10235
-11.5694 -3.52157 9.86385
-0.420154 -6.84105 -1.24514
6.64144 2.6423 -0.783163
6.01371 3.79131 2.92625
5.19496 7.50666 5.81691
2.023 2.06002 2.70853
-5.48132 -8.96157 2.75396
3.01478 5.7868 4.84114
7.15348 1.65055 -1.93467
-0.786353 1.46706 5.4788
0.231356 -9.39117 -3.42692
4.84787 9.78975 6.31568
2.55853 1.31629 2.80027
12.4116 3.33001 -6.26578
-6.57028 -9.17636 3.19871
6.95592 9.13856 1.95235
8.5695 8.04162 1.99895
3.05001 -9.40675 -5.61221
10.6887 0.46626 -1.5747
-0.909411 -15.8986 -5.95682
-7.85944 -4.5429 3.87864
10.4295 6.51517 -2.07735
4.54777 4.30383 2.50791
6.29192 -4.51339 -3.39268
-0.164006 -7.41392 -1.35307
3.98874 8.09033 7.49988
-0.00891235 -11.7768 -6.98752
-10.8284 -0.930019 9.04233
-7.17016 -1.88569 6.87802
7.76583 -0.829017 -3.31146
-7.81053 0.181458 8.29642
-3.51264 -0.306811 5.44954
7.6438 -1.46644 -6.19134
-6.05798 3.95982 9.23166
0.586212 -13.8067 -6.46795
-0.420267 -5.99072 -1.03469
8.68264 5.85793 -0.774911
-0.818098 -3.62781 2.23684
0.777869 5.85048 6.16101
-5.10964 -4.31467 2.2716
-0.933161 -4.14624 2.55722
0.858459 3.65697 5.52986
1.43939 9.45062 10.2899
9.26194 1.54154 -1.22708
0.696642 2.75722 4.69006
-11.2005 -4.6653 7.73553
-8.54503 -6.96655 4.21252
-10.6146 -0.624038 8.26036
3.65127 -5.28177 -4.29863
-3.68215 -4.55365 2.8386
-1.37882 -3.44098 2.66929
4.51497 -9.73028 -5.99943
5.16912 5.6371 3.33537
3.10245 -5.9182 -5.84593
2.26651 -1.69651 0.623852
7.63807 -1.30472 -5.80721
-2.42067 3.96256 7.6415
-4.45561 -2.6796 5.93815
7.22343 5.6515 2.73928
12.6739 -1.1334 -5.68662
0.247181 5.04414 6.49579
0.119414 -2.08574 1.26071
2.85179 5.62351 3.10322
1.02541 -1.94922 -0.70116
-7.69655 -6.92125 3.23252
11.9667 3.28857 -3.445
8.57736 4.95468 -1.17957
-8.45073 -6.36458 6.82639
-11.4807 -3.86938 8.22335
-3.05082 0.6312 3.35375
1.62087 -9.17511 -4.80642
4.43089 -7.98029 -6.77844
-10.8337 -4.50145 7.71908
9.00106 2.78062 -1.24678
3.2642 3.57865 1.82323
3.34408 -3.37098 -1.93139
7.83661 -3.92302 -6.03248
-8.68422 -5.41886 7.16667
-0.489148 7.2942 6.27678
5.07453 7.0216 5.23555
-5.52955 2.02798 6.55122
-1.35277 -11.3424 -6.26202
10.378 -3.33101 -7.12368
4.41334 -10.6607 -5.70644
5.90659 9.63593 4.69003
8.45288 4.89695 0.166601
-0.181485 -7.00618 -1.25031
-2.55158 0.279507 2.05511
-5.52781 -8.15994 2.56511
-7.749 0.442902 10.9444
-5.02123 2.13012 6.33952
-0.686573 -10.2393 -6.7341
6.1565 -6.78242 -6.66444
7.10611 -2.73877 -3.11703
-0.812854 3.24112 7.65926
3.58143 13.0518 7.2066
10.6923 1.83945 -1.61078
5.81604 9.4981 3.4049
11.0541 3.49656 -2.52612
11.2475 0.833256 -2.17924
4.05593 -11.0744 -5.70088
2.57244 -7.77967 -3.13181
11.9163 2.6713 -6.01334
8.51674 4.33926 -0.987998
5.03664 -1.52264 -1.47942
5.93159 -5.75171 -6.22197
2.98872 11.0869 6.70378
7.02955 -3.1652 -2.9012
12.6319 3.61967 -5.6018
0.931595 -7.69212 -1.22421
8.76827 6.01581 -1.14858
-6.07689 3.91506 8.12482
8.37389 4.46986 0.908894
2.32757 4.44775 1.88301
10.0007 -0.312165 -2.70196
4.72678 4.25409 2.57246
6.37781 7.41515 2.32057
5.6794 1.01953 -2.60663
5.86248 2.81637 1.85002
-6.06972 -10.4118 1.54401
-1.45115 -10.7995 -5.98839
0.334309 2.40624 6.95016
-9.14663 -7.04684 6.91514
4.55004 -5.72677 -6.73907
6.56129 -3.71667 -1.7522
10.8039 -0.0274085 -3.87394
4.0776 0.827389 -0.111065
-8.15485 -6.0567 4.38056
9.58132 6.30577 -2.26904
-0.123435 -2.82488 -0.601734
-3.85471 -1.8281 6.36381
-2.92228 -13.696 -4.99907
10.6089 -0.144835 -3.78877
9.76717 0.654604 -1.35047
-0.936801 0.928089 2.76864
-4.63924 4.52519 10.2271
-0.414924 -3.8894 -0.0588313
-5.47341 4.02797 6.9722
13.1566 -0.147308 -6.20252
4.20037 12.0748 6.37559
-2.0728 -10.3034 -2.55174
2.07442 10.7874 10.285
6.73993 9.97929 2.98518
-10.3664 -2.00595 6.64586
-5.45905 -10.5902 -0.885255
8.51089 4.92596 -0.853754
-5.93707 4.0344 8.77196
-6.72262 0.650006 7.93161
1.42836 5.44891 5.62658
-2.49225 5.76293 9.33255
-9.25521 -7.44092 3.8256
8.22224 3.90085 1.17388
5.31147 8.24043 5.60426
6.62812 2.45556 -1.32959
3.92532 9.11692 7.10859
7.92356 -3.6849 -6.19889
-4.90912 -2.57099 7.07226
9.86893 6.80397 -1.57391
11.5339 1.40843 -4.25337
-4.20709 -7.85675 -2.22341
5.74474 5.47842 3.25432
9.44737 6.60279 -1.77371
-6.60295 2.87985 8.75944
-1.26951 8.55771 7.51852
-1.05959 6.61303 6.48947
9.57233 2.37778 -1.33215
5.46628 4.64346 3.06406
1.91172 7.22488 7.09186
7.83664 -3.19241 -6.35257
12.5863 3.66426 -3.83089
4.75008 2.12907 -1.24292
12.7689 0.228948 -6.19206
13.6522 3.14298 -6.69733
-11.2142 -2.46492 9.10643
-3.94557 -9.62383 -1.77043
0.658452 3.72855 6.44343
2.99664 9.07255 7.53303
-2.2283 -12.1245 -1.81973
-2.33918 4.87804 7.92753
-5.21354 -6.94726 1.84415
-2.16023 -10.3228 -2.46956
0.347329 -15.206 -5.81769
7.04772 -6.3605 -6.03059
-0.614497 3.48406 7.59228
-2.04421 7.71432 8.75392
2.9969 -5.98141 -4.08591
-11.0842 -2.13077 7.92518
-5.4074 -6.49205 1.86931
-6.38417 1.04449 7.58819
8.94878 -4.99654 -6.12381
-3.66835 0.11668 6.07974
3.16177 -6.04526 -6.24267
6.79099 2.71444 -0.464817
-4.30331 -2.69486 4.20026
6.30712 7.33444 2.40001
-3.2042 -13.5886 -2.5261
-3.09131 -12.2446 -1.26958
-1.28535 1.55132 6.44717
-11.3318 -2.97357 9.47444
-0.0323329 -1.72317 1.63972
-1.14315 8.07183 6.56266
6.15985 -0.317989 -2.51207
5.02033 6.87326 4.79674
-8.41248 -6.50106 6.51781
-3.32292 0.599781 5.5978
-0.419152 -2.45184 1.53434
-0.269285 6.43231 6.30466
4.4981 -5.49883 -6.54524
4.30747 -11.1176 -5.70615
5.60685 2.53732 0.164947
-0.0870023 -10.1903 -6.78287
-2.08591 7.73259 9.68098
-5.65548 -3.0954 3.85645
-4.21106 1.84293 6.25687
0.0378791 1.78872 5.25947
7.38063 2.95826 1.3287
-4.794 -7.98753 -0.0353907
1.21939 9.3059 10.3355
7.18954 -2.47057 -4.40206
3.74521 -4.5318 -2.46809
0.838512 3.06514 3.82851
-1.6591 -5.6484 2.6858
-8.47654 -7.86698 3.24535
-12.3756 -4.12165 10.6155
2.12516 10.9112 8.91879
8.85121 0.780361 -1.57167
6.17543 -3.48259 -1.39993
1.56574 5.26559 3.5916
-2.7847 5.25295 10.6403
-5.40233 -0.374947 7.54033
6.91292 1.51764 -2.12609
6.04569 9.72425 3.34252
-3.54238 2.6753 6.56079
3.97495 -7.11267 -6.9031
11.5269 1.68146 -2.9655
-5.96334 -5.95972 1.93128
3.58132 5.8491 3.99712
2.85502 5.76635 5.21288
2.38481 12.1109 8.25762
-7.96893 0.281226 10.1244
-4.63301 -7.39426 0.34977
-10.3803 -0.361136 9.4619
-1.58304 -12.5648 -5.57685
8.79516 -0.0445711 -2.20721
-4.38478 -0.936995 7.27107
-2.34258 -13.4134 -4.88147
2.98935 1.39612 2.53131
-8.45891 -3.5958 6.31485
7.7367 -5.18162 -5.65527
-3.67469 -8.96779 -2.23437
8.39158 5.84514 1.57754
-4.79201 4.11122 7.05512
1.6984 6.9967 6.86782
3.22345 8.72709 7.5545
7.80647 0.17808 -2.39631
4.02177 1.45895 1.43268
-6.56373 3.03021 8.48916
5.6691 -4.8788 -5.07875
9.13759 6.78449 1.10364
