ply
format ascii 1.0
comment Created by Open3D
element vertex 1555
property double x
property double y
property double z
property double nx
property double ny
property double nz
element face 0
property list uchar uint vertex_indices
end_header
2.21218 1.04902 1.69716 0 0 0
-3.25725 0.7053 2.64601 0 0 0
8.25294 3.14457 0.07854 0 0 0
11.7751 8.36014 2.22641 0 0 0
6.65454 10.4083 1.08302 0 0 0
1.98278 2.36188 0.37256 0 0 0
-3.63867 1.09696 1.97945 0 0 0
-9.31757 -1.90802 1.77613 0 0 0
8.76992 2.17227 0.8251 0 0 0
-10.3224 7.3519 1.69942 0 0 0
0.79646 4.80683 1.37942 0 0 0
11.5026 -2.71353 1.96442 0 0 0
-5.64319 -11.221 1.62636 0 0 0
-8.34581 1.83418 2.62112 0 0 0
-11.4964 -6.67425 2.04732 0 0 0
-7.84635 2.04174 2.54625 0 0 0
-1.87769 -6.45212 3.93904 0 0 0
0.05918 -9.24103 0.95769 0 0 0
-1.9648 -11.7354 3.59756 0 0 0
1.54531 10.1286 0.23795 0 0 0
-2.10239 7.21402 3.45917 0 0 0
-1.46134 5.6126 3.77747 0 0 0
1.77583 11.6956 1.6652 0 0 0
-8.78548 11.9406 3.40712 0 0 0
-1.14052 -8.01075 2.75273 0 0 0
-6.12685 -2.95097 0.86242 0 0 0
-8.46806 4.94083 3.04376 0 0 0
4.64201 -1.54074 3.02758 0 0 0
2.36796 5.5323 2.03234 0 0 0
6.63933 -5.88162 2.57179 0 0 0
1.13749 -4.62364 1.00379 0 0 0
-9.47519 5.91972 2.88428 0 0 0
2.31868 0.98432 1.8203 0 0 0
-4.52664 -2.24727 0.39115 0 0 0
6.33797 -8.80706 1.13004 0 0 0
-4.13629 -9.90838 0.27608 0 0 0
2.45261 -3.06527 0.36716 0 0 0
0.37075 -4.49193 1.41901 0 0 0
10.7134 -0.16956 3.9461 0 0 0
-3.66803 -9.41719 0.49757 0 0 0
-9.31546 -9.32655 1.11392 0 0 0
9.42407 9.39924 0.99962 0 0 0
-6.65582 1.02706 2.8814 0 0 0
11.5546 -3.22137 1.85093 0 0 0
10.3176 -0.88113 3.41515 0 0 0
-4.35026 -6.47499 2.04652 0 0 0
3.97991 5.86673 3.65805 0 0 0
-8.04547 1.65435 2.89826 0 0 0
3.54488 0.71879 3.14505 0 0 0
-5.49349 10.2901 0.64149 0 0 0
6.07568 -6.98346 2.97068 0 0 0
-0.60603 -3.2945 1.58128 0 0 0
0.48377 4.07195 0.93733 0 0 0
10.2614 7.19481 3.35486 0 0 0
4.76522 -10.2217 2.2997 0 0 0
4.74797 -5.24028 3.50308 0 0 0
0.783 11.4852 1.76484 0 0 0
3.31302 -0.38765 3.09639 0 0 0
-3.14392 2.29777 1.33307 0 0 0
4.62635 6.63316 3.93568 0 0 0
8.26743 5.90403 2.01323 0 0 0
-11.4425 9.33258 0.10245 0 0 0
6.80684 1.08374 1.96798 0 0 0
-8.54466 -2.38913 2.04081 0 0 0
4.03289 -6.89953 3.59389 0 0 0
-8.90688 11.551 3.0224 0 0 0
-0.86459 4.35268 2.40882 0 0 0
4.27113 7.08243 3.60146 0 0 0
-11.4469 -1.91824 0.75962 0 0 0
-3.71422 2.81688 0.51042 0 0 0
-10.2723 -10.3584 0.65543 0 0 0
-4.49447 6.19209 2.01951 0 0 0
-4.7941 -7.88799 0.96934 0 0 0
4.43251 -10.3428 2.35365 0 0 0
10.2307 -3.14295 1.72144 0 0 0
-5.56394 8.96682 0.44423 0 0 0
-4.52321 -11.0023 1.02458 0 0 0
-7.50504 11.64 3.54048 0 0 0
9.86413 3.78889 1.62763 0 0 0
-4.7898 -4.76698 1.05756 0 0 0
-4.84246 8.24311 0.62906 0 0 0
9.20413 -7.81192 1.82319 0 0 0
11.7562 -5.7128 3.56612 0 0 0
0.44964 -10.9353 1.50516 0 0 0
-4.28617 10.6592 0.75937 0 0 0
-5.39099 4.5102 1.02074 0 0 0
7.53866 3.89578 0.32048 0 0 0
-2.53797 -11.5772 3.11698 0 0 0
10.4323 0.29307 3.80286 0 0 0
-5.71264 6.06695 2.43662 0 0 0
-4.63965 -10.372 0.41873 0 0 0
7.82996 5.69409 1.83173 0 0 0
11.3236 8.78224 2.14611 0 0 0
-7.65925 -0.58677 3.81383 0 0 0
7.30698 -3.38346 0.17502 0 0 0
1.03333 4.89352 1.32113 0 0 0
-10.2945 4.04487 0.61682 0 0 0
-0.8358 0.7467 3.47576 0 0 0
0.76524 -5.40105 1.9428 0 0 0
2.41838 11.9737 2.16764 0 0 0
-10.7803 9.85664 0.1149 0 0 0
-7.83512 -10.3756 2.41884 0 0 0
-5.31376 -9.87822 0.2765 0 0 0
-11.1553 -4.03283 0.38428 0 0 0
3.32685 11.9736 3.01361 0 0 0
1.72413 3.24981 0.01758 0 0 0
-1.4012 -8.58107 2.32096 0 0 0
-11.6798 -11.9488 2.04039 0 0 0
-10.4202 -10.0894 0.37387 0 0 0
-11.1059 -7.59828 1.25901 0 0 0
-8.16993 2.45445 2.17744 0 0 0
9.8855 7.37443 2.90598 0 0 0
3.99806 -5.73757 3.61034 0 0 0
-4.57142 -5.75678 1.87454 0 0 0
-11.9344 -10.8677 1.28166 0 0 0
-3.7993 -6.3774 2.38426 0 0 0
-9.60854 9.64172 0.84071 0 0 0
4.72127 2.76221 2.07107 0 0 0
0.29461 1.61906 1.66139 0 0 0
-2.78936 -8.31074 1.90395 0 0 0
5.12784 7.22097 3.50651 0 0 0
10.1188 -2.63098 1.76722 0 0 0
-6.38753 -6.22911 3.10269 0 0 0
-8.37107 -1.10306 3.32013 0 0 0
-2.24349 -4.17649 2.27153 0 0 0
8.03642 10.7247 0.74906 0 0 0
6.23954 6.24127 3.04276 0 0 0
-4.17221 -5.69382 1.97368 0 0 0
-9.15044 -1.72427 2.11804 0 0 0
-6.21588 5.58616 2.6995 0 0 0
0.2352 10.7555 1.52924 0 0 0
-8.66807 -3.96212 2.0047 0 0 0
10.0983 -5.05694 2.96156 0 0 0
3.30053 4.0476 1.54137 0 0 0
-8.02404 -0.04752 3.98445 0 0 0
9.45013 6.23555 3.02421 0 0 0
6.33544 3.3688 0.97347 0 0 0
-6.87156 7.40629 2.9879 0 0 0
-1.12013 6.77041 3.78379 0 0 0
10.4653 5.7288 3.71287 0 0 0
-1.55291 11.4371 3.42714 0 0 0
1.48164 -10.1167 0.23395 0 0 0
-8.34504 8.71913 2.12064 0 0 0
-2.81008 1.78778 2.11019 0 0 0
-8.41714 2.39565 2.11113 0 0 0
8.73351 11.6467 1.96853 0 0 0
7.69332 -1.03526 1.52318 0 0 0
8.16894 11.2539 1.30469 0 0 0
-3.39956 -3.80153 0.95486 0 0 0
6.24478 5.75644 2.90284 0 0 0
-5.56663 6.18728 2.33862 0 0 0
0.69987 4.64309 1.28664 0 0 0
1.7906 -0.90121 1.64472 0 0 0
-5.84403 6.7733 2.4571 0 0 0
-5.63972 6.54462 2.36605 0 0 0
-3.6586 -5.7516 2.36772 0 0 0
9.02927 10.4006 1.05423 0 0 0
-2.78692 7.53225 2.66349 0 0 0
3.63719 11.3569 2.82907 0 0 0
-1.85823 -5.46766 3.64446 0 0 0
-6.21621 -6.79321 2.80581 0 0 0
-2.11024 4.40468 2.55512 0 0 0
0.5141 1.66965 1.40956 0 0 0
-0.78458 -5.49607 3.41242 0 0 0
-1.79733 -9.21835 1.99568 0 0 0
-0.40492 1.41387 2.55023 0 0 0
2.9095 -6.03446 2.73922 0 0 0
2.99301 1.36329 2.05799 0 0 0
6.26282 2.30325 1.35167 0 0 0
3.32714 11.135 2.32343 0 0 0
-0.73528 2.26564 2.03053 0 0 0
-10.1451 -5.76327 2.20825 0 0 0
0.67745 6.2208 2.37124 0 0 0
6.32484 -11.7125 2.61541 0 0 0
-4.63562 10.19 0.28175 0 0 0
9.99396 5.99 3.49627 0 0 0
-0.48349 0.18646 3.44754 0 0 0
-10.5248 7.23189 1.6915 0 0 0
-0.14219 -9.28678 1.15122 0 0 0
-9.05172 -6.13357 3.3533 0 0 0
-4.44225 -0.57172 1.87724 0 0 0
-11.4705 -1.00919 1.64322 0 0 0
7.34913 -9.03583 0.19945 0 0 0
10.9655 7.35975 3.47391 0 0 0
0.00926 -11.95 2.80672 0 0 0
4.41426 11.2712 3.228 0 0 0
4.06927 -6.08617 3.78088 0 0 0
-6.08917 6.46678 2.79039 0 0 0
5.27986 -4.33544 2.47517 0 0 0
-8.85974 -1.68461 2.42188 0 0 0
-4.23641 -7.12213 1.77941 0 0 0
8.37932 10.6726 0.81742 0 0 0
-10.5115 -5.54169 1.85234 0 0 0
0.11443 -11.4633 2.33665 0 0 0
8.19217 -5.72893 1.90693 0 0 0
1.49246 8.20792 0.65647 0 0 0
5.49883 10.3009 2.0662 0 0 0
11.9169 2.661 1.71804 0 0 0
-11.6902 9.49657 0.23429 0 0 0
-6.5187 10.9154 2.15326 0 0 0
11.9793 -2.05518 2.08829 0 0 0
-1.40858 -2.00217 2.56875 0 0 0
-7.74217 1.40335 3.16043 0 0 0
4.28882 7.66064 3.10376 0 0 0
-1.02673 9.99882 2.0159 0 0 0
10.987 6.36242 3.99683 0 0 0
1.36707 0.79149 1.72347 0 0 0
8.74768 -0.04949 2.37224 0 0 0
-8.37779 -10.3436 2.25915 0 0 0
9.17476 0.57511 2.59171 0 0 0
-5.94107 -8.42985 1.11995 0 0 0
-3.51478 -8.06637 1.42462 0 0 0
-5.68885 9.97044 0.58526 0 0 0
-9.75883 2.2292 1.06027 0 0 0
-6.41684 6.62418 3.07568 0 0 0
3.75462 10.2832 1.92169 0 0 0
-5.72764 4.11943 0.91378 0 0 0
-6.19072 -3.11403 0.90805 0 0 0
6.71901 -9.27919 0.58842 0 0 0
-8.76895 8.81074 1.79249 0 0 0
-7.74304 -9.73687 2.04216 0 0 0
11.3041 -6.94388 3.74236 0 0 0
0.05755 -4.3739 1.61043 0 0 0
-10.913 6.24356 2.00262 0 0 0
-5.6974 -10.996 1.44758 0 0 0
4.85098 7.27657 3.53627 0 0 0
-5.63539 -7.24481 1.96876 0 0 0
-6.52785 0.9281 2.84159 0 0 0
-1.84209 2.52588 2.14706 0 0 0
-10.6924 -8.32536 0.59149 0 0 0
3.51228 7.54299 2.66826 0 0 0
0.31025 0.363 2.62954 0 0 0
-2.76648 -8.44434 1.80972 0 0 0
-2.90781 -1.76637 2.03733 0 0 0
-8.53167 -7.41686 3.20236 0 0 0
9.29847 -9.06157 0.93927 0 0 0
10.3688 0.42185 3.72227 0 0 0
-5.01093 -1.21602 1.39162 0 0 0
-6.65844 -2.78314 1.43007 0 0 0
-11.3321 -8.22382 0.69465 0 0 0
10.8481 -4.57557 2.85275 0 0 0
-11.9858 -6.19596 2.44768 0 0 0
0.39512 5.70376 2.45186 0 0 0
-7.72886 -2.7596 2.06426 0 0 0
9.48164 -3.73545 1.22805 0 0 0
-1.65485 10.2344 2.3067 0 0 0
-11.0014 -8.90224 0.13346 0 0 0
11.1727 -7.71361 3.12427 0 0 0
-9.43985 -5.84138 2.88891 0 0 0
-0.46072 10.8506 2.30011 0 0 0
9.28597 -4.80582 1.95493 0 0 0
-2.22826 9.23239 1.80999 0 0 0
6.77963 -7.54955 1.82345 0 0 0
-6.78304 5.64077 3.27995 0 0 0
-3.29836 -11.8105 2.57155 0 0 0
-10.6477 -11.1939 1.25692 0 0 0
-3.89028 -11.5808 1.87175 0 0 0
-9.66938 -11.4904 2.23272 0 0 0
-5.08896 -1.13054 1.49624 0 0 0
-3.48154 -9.82392 0.74517 0 0 0
0.03855 11.2821 2.24411 0 0 0
9.8559 -4.51005 2.21693 0 0 0
1.11689 -2.99012 0.11271 0 0 0
11.3198 11.2837 3.23209 0 0 0
-3.67777 3.64588 0.61363 0 0 0
3.55322 -6.3454 3.39817 0 0 0
-6.29305 -9.06266 1.07472 0 0 0
-3.56175 9.67757 0.62388 0 0 0
-10.2336 -11.0062 1.28716 0 0 0
1.76718 -9.52849 0.02459 0 0 0
3.70117 7.84927 2.53554 0 0 0
3.2017 1.09069 2.52194 0 0 0
-6.37835 -4.08505 1.50803 0 0 0
10.1076 0.98901 3.18051 0 0 0
-7.95767 11.0334 3.03248 0 0 0
3.66316 -4.08406 1.91045 0 0 0
-4.82194 2.98154 0.01878 0 0 0
-9.99763 9.21041 0.48086 0 0 0
1.00585 -10.4708 0.65436 0 0 0
3.76606 8.96696 1.68764 0 0 0
3.44685 -8.63605 1.59579 0 0 0
4.23716 -9.44158 1.88933 0 0 0
-2.5514 3.67195 1.69389 0 0 0
-11.1598 7.87332 0.99411 0 0 0
-3.80958 -3.77425 0.57414 0 0 0
-5.24258 -9.09916 0.18984 0 0 0
-3.73879 -9.83869 0.52212 0 0 0
5.49588 -4.48834 2.48628 0 0 0
6.19312 0.9479 2.67333 0 0 0
-0.47309 -10.8155 2.27653 0 0 0
-1.81316 -5.16489 3.40799 0 0 0
8.34189 6.37475 2.1125 0 0 0
6.31078 7.38124 2.42774 0 0 0
8.01697 0.98144 1.56908 0 0 0
-2.04555 3.94789 2.19723 0 0 0
-4.73568 -0.75105 1.73124 0 0 0
3.18404 7.68555 2.21007 0 0 0
3.35546 0.61716 3.02776 0 0 0
-11.8973 6.58089 2.33573 0 0 0
-2.84066 -1.84706 2.02365 0 0 0
5.85899 0.7159 3.16609 0 0 0
-8.67626 -3.68125 1.82267 0 0 0
-8.02805 3.14742 1.98491 0 0 0
11.7508 -8.99797 1.81784 0 0 0
5.5926 11.5801 3.1888 0 0 0
-0.3473 0.80999 3.02986 0 0 0
-1.72593 -8.69578 2.24215 0 0 0
8.82253 -2.32325 0.75007 0 0 0
11.2881 10.4913 2.47434 0 0 0
0.78101 2.20211 0.7058 0 0 0
7.5931 -3.6334 0.15236 0 0 0
6.60764 -11.1313 1.81657 0 0 0
-6.82586 4.92863 2.73099 0 0 0
-2.03517 8.89274 2.03233 0 0 0
11.2567 -3.04468 1.97079 0 0 0
-5.23023 8.76185 0.34292 0 0 0
11.7249 -3.72259 1.9097 0 0 0
-10.5137 8.42782 0.57101 0 0 0
7.6758 2.83111 0.06365 0 0 0
0.31547 -8.55684 1.04333 0 0 0
-9.06713 9.40215 1.35033 0 0 0
1.75725 -3.83621 0.24903 0 0 0
-0.28507 11.0819 2.36743 0 0 0
0.69206 7.53128 1.679 0 0 0
0.38833 -11.2212 1.84513 0 0 0
3.93779 -7.99591 2.57324 0 0 0
-2.90384 -9.30523 1.24266 0 0 0
-10.824 -5.56849 1.76997 0 0 0
8.10071 7.40371 1.46549 0 0 0
-11.3037 -7.06187 1.75894 0 0 0
8.47448 -3.02088 0.19368 0 0 0
8.55505 -0.81595 1.92102 0 0 0
-7.17168 -10.0954 1.99271 0 0 0
-7.67755 10.0021 2.14653 0 0 0
11.9561 -3.53952 1.65121 0 0 0
5.25897 -8.15302 2.55971 0 0 0
-6.98457 -3.14073 1.64527 0 0 0
-9.76339 -3.72314 0.83221 0 0 0
-9.10763 -11.9219 3.11125 0 0 0
6.90963 6.45502 2.39901 0 0 0
-10.8253 8.12814 0.74373 0 0 0
7.61023 4.29118 0.62069 0 0 0
4.55316 -10.6971 2.69326 0 0 0
3.84531 -4.71135 2.64602 0 0 0
10.1012 -0.07025 3.62352 0 0 0
-4.81159 1.01563 1.532 0 0 0
-1.86461 11.4102 3.35997 0 0 0
-9.97003 2.99598 0.49195 0 0 0
-4.29177 0.46716 1.98002 0 0 0
0.23245 6.3885 2.7641 0 0 0
-8.29741 -10.5938 2.51223 0 0 0
-4.49112 -1.88201 0.71817 0 0 0
-9.56414 -11.745 2.54231 0 0 0
4.94363 -2.72139 2.06037 0 0 0
9.60419 4.85293 2.31853 0 0 0
1.05076 0.33475 2.07669 0 0 0
11.4331 -1.63144 2.84519 0 0 0
6.55703 -1.10147 2.18186 0 0 0
-11.4314 -7.4879 1.45146 0 0 0
5.85374 -2.65334 1.53321 0 0 0
4.38742 -0.10355 3.9423 0 0 0
-8.76317 5.16901 3.0553 0 0 0
-10.3399 7.98595 1.07576 0 0 0
2.84631 -0.10419 2.70357 0 0 0
9.91093 2.29687 1.80328 0 0 0
-0.9921 7.48289 3.19981 0 0 0
-11.3559 -3.01256 0.07254 0 0 0
-6.48279 4.43162 1.92119 0 0 0
-8.59781 1.15122 3.14326 0 0 0
-10.9738 9.45428 0.00067 0 0 0
-1.68763 -9.32939 1.99773 0 0 0
1.50759 -3.70278 0.15538 0 0 0
7.49311 5.40738 1.70479 0 0 0
5.83846 8.2531 2.0416 0 0 0
-3.1739 -4.54616 1.80223 0 0 0
-5.40659 8.17708 0.91393 0 0 0
10.0479 -10.2771 1.92536 0 0 0
-6.51828 -5.84828 3.13984 0 0 0
4.00504 -1.13388 3.18323 0 0 0
5.31333 7.26904 3.37696 0 0 0
7.81022 -0.5449 1.85613 0 0 0
6.06186 -9.57916 1.23141 0 0 0
3.73699 1.68786 2.44404 0 0 0
-6.55022 -10.1092 1.48912 0 0 0
1.90817 9.59832 0.07139 0 0 0
2.03136 6.92314 1.90632 0 0 0
4.76419 -1.90842 2.66741 0 0 0
-4.92565 -6.93804 1.81579 0 0 0
-8.14468 -11.1795 3.1409 0 0 0
7.67972 4.58205 0.88517 0 0 0
0.33524 11.413 2.07643 0 0 0
3.16895 -6.46579 3.01072 0 0 0
-8.77106 -0.17439 3.59298 0 0 0
5.39335 -5.43649 3.43943 0 0 0
-8.32072 -10.8342 2.73234 0 0 0
8.71496 11.2333 1.58385 0 0 0
-8.16063 -11.2239 3.17968 0 0 0
-3.02946 1.88083 1.80681 0 0 0
10.2662 8.10944 2.4929 0 0 0
-7.11732 2.38984 2.01022 0 0 0
7.20981 3.84429 0.4373 0 0 0
0.86279 1.64827 1.16295 0 0 0
1.72853 2.08364 0.52176 0 0 0
-8.35719 -6.71438 3.78451 0 0 0
-2.25728 -10.8675 2.64577 0 0 0
11.2658 -6.84115 3.81205 0 0 0
-9.23407 0.83487 2.86083 0 0 0
-5.84442 -5.70358 2.41185 0 0 0
8.55203 11.2967 1.53051 0 0 0
-9.80363 9.02657 0.70839 0 0 0
-0.52853 5.26546 3.02956 0 0 0
0.24105 -4.31927 1.37821 0 0 0
10.4426 -6.02014 3.81658 0 0 0
10.4474 -7.30598 3.37444 0 0 0
-10.9522 7.27661 1.54676 0 0 0
-9.47765 -4.4943 1.73079 0 0 0
-1.22096 4.77871 3.00571 0 0 0
-4.33058 5.29846 1.6251 0 0 0
6.72114 8.40936 1.04865 0 0 0
-3.03884 -9.18327 1.13159 0 0 0
5.18286 7.51982 3.21934 0 0 0
-4.78915 -10.987 0.99442 0 0 0
10.0971 7.09967 3.30757 0 0 0
0.27394 -7.68488 1.89777 0 0 0
5.0835 -6.35505 3.92934 0 0 0
11.3748 3.14365 1.92897 0 0 0
11.55 5.33968 3.43717 0 0 0
7.97396 10.6603 0.67814 0 0 0
-10.8936 -6.63809 1.94287 0 0 0
-0.50103 7.55452 2.77533 0 0 0
3.57892 5.72882 3.27376 0 0 0
-5.86514 1.18064 1.97436 0 0 0
9.1123 9.49131 0.6948 0 0 0
3.91508 4.52008 2.50751 0 0 0
-1.67625 0.31223 3.9461 0 0 0
6.58145 3.25815 0.71293 0 0 0
3.62184 8.10548 2.21314 0 0 0
3.72323 4.04639 1.93155 0 0 0
-4.22791 6.79262 1.9881 0 0 0
-1.61383 8.01344 2.84029 0 0 0
-9.20177 4.13052 1.67158 0 0 0
9.96138 -11.9469 3.32543 0 0 0
-1.78493 -9.85322 2.06754 0 0 0
-4.34923 -4.84846 1.20088 0 0 0
5.59944 4.0219 1.99478 0 0 0
-4.81956 2.44622 0.23792 0 0 0
-10.1747 5.91576 2.25169 0 0 0
7.49174 1.66505 0.97078 0 0 0
9.40416 8.85501 1.13735 0 0 0
4.39354 9.6553 1.97605 0 0 0
-2.89996 0.6674 3.02472 0 0 0
-1.26748 -8.28104 2.54016 0 0 0
6.42956 5.30244 2.41055 0 0 0
-0.64732 11.8148 3.33367 0 0 0
-4.26459 5.06725 1.44606 0 0 0
-11.4673 -7.74287 1.22009 0 0 0
-3.47392 -1.05028 2.17109 0 0 0
4.66624 -11.062 3.06534 0 0 0
-10.199 -5.63145 2.09583 0 0 0
-10.5755 5.38403 1.70923 0 0 0
8.10922 -6.23141 2.03106 0 0 0
-1.4256 3.23753 1.99408 0 0 0
-0.18807 5.16046 2.62019 0 0 0
-2.06684 10.436 2.34861 0 0 0
-9.0253 8.24131 2.01122 0 0 0
9.16846 7.57779 2.01917 0 0 0
3.79142 5.44855 3.2765 0 0 0
-11.2294 5.42645 1.68212 0 0 0
5.10256 -4.85661 3.06856 0 0 0
-3.70748 5.19251 1.92572 0 0 0
-9.09732 5.11966 2.71775 0 0 0
5.27827 -10.4697 2.34212 0 0 0
-2.74819 11.5304 2.89299 0 0 0
4.58869 -2.9169 2.0175 0 0 0
-5.28497 3.77173 0.35155 0 0 0
-6.00768 7.17722 2.35424 0 0 0
3.33618 5.04391 2.51884 0 0 0
6.44772 -6.6317 2.77608 0 0 0
0.72983 3.18467 0.33419 0 0 0
5.16755 -9.34324 1.90151 0 0 0
6.3271 -7.62906 2.17913 0 0 0
3.17469 -7.30842 2.55199 0 0 0
-2.1855 0.70241 3.58023 0 0 0
7.06177 9.44332 0.2979 0 0 0
-9.34982 11.609 2.65054 0 0 0
-0.08356 -10.344 1.47702 0 0 0
8.19006 -8.99372 0.14742 0 0 0
9.40812 -9.49847 0.98606 0 0 0
-6.61328 11.5407 2.84262 0 0 0
1.63338 4.4115 0.70559 0 0 0
-11.5575 -11.0351 1.19335 0 0 0
2.66578 -6.34887 2.53978 0 0 0
8.37472 -4.37975 0.80601 0 0 0
-3.80134 9.11542 0.43455 0 0 0
-6.68666 1.91428 2.05585 0 0 0
4.64833 -4.99512 3.27693 0 0 0
4.78835 -8.53251 2.36947 0 0 0
-5.7527 9.3122 0.50038 0 0 0
-11.4458 -7.10962 1.77717 0 0 0
-8.7663 -11.9072 3.40244 0 0 0
-1.30783 -5.66937 3.78308 0 0 0
-11.6267 -2.35977 0.48301 0 0 0
-3.52492 3.21918 0.629 0 0 0
-9.51744 2.48124 1.11769 0 0 0
-7.37683 11.8175 3.62076 0 0 0
11.8821 -5.67919 3.45521 0 0 0
-1.03922 -10.11 2.08774 0 0 0
4.40878 0.90506 3.5719 0 0 0
-0.20778 4.95733 2.44879 0 0 0
8.76468 5.50999 2.10249 0 0 0
6.26694 -8.72246 1.2529 0 0 0
-11.5191 8.56915 0.4782 0 0 0
-5.89076 -7.14234 2.27065 0 0 0
-3.52828 -6.77696 2.50343 0 0 0
-5.18482 -11.7966 1.82759 0 0 0
-7.20561 9.2555 1.81136 0 0 0
10.6047 11.7544 3.61262 0 0 0
4.79331 -2.81601 2.04926 0 0 0
4.61486 -3.5665 2.08417 0 0 0
-4.15612 -6.47626 2.13219 0 0 0
-10.2385 -9.20036 0.29825 0 0 0
-6.97765 6.2329 3.63871 0 0 0
-3.72871 -3.46832 0.49894 0 0 0
2.79589 8.56976 1.00494 0 0 0
6.58538 9.68104 0.73504 0 0 0
2.01288 -7.17227 1.72626 0 0 0
-8.1494 3.76948 2.14741 0 0 0
9.81436 5.4331 3.03972 0 0 0
1.05439 5.80496 2.01821 0 0 0
-2.95339 0.12139 3.17973 0 0 0
5.89188 8.58858 1.71111 0 0 0
-9.34211 -7.12788 2.74654 0 0 0
-8.39159 -0.68238 3.63501 0 0 0
-9.03048 -5.16635 2.82269 0 0 0
9.29743 -3.73981 1.04665 0 0 0
4.44886 -6.29107 3.96545 0 0 0
-5.80512 -5.4949 2.245 0 0 0
-11.5513 7.31949 1.65991 0 0 0
4.84565 7.37922 3.44826 0 0 0
5.59404 5.63346 3.43213 0 0 0
-11.6301 10.3011 0.5547 0 0 0
10.1619 9.45342 1.6726 0 0 0
-6.8675 -7.05298 3.26968 0 0 0
-6.20228 -2.77424 0.98591 0 0 0
-11.5996 10.5695 0.76369 0 0 0
2.03106 8.09423 0.86612 0 0 0
2.32103 -3.90599 0.54667 0 0 0
-10.866 -0.68346 1.78378 0 0 0
3.66112 -1.27464 2.78832 0 0 0
-1.33182 -6.85507 3.81246 0 0 0
-11.2533 6.41435 2.02444 0 0 0
-6.38323 -6.39141 3.09403 0 0 0
1.43261 -0.0514 2.00821 0 0 0
3.63945 4.84872 2.61345 0 0 0
6.85645 8.24442 1.07702 0 0 0
-1.07844 -4.66777 2.83662 0 0 0
1.04647 0.75127 1.86516 0 0 0
1.08382 9.27977 0.12674 0 0 0
11.5367 -9.10685 1.90724 0 0 0
-3.92262 -3.32049 0.31195 0 0 0
-0.11696 -1.18796 2.49024 0 0 0
9.57646 -0.92481 2.75309 0 0 0
-4.27955 4.49558 0.87711 0 0 0
-6.05639 -11.4374 2.2027 0 0 0
0.87094 10.5315 0.78747 0 0 0
9.81988 2.68068 1.48925 0 0 0
-4.04975 -9.95034 0.34659 0 0 0
-8.51952 -2.50081 1.98495 0 0 0
5.76724 11.712 3.15007 0 0 0
1.06319 2.24846 0.49911 0 0 0
6.81865 3.54676 0.57073 0 0 0
-5.71657 4.52751 1.27939 0 0 0
10.1832 5.13316 3.09622 0 0 0
6.71904 3.07283 0.58018 0 0 0
7.82708 3.42445 0.0401 0 0 0
-3.72891 -2.50155 0.6438 0 0 0
6.49741 -9.98147 0.93841 0 0 0
-9.63397 0.41492 2.70747 0 0 0
-6.74556 -9.916 1.56432 0 0 0
5.36748 -3.53516 1.86944 0 0 0
-11.9332 -7.84657 1.41573 0 0 0
-3.26305 -4.26366 1.44501 0 0 0
-2.34421 -3.44765 1.762 0 0 0
-2.32285 7.24187 3.30488 0 0 0
3.49436 2.62926 1.47389 0 0 0
-9.43898 -10.7011 1.69554 0 0 0
-5.26047 -2.53203 0.32658 0 0 0
-11.968 7.20931 2.03763 0 0 0
2.46675 0.77112 2.09236 0 0 0
11.9472 11.6817 3.21394 0 0 0
-7.46713 3.55657 2.01098 0 0 0
-4.68146 -1.28709 1.28039 0 0 0
9.96446 2.86474 1.55194 0 0 0
6.11276 9.55715 1.17835 0 0 0
-10.6109 11.3879 1.45544 0 0 0
-2.1154 -9.38238 1.85623 0 0 0
3.81574 4.57018 2.4825 0 0 0
3.49288 -5.89275 3.26885 0 0 0
10.4075 -4.6565 2.77617 0 0 0
10.8006 -2.72624 2.06607 0 0 0
-5.46767 -10.4656 0.76641 0 0 0
-7.44065 9.40264 1.91603 0 0 0
-9.943 7.45778 1.89059 0 0 0
3.5308 1.5163 2.43393 0 0 0
-6.16491 11.8811 2.65626 0 0 0
9.71766 -6.74331 3.18471 0 0 0
-9.57862 -7.13124 2.50821 0 0 0
0.04361 5.69966 2.79092 0 0 0
5.85288 -10.7309 2.1556 0 0 0
4.91709 -1.84136 2.71185 0 0 0
0.81522 -10.0067 0.43673 0 0 0
-11.0001 1.85608 0.71858 0 0 0
4.09165 6.71013 3.72369 0 0 0
11.7066 -11.2195 2.97974 0 0 0
-6.71666 -0.06657 3.41781 0 0 0
2.2867 2.277 0.59655 0 0 0
-10.8258 -11.7875 1.72606 0 0 0
8.17483 -2.38433 0.32431 0 0 0
-7.30333 -9.23112 1.87088 0 0 0
7.47443 -5.5662 1.82496 0 0 0
1.10931 -6.56712 2.06457 0 0 0
7.01544 -6.74114 2.22841 0 0 0
3.31355 -10.8397 2.01584 0 0 0
-10.9847 -11.2447 1.24666 0 0 0
4.74172 -7.54855 3.30027 0 0 0
-8.90262 -6.61107 3.44548 0 0 0
-6.44798 0.43088 3.07264 0 0 0
9.72757 5.90214 3.22646 0 0 0
-3.98724 -9.67395 0.28248 0 0 0
2.99661 -8.66725 1.12899 0 0 0
0.88577 -6.43031 2.2148 0 0 0
1.26696 1.41457 1.20139 0 0 0
5.98253 11.3709 2.66269 0 0 0
-8.38898 -5.20856 3.33633 0 0 0
-0.46192 -0.46222 3.34073 0 0 0
7.96228 10.6134 0.63293 0 0 0
10.8075 3.87779 2.24134 0 0 0
9.48885 -10.36 1.47038 0 0 0
9.43183 4.57127 1.8664 0 0 0
-3.00197 9.52301 1.14399 0 0 0
3.72111 4.09937 1.97228 0 0 0
6.64957 6.49919 2.61852 0 0 0
-0.06031 -6.44987 3.04641 0 0 0
6.96887 -3.79608 0.57344 0 0 0
-8.36722 -1.08759 3.33578 0 0 0
-1.59179 -10.9083 2.91257 0 0 0
-8.20013 -1.32927 3.17987 0 0 0
4.73009 0.04907 3.99864 0 0 0
10.4778 -6.7748 3.75051 0 0 0
1.81893 -2.976 0.04431 0 0 0
8.1041 -9.964 0.17301 0 0 0
-5.31382 3.19474 0.17688 0 0 0
-1.77577 6.65706 3.90999 0 0 0
-10.0756 -1.99007 0.98707 0 0 0
-9.70665 -0.69817 2.48786 0 0 0
-7.76116 -0.27805 3.95729 0 0 0
-5.00425 -0.6427 1.84277 0 0 0
-7.98978 3.5911 2.09013 0 0 0
-2.70037 4.35316 2.07549 0 0 0
-8.09814 -11.1932 3.1667 0 0 0
6.86367 3.82227 0.67442 0 0 0
-8.49803 10.2858 2.14801 0 0 0
-6.19433 -5.81826 2.80511 0 0 0
-7.22616 9.0721 1.87085 0 0 0
-9.08042 -11.9894 3.17572 0 0 0
10.6575 2.68532 2.04569 0 0 0
-9.62323 10.9366 1.7439 0 0 0
8.01978 -7.39639 1.4555 0 0 0
-6.6795 -1.05328 2.88074 0 0 0
-0.64719 -6.73885 3.50092 0 0 0
6.0661 -3.03144 1.22144 0 0 0
-3.10537 -2.50878 1.22984 0 0 0
-3.78044 5.1699 1.84544 0 0 0
4.22964 -10.8083 2.69958 0 0 0
7.93477 -3.27684 0.01239 0 0 0
-9.44611 -1.61258 1.93689 0 0 0
-5.10888 7.52239 1.40312 0 0 0
-10.8612 2.10128 0.50307 0 0 0
-10.2733 -2.79826 0.30804 0 0 0
1.85546 10.3888 0.46999 0 0 0
-5.905 2.428 0.87475 0 0 0
10.2108 -5.50064 3.41667 0 0 0
-11.9393 7.23245 1.99547 0 0 0
4.4842 2.48549 2.1817 0 0 0
-1.59979 10.3223 2.37605 0 0 0
8.22482 1.97496 0.67472 0 0 0
-11.236 -11.7341 1.70198 0 0 0
-7.63499 10.5466 2.54206 0 0 0
10.1525 3.79281 1.8698 0 0 0
-3.27048 3.83089 1.09977 0 0 0
2.41033 -5.90568 2.26177 0 0 0
-11.1906 1.07342 1.49609 0 0 0
11.1183 -3.15238 1.99254 0 0 0
2.23152 6.64188 2.14681 0 0 0
4.52833 9.75752 2.03796 0 0 0
6.71404 -11.7731 2.28384 0 0 0
1.90327 -5.92591 1.99162 0 0 0
8.37294 4.17957 0.6237 0 0 0
6.93894 -6.91571 2.19678 0 0 0
-10.1717 5.25781 1.83938 0 0 0
-4.48496 -7.23633 1.60487 0 0 0
6.60473 -2.15744 1.1304 0 0 0
-9.58851 3.12576 0.83713 0 0 0
-1.10918 -10.7989 2.6999 0 0 0
-5.22904 -4.28441 0.71548 0 0 0
8.25275 -7.38423 1.53113 0 0 0
2.54133 -9.5902 0.44879 0 0 0
-10.7411 -1.42521 1.17727 0 0 0
-7.7993 2.49321 2.20144 0 0 0
7.1325 -6.05113 2.22237 0 0 0
-3.0526 1.51251 2.14713 0 0 0
10.8595 -8.21707 2.63559 0 0 0
0.28372 -9.99259 0.87699 0 0 0
10.6631 -4.0548 2.33404 0 0 0
5.27027 4.49746 2.6351 0 0 0
4.84252 -10.5445 2.5556 0 0 0
-5.70145 10.6531 1.11471 0 0 0
-1.93414 -4.92106 3.14187 0 0 0
-10.0942 -6.66448 2.30768 0 0 0
-8.04639 -4.60357 2.87294 0 0 0
5.63089 -10.475 2.10965 0 0 0
-8.68847 9.60492 1.68773 0 0 0
5.10915 -3.88999 2.18954 0 0 0
5.60501 -11.7516 3.31341 0 0 0
-8.85576 5.27714 3.07401 0 0 0
6.5628 6.14567 2.71458 0 0 0
-7.27199 2.57058 1.99401 0 0 0
-8.89481 -10.1364 1.74821 0 0 0
-0.60387 -4.42746 2.28675 0 0 0
-6.31192 6.21123 3.02615 0 0 0
0.82457 0.26153 2.23174 0 0 0
0.51993 -3.62878 0.61953 0 0 0
-0.68451 -5.59223 3.40293 0 0 0
-1.89307 -1.7131 2.8067 0 0 0
-0.68889 -3.33889 1.65508 0 0 0
1.41714 -0.55885 1.85965 0 0 0
7.94316 2.78805 0.06582 0 0 0
-6.24256 3.36244 0.98368 0 0 0
-8.1096 -3.18481 1.96844 0 0 0
0.4253 -7.97905 1.46266 0 0 0
-1.49352 -0.16437 3.98354 0 0 0
4.28239 0.3024 3.86359 0 0 0
-2.62858 8.8495 1.65176 0 0 0
-3.03292 -7.25051 2.67596 0 0 0
-4.74476 -9.58049 0.01262 0 0 0
7.60698 -10.5732 0.62041 0 0 0
0.23724 8.89558 0.90176 0 0 0
9.93375 1.49779 2.56022 0 0 0
-9.13625 4.83273 2.4046 0 0 0
-7.97857 2.70034 2.08803 0 0 0
4.73424 -0.14722 3.98894 0 0 0
6.46996 9.26955 0.82633 0 0 0
1.50196 11.088 1.09463 0 0 0
-3.30495 2.23502 1.22092 0 0 0
9.21805 -0.21921 2.77081 0 0 0
-3.71723 -7.87998 1.42964 0 0 0
-0.17582 -4.19715 1.68217 0 0 0
-10.255 3.31996 0.27776 0 0 0
-5.58504 9.54337 0.36422 0 0 0
4.7843 -5.85144 3.90565 0 0 0
-0.6707 3.01857 1.62909 0 0 0
-2.91657 -6.66526 3.15102 0 0 0
-3.03957 -1.17102 2.49106 0 0 0
-4.94982 9.63675 0.05044 0 0 0
-9.73394 2.94247 0.7155 0 0 0
3.75234 -4.84437 2.70508 0 0 0
5.01681 -0.02019 3.95382 0 0 0
9.54709 10.7529 1.88173 0 0 0
4.95438 7.48386 3.33259 0 0 0
11.8338 -10.2821 2.01431 0 0 0
-4.83998 -1.64225 0.93674 0 0 0
-1.27224 -3.81556 2.17441 0 0 0
-1.89567 2.66665 2.05837 0 0 0
-7.77041 2.74836 2.07284 0 0 0
6.38407 2.5825 1.05155 0 0 0
-4.04094 -4.40302 0.91262 0 0 0
-8.03141 3.55571 2.06883 0 0 0
9.94107 6.18447 3.48879 0 0 0
-6.71455 -10.0839 1.62755 0 0 0
-6.5622 2.99862 1.28561 0 0 0
2.21085 2.33327 0.50723 0 0 0
5.4145 -7.09745 3.44988 0 0 0
7.74921 0.28324 1.96564 0 0 0
4.71866 11.3486 3.34576 0 0 0
-4.73091 8.62512 0.30322 0 0 0
8.9303 -1.44605 1.64985 0 0 0
-3.38926 0.88983 2.3844 0 0 0
6.2763 -4.24913 1.56002 0 0 0
7.0559 -3.79876 0.51019 0 0 0
-6.07773 -5.77431 2.66928 0 0 0
-7.8927 -10.6622 2.67202 0 0 0
-6.65294 -8.80193 1.54917 0 0 0
0.6603 10.2996 0.74554 0 0 0
5.91469 -1.18045 2.74072 0 0 0
-4.75165 -11.2163 1.21968 0 0 0
10.5414 -11.5102 3.39079 0 0 0
-2.35649 1.94615 2.3403 0 0 0
1.35677 7.06445 1.73284 0 0 0
-1.7491 10.4533 2.46803 0 0 0
10.2402 -6.98588 3.49113 0 0 0
9.9877 0.08503 3.53005 0 0 0
-8.24442 10.7252 2.65763 0 0 0
7.9919 -0.32517 1.95709 0 0 0
-9.90987 -3.10374 0.53443 0 0 0
-5.06236 9.96899 0.20508 0 0 0
-7.05308 -8.356 2.21487 0 0 0
0.92686 6.81497 2.06216 0 0 0
5.30677 4.4274 2.54735 0 0 0
-6.22304 -10.7822 1.72817 0 0 0
-7.52721 -5.72023 3.79277 0 0 0
10.5967 2.92049 1.94585 0 0 0
-1.00095 -9.4518 1.84235 0 0 0
-6.95927 11.0127 2.64282 0 0 0
-9.2393 0.95314 2.76355 0 0 0
-5.20698 7.07662 1.82124 0 0 0
5.56843 -2.48361 1.86421 0 0 0
-11.44 -6.83124 1.9507 0 0 0
8.08931 11.5412 1.54651 0 0 0
-6.85752 -8.29752 2.11414 0 0 0
-4.44816 6.93168 1.8317 0 0 0
-4.8571 -7.69011 1.17359 0 0 0
-7.66609 -1.02854 3.49847 0 0 0
4.35425 -1.17695 3.32029 0 0 0
10.8126 -6.63901 3.92067 0 0 0
11.7016 -8.26787 2.35876 0 0 0
-7.1715 0.87203 3.41928 0 0 0
-11.8183 3.16082 0.31997 0 0 0
-11.1091 8.93981 0.12175 0 0 0
6.13161 -2.87761 1.18563 0 0 0
8.39484 4.85166 1.28155 0 0 0
8.80433 -8.30205 0.98538 0 0 0
-9.26861 -2.87922 1.18975 0 0 0
-3.79145 3.06688 0.39771 0 0 0
1.06468 5.95437 2.07179 0 0 0
-7.9073 -6.87772 3.82699 0 0 0
-0.72875 -7.38936 3.11403 0 0 0
10.4473 11.5769 3.40256 0 0 0
0.87661 4.83122 1.34998 0 0 0
2.76907 10.0291 0.81317 0 0 0
-3.34492 9.32319 0.80323 0 0 0
-3.16052 6.48685 2.96041 0 0 0
2.43972 -10.4197 0.80976 0 0 0
1.18713 -4.85462 1.21445 0 0 0
2.11365 -6.6275 2.08507 0 0 0
6.18904 3.32375 1.11056 0 0 0
-2.90489 8.42361 1.69518 0 0 0
9.57926 8.90741 1.28474 0 0 0
-8.50273 -7.20147 3.40403 0 0 0
5.99674 -10.2901 1.63416 0 0 0
-5.62326 2.46357 0.60812 0 0 0
11.4515 -6.64095 3.83456 0 0 0
-1.49288 -0.75312 3.72653 0 0 0
3.44365 10.575 1.8892 0 0 0
-6.47608 5.73447 3.0449 0 0 0
-6.01273 -2.92257 0.75672 0 0 0
4.12929 3.00329 1.84431 0 0 0
4.84601 3.69418 2.13992 0 0 0
-2.53225 7.22729 3.1588 0 0 0
3.54192 9.77755 1.4513 0 0 0
-3.86594 11.6124 1.91577 0 0 0
4.56461 -5.40225 3.62553 0 0 0
-7.58396 -4.19353 2.46787 0 0 0
-7.64666 2.20948 2.38244 0 0 0
-3.86015 10.5754 0.93375 0 0 0
2.18657 2.37843 0.46101 0 0 0
-8.04186 -1.91777 2.64235 0 0 0
0.20967 7.97172 1.67439 0 0 0
0.59025 6.65678 2.37446 0 0 0
4.49795 -3.49101 2.03752 0 0 0
-11.1581 3.20153 0.01498 0 0 0
-7.96926 -3.16547 1.99365 0 0 0
4.78964 -7.367 3.46498 0 0 0
9.73925 8.93718 1.42586 0 0 0
3.14046 5.25045 2.51133 0 0 0
1.11435 -9.96014 0.24229 0 0 0
1.73462 -9.28059 0.02377 0 0 0
-10.6331 8.11496 0.80693 0 0 0
7.80137 3.58925 0.09992 0 0 0
-2.81154 -2.93028 1.34634 0 0 0
-4.58741 0.22323 1.98299 0 0 0
7.87483 4.39169 0.68499 0 0 0
1.50438 -10.6525 0.66585 0 0 0
-4.30924 -6.5581 2.04262 0 0 0
7.91714 0.55164 1.85366 0 0 0
2.70656 -9.26848 0.59075 0 0 0
-3.67211 5.75191 2.35619 0 0 0
4.72578 -8.05782 2.79748 0 0 0
4.36721 5.10278 3.32157 0 0 0
8.81246 -3.21073 0.42763 0 0 0
11.8632 10.9495 2.60055 0 0 0
5.04799 0.28752 3.90316 0 0 0
-10.2519 11.5872 1.82177 0 0 0
5.27715 2.68146 1.94872 0 0 0
-8.87616 1.19651 2.88711 0 0 0
11.3617 -9.1934 1.96038 0 0 0
-8.02638 1.15961 3.38487 0 0 0
8.85269 3.35684 0.48169 0 0 0
4.33184 3.23793 1.9331 0 0 0
7.87136 -0.78352 1.70859 0 0 0
-6.96918 7.88359 2.60384 0 0 0
8.39339 11.0957 1.24196 0 0 0
-1.41373 -0.41979 3.90086 0 0 0
-0.10079 -10.7612 1.86842 0 0 0
11.3402 3.75277 2.12224 0 0 0
-7.32256 -3.5872 1.95974 0 0 0
-1.20955 11.2479 3.18507 0 0 0
-8.57332 -7.82923 2.777 0 0 0
-4.40643 10.9818 1.0327 0 0 0
-5.96481 -10.3631 1.09583 0 0 0
2.14846 4.68727 1.13714 0 0 0
-1.70704 -4.85372 3.13159 0 0 0
10.6229 0.80941 3.62129 0 0 0
11.7385 -4.20156 2.24762 0 0 0
-4.81242 -3.88884 0.27144 0 0 0
10.5416 5.08262 3.26056 0 0 0
-8.31407 -4.31311 2.50726 0 0 0
-5.91965 -7.71336 1.78458 0 0 0
8.61371 -8.18079 0.95395 0 0 0
-5.10175 5.07065 1.42549 0 0 0
-2.22609 8.65168 2.07711 0 0 0
2.0367 4.71433 1.10853 0 0 0
6.85536 4.34856 1.10269 0 0 0
7.7088 4.73227 1.0304 0 0 0
3.0235 -0.03645 2.88151 0 0 0
3.28388 9.72295 1.18594 0 0 0
9.05241 11.0559 1.6965 0 0 0
6.26874 5.87239 2.93125 0 0 0
-7.93496 2.59173 2.14412 0 0 0
-10.3516 3.27259 0.20883 0 0 0
7.73456 -7.53398 1.32169 0 0 0
-0.0293 5.53632 2.76312 0 0 0
2.81615 9.4951 0.68274 0 0 0
-2.96526 -8.88858 1.31576 0 0 0
-1.88919 6.28667 3.94973 0 0 0
6.98656 1.77767 1.14781 0 0 0
-2.41704 7.06112 3.37516 0 0 0
0.34604 -7.47966 2.02646 0 0 0
0.23154 10.2421 1.08632 0 0 0
-7.94407 0.75693 3.7229 0 0 0
1.76775 10.9858 1.00952 0 0 0
1.24978 10.3664 0.46263 0 0 0
-7.1594 -6.04211 3.7394 0 0 0
-1.91355 3.25106 1.94782 0 0 0
-9.29153 -7.30081 2.65824 0 0 0
3.44037 7.57823 2.56662 0 0 0
-11.4286 6.4464 2.079 0 0 0
1.75423 -2.09196 0.51889 0 0 0
8.45031 -0.31238 2.1242 0 0 0
-3.2117 7.53963 2.23915 0 0 0
0.79724 3.5775 0.37808 0 0 0
-7.46059 -9.78781 1.98879 0 0 0
-10.3324 -2.1409 0.67224 0 0 0
-10.4058 -5.20947 1.64581 0 0 0
4.28805 -4.61543 2.81451 0 0 0
-8.98864 -11.7647 3.11792 0 0 0
5.76209 6.83731 3.34819 0 0 0
2.99459 3.81724 1.07322 0 0 0
-11.609 -8.49456 0.58465 0 0 0
-6.10378 -10.4754 1.32449 0 0 0
-10.1036 -4.64516 1.30492 0 0 0
5.01217 3.55979 2.04158 0 0 0
1.59498 8.72243 0.23697 0 0 0
3.36744 -7.48963 2.58027 0 0 0
-5.33258 6.84751 2.03118 0 0 0
-2.00935 7.31187 3.42131 0 0 0
-11.4167 1.00747 1.62139 0 0 0
-11.914 8.32336 0.94057 0 0 0
-10.5179 -0.77587 1.82572 0 0 0
6.87035 -11.3792 1.82025 0 0 0
-2.22978 1.83882 2.52579 0 0 0
1.23877 2.62743 0.18391 0 0 0
8.12015 4.54163 0.86529 0 0 0
1.46818 10.0072 0.17013 0 0 0
9.78105 3.19347 1.35013 0 0 0
11.0374 4.99222 3.27532 0 0 0
-6.00256 -0.64694 2.52098 0 0 0
-3.72065 6.39494 2.44652 0 0 0
-7.89471 -10.5758 2.59162 0 0 0
10.2735 1.17731 3.13386 0 0 0
7.36445 4.37287 0.78441 0 0 0
1.22528 8.65476 0.3412 0 0 0
-10.2623 -11.9218 2.05633 0 0 0
-4.50117 0.85708 1.67687 0 0 0
-11.1235 2.2867 0.35187 0 0 0
-9.93557 -6.97768 2.27951 0 0 0
7.70945 -8.94721 0.12231 0 0 0
-3.25328 4.63286 1.80911 0 0 0
4.25417 -10.0024 2.0591 0 0 0
-8.22423 7.89422 2.89201 0 0 0
4.51553 9.98496 2.13353 0 0 0
10.7485 11.4935 3.44723 0 0 0
10.9248 2.67637 2.10378 0 0 0
-3.22686 -7.93663 1.83228 0 0 0
-8.98124 7.37103 2.89353 0 0 0
-5.14128 -1.71221 0.94963 0 0 0
-4.77551 -8.5998 0.32342 0 0 0
2.92187 10.0531 0.97303 0 0 0
10.8944 -0.83533 3.66582 0 0 0
3.45793 -0.00465 3.31107 0 0 0
-7.11243 -3.71951 1.89982 0 0 0
-2.96764 2.98997 1.18455 0 0 0
2.90486 10.627 1.40514 0 0 0
0.24893 -2.73959 0.83335 0 0 0
9.35908 -9.58507 0.94717 0 0 0
-7.00711 -4.44357 2.39674 0 0 0
5.31052 3.63007 1.94334 0 0 0
10.5291 -3.00533 1.90243 0 0 0
-0.40184 -4.97959 2.65515 0 0 0
7.67732 -8.21564 0.66174 0 0 0
2.43658 -2.05102 0.88998 0 0 0
0.18893 -0.48842 2.69527 0 0 0
-10.7001 -3.46175 0.09414 0 0 0
8.57557 -9.69797 0.28633 0 0 0
7.66998 9.35325 0.01944 0 0 0
2.24675 -7.73456 1.33902 0 0 0
-7.34392 1.79548 2.64991 0 0 0
-1.21253 -4.73301 2.95713 0 0 0
2.08218 0.21055 2.10585 0 0 0
-7.46505 7.76195 3.01722 0 0 0
-4.95688 7.58443 1.29604 0 0 0
-6.03222 -4.9717 2.00808 0 0 0
-8.11372 -1.04866 3.46519 0 0 0
-7.8994 9.57848 2.01076 0 0 0
11.6049 -6.54029 3.78718 0 0 0
-9.8137 10.0186 0.79201 0 0 0
-10.6563 -0.26073 2.0232 0 0 0
-0.4931 10.4472 1.95206 0 0 0
4.32972 -9.41099 1.92777 0 0 0
-6.42007 8.79333 1.32928 0 0 0
5.25916 -5.33163 3.43463 0 0 0
-8.34991 10.166 2.14187 0 0 0
-1.16188 -0.69465 3.68583 0 0 0
7.54726 -5.81632 1.93966 0 0 0
9.04572 11.8749 2.40027 0 0 0
-7.37642 5.07817 3.2458 0 0 0
7.32248 -5.0359 1.45585 0 0 0
-0.20876 -9.10204 1.25887 0 0 0
2.75696 3.36484 0.6496 0 0 0
-10.4943 2.56124 0.28674 0 0 0
3.96635 6.53664 3.70244 0 0 0
2.66656 9.28697 0.55212 0 0 0
10.3102 1.13419 3.19705 0 0 0
3.97731 -4.99843 3.02393 0 0 0
11.4952 -8.60673 2.1941 0 0 0
-9.21337 -2.88371 1.24291 0 0 0
2.39658 -1.69525 1.19789 0 0 0
-3.09657 -9.21749 1.06642 0 0 0
-8.69478 -7.99304 2.52826 0 0 0
-4.34237 2.91951 0.09224 0 0 0
2.86656 -8.39156 1.21636 0 0 0
10.2515 0.4124 3.65184 0 0 0
8.37533 5.17633 1.58033 0 0 0
6.16978 0.63116 2.92051 0 0 0
-2.67632 11.5305 2.95841 0 0 0
8.27351 6.61727 2.03143 0 0 0
-8.10454 9.25638 1.98292 0 0 0
-6.9378 -11.3976 3.00011 0 0 0
-9.28205 -5.575 2.90179 0 0 0
11.2052 -7.81496 3.01711 0 0 0
-11.3495 -8.24395 0.68182 0 0 0
4.14889 8.28644 2.42629 0 0 0
10.8318 -2.43598 2.2254 0 0 0
-8.36222 -7.70347 3.02355 0 0 0
-10.7856 9.40696 0.02213 0 0 0
2.2768 3.10506 0.23971 0 0 0
-0.51625 1.94806 2.12524 0 0 0
-6.77523 10.292 1.82548 0 0 0
1.78035 2.886 0.05436 0 0 0
3.57388 6.82032 3.27813 0 0 0
7.33802 -9.6191 0.149 0 0 0
9.61242 7.24136 2.76156 0 0 0
8.41905 0.58516 1.98907 0 0 0
-2.95182 7.39929 2.62783 0 0 0
5.82029 -10.537 2.00386 0 0 0
7.05696 10.1766 0.57074 0 0 0
-1.29258 9.47509 1.96281 0 0 0
-6.24779 0.40898 2.88214 0 0 0
2.26934 -7.42709 1.64826 0 0 0
-0.17736 4.79053 2.25449 0 0 0
-10.5848 2.82084 0.13419 0 0 0
7.2964 6.10356 2.13537 0 0 0
3.88999 3.56376 1.76826 0 0 0
11.234 -8.63603 2.26699 0 0 0
-2.04123 7.36816 3.35831 0 0 0
5.05325 4.13963 2.40051 0 0 0
2.10003 -5.96109 2.08538 0 0 0
11.5949 4.68431 2.79764 0 0 0
2.09941 8.94547 0.24918 0 0 0
9.80566 9.24671 1.38755 0 0 0
-10.9558 -0.94803 1.58407 0 0 0
-7.19122 -5.3372 3.37324 0 0 0
1.94307 -8.87411 0.21632 0 0 0
4.35861 -10.3055 2.3015 0 0 0
10.6585 6.69885 3.85858 0 0 0
-6.25768 7.8542 1.97427 0 0 0
-9.21003 -6.43168 3.20209 0 0 0
0.91298 10.3418 0.60046 0 0 0
-5.17841 7.8458 1.11482 0 0 0
5.91749 -1.50425 2.4241 0 0 0
1.67629 -6.78311 1.88318 0 0 0
-8.73195 7.35119 3.12059 0 0 0
0.54544 10.746 1.2342 0 0 0
-10.1544 -3.32044 0.34937 0 0 0
-11.8641 -0.1636 2.34073 0 0 0
1.88908 -4.10068 0.47596 0 0 0
-4.24267 -2.97883 0.12152 0 0 0
9.90765 11.8869 3.24222 0 0 0
8.19024 10.2798 0.39984 0 0 0
-2.02314 -1.81001 2.66249 0 0 0
7.24316 -0.43246 2.08876 0 0 0
-3.69592 -1.56795 1.47647 0 0 0
6.74434 -11.9267 2.3573 0 0 0
-5.19887 3.77091 0.30759 0 0 0
-1.35678 2.59893 2.12085 0 0 0
2.67588 5.30036 2.10562 0 0 0
-5.61318 -8.57139 0.72157 0 0 0
-4.19284 -8.06184 0.92559 0 0 0
9.73566 4.05746 1.69679 0 0 0
-8.42304 4.25881 2.40422 0 0 0
10.4669 -3.15313 1.86354 0 0 0
4.81309 1.18986 3.36672 0 0 0
11.1464 -6.62689 3.93016 0 0 0
-9.59185 8.8924 0.9721 0 0 0
0.93045 -11.5867 1.75543 0 0 0
-9.05292 -10.2095 1.65577 0 0 0
-2.00123 0.39842 3.83046 0 0 0
0.11826 6.06644 2.85862 0 0 0
6.9435 -2.49205 0.59027 0 0 0
-4.70394 -5.70994 1.84018 0 0 0
8.92415 -4.19647 1.02669 0 0 0
-1.22129 -2.97241 1.95382 0 0 0
3.94761 6.00158 3.68214 0 0 0
8.2806 -5.82585 1.98686 0 0 0
-9.02837 4.40881 2.08717 0 0 0
11.7158 8.25669 2.35974 0 0 0
2.22313 -8.51796 0.58907 0 0 0
-2.60808 -4.46535 2.26403 0 0 0
-5.26408 2.25981 0.51258 0 0 0
-11.7729 -4.06831 0.68675 0 0 0
-6.11267 -10.4427 1.30518 0 0 0
2.73629 -4.36817 1.26824 0 0 0
-2.59689 1.90248 2.19253 0 0 0
1.13777 -3.67881 0.23316 0 0 0
-4.68847 3.69766 0.15095 0 0 0
0.9761 2.38844 0.44214 0 0 0
11.9962 11.3386 2.87612 0 0 0
4.20787 7.52122 3.20206 0 0 0
-10.941 -7.54601 1.30461 0 0 0
-8.95909 3.97359 1.77564 0 0 0
-8.40428 -5.35121 3.44862 0 0 0
-8.3209 10.2772 2.23476 0 0 0
-0.14507 -8.80163 1.33252 0 0 0
9.17573 1.5407 1.78361 0 0 0
0.07095 -9.19772 0.95477 0 0 0
0.01778 2.49727 1.18272 0 0 0
-8.57341 5.961 3.70073 0 0 0
-1.47921 0.43594 3.90228 0 0 0
10.8778 -7.35909 3.46801 0 0 0
0.3523 -3.39178 0.68608 0 0 0
4.30146 -11.1828 3.1029 0 0 0
6.20271 11.0957 2.18039 0 0 0
-3.20516 -10.8918 1.83289 0 0 0
9.6065 -3.19052 1.18192 0 0 0
-6.77415 -11.6318 3.0656 0 0 0
-5.57799 4.44935 1.0918 0 0 0
4.18636 -3.50919 1.93161 0 0 0
-4.73157 11.4759 1.46226 0 0 0
9.4857 0.82315 2.74081 0 0 0
8.91855 2.35992 0.80538 0 0 0
3.26034 10.626 1.75726 0 0 0
-7.56281 7.01362 3.70279 0 0 0
2.95076 -2.65839 0.92481 0 0 0
-9.21304 -3.03165 1.21619 0 0 0
8.76672 4.78983 1.46578 0 0 0
-9.52016 -7.94377 1.8151 0 0 0
-0.22395 -11.1655 2.39116 0 0 0
-7.19587 -0.79549 3.49108 0 0 0
11.0591 2.89157 2.02908 0 0 0
-0.72668 -7.14237 3.31745 0 0 0
-10.6239 -3.82388 0.29214 0 0 0
-8.32643 9.42603 1.89046 0 0 0
-1.33661 4.18737 2.47147 0 0 0
-3.17585 10.9684 1.93856 0 0 0
0.25359 0.1172 2.74226 0 0 0
4.25428 -4.21916 2.42342 0 0 0
4.60367 9.83419 2.07674 0 0 0
-7.40299 -4.72178 2.9094 0 0 0
-9.12472 -1.5034 2.36292 0 0 0
9.61203 10.9492 2.13976 0 0 0
0.36324 0.99524 2.189 0 0 0
-7.26992 8.89735 1.97013 0 0 0
-5.62609 2.61466 0.52483 0 0 0
9.70145 -7.24442 2.84566 0 0 0
9.25674 5.73203 2.68467 0 0 0
-7.43167 -1.15309 3.31781 0 0 0
-0.41841 10.1202 1.63853 0 0 0
4.93213 -8.2908 2.55289 0 0 0
11.1355 7.66421 3.17886 0 0 0
-2.93489 0.99467 2.75001 0 0 0
-1.08729 -11.4792 3.35035 0 0 0
4.57318 -1.28771 3.26964 0 0 0
-2.29018 -7.47596 3.1213 0 0 0
4.76424 5.46937 3.68538 0 0 0
7.87788 2.19378 0.41683 0 0 0
0.56551 -4.24272 1.01156 0 0 0
2.0096 -6.00045 2.05504 0 0 0
11.5048 -5.05944 3.21326 0 0 0
-5.37591 -1.84092 0.94532 0 0 0
4.10854 -8.72232 2.0599 0 0 0
11.945 0.96155 3.15441 0 0 0
-0.48825 0.83541 3.13996 0 0 0
-11.5997 -10.3979 0.61429 0 0 0
-4.57337 -3.37636 0.03708 0 0 0
-6.99388 -10.792 2.45024 0 0 0
-6.83963 10.4669 2.02376 0 0 0
0.20824 -1.87787 1.49099 0 0 0
-10.8496 2.24767 0.38428 0 0 0
-8.11774 -10.1669 2.2284 0 0 0
10.2367 -3.82655 1.95118 0 0 0
10.341 4.89093 2.97093 0 0 0
-3.40046 -8.00913 1.58948 0 0 0
3.9728 9.78675 1.80355 0 0 0
-3.42927 -4.19647 1.22294 0 0 0
-2.56525 4.78173 2.61425 0 0 0
-11.3993 -7.27414 1.62827 0 0 0
7.03336 11.2098 1.53084 0 0 0
-8.06618 -3.17681 1.97819 0 0 0
-5.32166 -3.71915 0.34214 0 0 0
-4.93291 -11.5927 1.58649 0 0 0
-2.61804 -1.65828 2.41259 0 0 0
3.53544 -3.64397 1.50731 0 0 0
0.71754 -1.05708 1.83388 0 0 0
-1.02201 -11.8704 3.62057 0 0 0
9.54101 0.95847 2.69074 0 0 0
-10.4879 -10.5405 0.68664 0 0 0
6.66988 -10.8736 1.50116 0 0 0
9.72038 -6.7662 3.17691 0 0 0
6.0641 -7.06402 2.92766 0 0 0
-8.85144 -2.61634 1.67724 0 0 0
-2.85529 0.73786 3.02232 0 0 0
6.1257 2.47392 1.37157 0 0 0
-3.50941 9.37589 0.64162 0 0 0
7.68668 3.23262 0.0181 0 0 0
-6.02295 -11.8052 2.46674 0 0 0
-0.63486 -1.30819 2.85267 0 0 0
-2.98858 7.89454 2.11187 0 0 0
5.86624 3.93336 1.70238 0 0 0
11.5037 -2.86083 1.91283 0 0 0
7.75865 -5.38489 1.62748 0 0 0
-4.41519 6.7809 1.92252 0 0 0
5.99952 -3.42628 1.32012 0 0 0
3.24652 11.56 2.63966 0 0 0
-8.33205 -10.6135 2.515 0 0 0
8.43141 -4.03562 0.53586 0 0 0
-8.88203 -8.56786 1.86172 0 0 0
-0.71661 -4.95623 2.89827 0 0 0
1.65778 -9.94037 0.13378 0 0 0
9.7925 -3.97151 1.68455 0 0 0
1.8408 10.021 0.20875 0 0 0
-4.4837 7.26466 1.58183 0 0 0
-3.31998 3.65993 0.95391 0 0 0
3.35823 -11.4602 2.66299 0 0 0
-1.59441 8.53981 2.36641 0 0 0
-10.0143 -9.30557 0.45116 0 0 0
-0.54975 -11.496 3.00222 0 0 0
-7.78566 -2.56814 2.15763 0 0 0
-1.71712 -1.71603 2.84459 0 0 0
-11.5051 7.42462 1.54331 0 0 0
8.69631 -3.71375 0.49354 0 0 0
11.9371 -1.32742 2.82955 0 0 0
-3.53588 8.0032 1.46719 0 0 0
-5.91922 7.27169 2.19396 0 0 0
-5.87056 5.51523 2.31831 0 0 0
8.93325 -7.86391 1.5181 0 0 0
5.25317 -0.42596 3.76795 0 0 0
-3.84561 10.4181 0.80677 0 0 0
9.41844 4.90372 2.18382 0 0 0
10.2804 -7.40871 3.18566 0 0 0
-4.94468 6.61074 1.97369 0 0 0
5.06291 -7.13252 3.59967 0 0 0
0.91141 -11.7836 1.91863 0 0 0
-6.61289 -7.72652 2.45088 0 0 0
1.97064 -0.17279 2.06399 0 0 0
3.83286 11.4744 3.09825 0 0 0
-0.55682 -7.17903 3.15335 0 0 0
10.9816 -2.02789 2.55856 0 0 0
-6.36058 -6.14873 3.06829 0 0 0
-6.91438 3.48829 1.64961 0 0 0
-5.44718 8.57654 0.59672 0 0 0
6.16756 5.40657 2.75512 0 0 0
-8.0232 7.47499 3.3557 0 0 0
-9.87485 8.97748 0.66335 0 0 0
6.73178 -1.48258 1.6544 0 0 0
-11.2688 -5.72029 1.88281 0 0 0
-6.17419 7.2715 2.44132 0 0 0
5.53774 -9.71441 1.71995 0 0 0
5.46444 0.66951 3.51441 0 0 0
-11.8924 -7.38043 1.83194 0 0 0
6.49924 11.2659 2.05271 0 0 0
10.8321 -0.43377 3.89406 0 0 0
5.56539 -7.0369 3.38688 0 0 0
10.7141 -5.43317 3.62061 0 0 0
1.48593 1.8474 0.73051 0 0 0
10.8597 -6.27125 3.9907 0 0 0
-7.88578 -0.01969 3.9993 0 0 0
-2.86931 7.67926 2.44277 0 0 0
-7.10508 -0.10862 3.72654 0 0 0
1.87052 11.2803 1.32544 0 0 0
-10.2561 -4.29042 0.85165 0 0 0
6.5547 5.03601 2.04981 0 0 0
-0.24062 -8.25925 1.84404 0 0 0
-2.23418 0.83536 3.45882 0 0 0
7.70979 -1.7199 0.86183 0 0 0
1.66528 -6.83369 1.85672 0 0 0
9.67186 3.85818 1.49053 0 0 0
11.8757 -7.61283 2.8759 0 0 0
11.1781 -3.43732 2.02679 0 0 0
3.08715 7.11304 2.62057 0 0 0
-4.98588 3.79426 0.2427 0 0 0
-10.2661 -6.31486 2.25397 0 0 0
9.51306 -4.62514 2.00102 0 0 0
0.97009 11.4983 1.65688 0 0 0
7.45897 9.68258 0.11005 0 0 0
1.89021 10.1684 0.31454 0 0 0
7.42933 -6.89302 1.90856 0 0 0
-6.30357 -9.97355 1.16722 0 0 0
0.49681 10.738 1.26869 0 0 0
3.8848 -0.36548 3.61061 0 0 0
-6.8175 10.5623 2.08943 0 0 0
-4.12703 -10.5107 0.70038 0 0 0
-0.26215 -2.30737 1.58741 0 0 0
-4.5773 -10.5521 0.57999 0 0 0
9.80269 1.31655 2.62049 0 0 0
-5.5426 8.36169 0.8391 0 0 0
8.57687 0.34864 2.18994 0 0 0
-0.61644 3.40339 1.6122 0 0 0
-0.3974 10.4119 1.83593 0 0 0
-10.8317 -3.72667 0.17973 0 0 0
6.86465 -0.36033 2.38653 0 0 0
-10.4161 -1.12211 1.59704 0 0 0
5.75568 -8.10481 2.25517 0 0 0
-1.5528 -0.54787 3.85347 0 0 0
11.1632 -3.3724 2.0125 0 0 0
4.53426 10.5622 2.56428 0 0 0
4.16958 7.17902 3.48112 0 0 0
6.15132 9.81225 1.20561 0 0 0
-8.38717 6.49125 3.83962 0 0 0
2.53245 -8.91419 0.55538 0 0 0
-6.56232 -9.37153 1.27694 0 0 0
-3.87218 2.70913 0.42476 0 0 0
-10.3121 -6.72934 2.12672 0 0 0
5.89759 10.2161 1.67317 0 0 0
2.15206 1.08932 1.62732 0 0 0
-3.91222 8.57037 0.64675 0 0 0
-5.92718 1.44822 1.77374 0 0 0
-2.04141 -9.23953 1.9084 0 0 0
-4.76492 -10.2366 0.31322 0 0 0
5.50991 4.9162 2.90088 0 0 0
0.91919 11.5016 1.68957 0 0 0
5.27833 -9.16104 1.87866 0 0 0
-1.50781 -3.99928 2.34383 0 0 0
-6.09221 -5.12419 2.21044 0 0 0
-9.02095 0.75295 3.12262 0 0 0
-0.85391 -8.94625 1.86618 0 0 0
7.42141 2.34337 0.39413 0 0 0
-11.488 3.90029 0.39309 0 0 0
1.66948 5.69735 1.83812 0 0 0
-9.65527 7.12216 2.43977 0 0 0
11.1364 -0.75178 3.72057 0 0 0
7.7819 1.07465 1.47864 0 0 0
8.43826 -4.06758 0.56485 0 0 0
-11.3618 10.287 0.41558 0 0 0
-7.78514 -5.41231 3.64179 0 0 0
-6.5439 -1.24184 2.58082 0 0 0
-1.00485 2.00431 2.42401 0 0 0
7.6112 -5.51256 1.7468 0 0 0
7.24113 -10.4038 0.62418 0 0 0
0.48968 2.22083 0.92445 0 0 0
10.2738 -8.65395 2.03334 0 0 0
-6.88885 -3.40478 1.60374 0 0 0
5.13081 -8.88804 2.05435 0 0 0
-9.8358 2.06189 1.12886 0 0 0
11.5498 8.92253 1.97378 0 0 0
-3.84216 -2.41922 0.60511 0 0 0
8.93684 10.0667 0.73024 0 0 0
11.1292 3.66784 2.12638 0 0 0
4.39317 -11.0248 2.97871 0 0 0
-8.69064 11.9064 3.45994 0 0 0
6.93913 2.62365 0.52125 0 0 0
5.50896 0.87094 3.34327 0 0 0
6.7417 9.843 0.64357 0 0 0
0.93666 -5.61923 1.98197 0 0 0
-6.2545 3.11984 0.97156 0 0 0
-9.97905 -0.36721 2.40701 0 0 0
-0.15644 3.7086 1.31229 0 0 0
8.31319 -4.7023 1.09351 0 0 0
-2.46545 -3.37753 1.6535 0 0 0
1.66792 1.35058 1.22315 0 0 0
-10.2494 11.2871 1.55314 0 0 0
2.8128 10.3508 1.07606 0 0 0
1.90962 2.64775 0.17633 0 0 0
9.70935 9.52734 1.286 0 0 0
2.74545 9.96133 0.75466 0 0 0
2.11807 9.51131 0.1498 0 0 0
-10.7679 7.51291 1.36031 0 0 0
3.43367 -4.9137 2.4879 0 0 0
-6.48679 -1.91646 1.86338 0 0 0
1.99113 10.4845 0.59791 0 0 0
-1.02714 -9.4902 1.85796 0 0 0
-6.05125 6.15219 2.76157 0 0 0
-6.97852 8.64032 1.93288 0 0 0
11.8895 -11.1511 2.78132 0 0 0
-3.33235 7.59265 2.06876 0 0 0
6.28654 -7.16543 2.63207 0 0 0
0.32818 -1.86212 1.39046 0 0 0
-11.3386 -0.45563 1.95626 0 0 0
-2.81932 3.15638 1.31683 0 0 0
8.90239 -7.55552 1.79509 0 0 0
-4.96554 -11.6756 1.66066 0 0 0
-7.7839 9.97686 2.14611 0 0 0
-2.17345 -4.81806 2.92931 0 0 0
-1.14599 4.54803 2.7475 0 0 0
-2.79053 -5.35819 2.94573 0 0 0
3.191 -2.52681 1.23249 0 0 0
-5.53754 -10.8815 1.2077 0 0 0
-10.0498 -1.66969 1.31612 0 0 0
3.56194 -8.17538 2.09218 0 0 0
-11.4429 -5.07363 1.45183 0 0 0
3.33687 -9.29276 1.20275 0 0 0
-8.58335 -8.92002 1.8703 0 0 0
7.16879 -7.93411 1.14566 0 0 0
9.40469 -11.3617 2.33795 0 0 0
11.3845 5.41945 3.57493 0 0 0
7.81255 -4.96131 1.24721 0 0 0
1.71571 -10.9332 0.94818 0 0 0
-9.47006 -4.52818 1.77157 0 0 0
-2.5583 -0.55249 3.402 0 0 0
9.29999 -5.09403 2.24798 0 0 0
2.13738 6.84177 2.00427 0 0 0
-3.92643 1.14228 1.70881 0 0 0
6.58511 3.77385 0.89595 0 0 0
3.29962 -10.0661 1.35607 0 0 0
-7.85596 7.25611 3.56289 0 0 0
-8.47041 -5.28791 3.36022 0 0 0
10.1857 -9.40258 1.68982 0 0 0
-7.12388 10.8249 2.57522 0 0 0
10.4507 8.44215 2.30035 0 0 0
6.62442 -4.7015 1.65445 0 0 0
-3.23616 -11.0657 1.97569 0 0 0
6.39727 1.20468 2.24416 0 0 0
-1.91552 -8.57706 2.27947 0 0 0
-8.07311 -2.48651 2.18309 0 0 0
-5.18214 -10.8752 0.98826 0 0 0
10.2661 5.74908 3.60627 0 0 0
-5.47925 4.08692 0.69443 0 0 0
-1.5092 2.3994 2.26111 0 0 0
0.47245 9.51262 0.54879 0 0 0
-7.38038 -10.4729 2.39076 0 0 0
3.13625 7.30715 2.51464 0 0 0
-9.60783 -4.42607 1.53554 0 0 0
2.86377 -1.80341 1.49522 0 0 0
-7.67375 -4.26589 2.552 0 0 0
-10.1629 -5.591 2.09695 0 0 0
8.98177 -11.0432 1.6189 0 0 0
5.62715 -9.35159 1.61265 0 0 0
2.2775 -0.55427 2.08978 0 0 0
3.3824 -9.69339 1.27434 0 0 0
4.89689 7.16638 3.61772 0 0 0
2.25299 1.1683 1.61553 0 0 0
-3.31892 -9.20355 0.84797 0 0 0
-9.90745 8.80652 0.72097 0 0 0
9.4943 10.6687 1.74836 0 0 0
-6.12566 -6.08387 2.82332 0 0 0
-4.69273 6.51167 1.9742 0 0 0
-6.02454 10.3862 1.17187 0 0 0
-5.0601 8.69432 0.31498 0 0 0
7.09372 10.8653 1.14541 0 0 0
-7.63051 0.01472 3.97503 0 0 0
4.30993 -6.11183 3.90546 0 0 0
8.03841 -7.90888 0.96209 0 0 0
0.63416 5.88548 2.32945 0 0 0
-3.00222 1.37749 2.33104 0 0 0
-2.97083 10.9321 2.10654 0 0 0
4.65336 8.36672 2.50769 0 0 0
9.78255 -8.74735 1.571 0 0 0
1.21815 -2.83703 0.10756 0 0 0
-3.14534 -7.76314 2.08697 0 0 0
-11.7475 -0.03811 2.26892 0 0 0
3.2389 -1.34507 2.32097 0 0 0
1.19308 2.89219 0.10143 0 0 0
-8.32017 -10.6693 2.57274 0 0 0
5.98368 -3.64924 1.42116 0 0 0
11.7111 -5.91523 3.6878 0 0 0
9.7767 1.29895 2.61321 0 0 0
-2.26248 4.86894 2.92608 0 0 0
-10.1575 1.86726 1.03899 0 0 0
-3.66976 -8.5179 0.87985 0 0 0
-0.04664 -3.968 1.36911 0 0 0
-5.62048 -7.91086 1.3279 0 0 0
-8.64147 -9.81452 1.78062 0 0 0
-11.071 -11.3455 1.34567 0 0 0
-2.87047 5.35797 2.86947 0 0 0
11.7778 -5.11077 3.09724 0 0 0
10.5874 6.26073 3.91757 0 0 0
-2.83234 -7.60981 2.5461 0 0 0
2.97171 4.85815 1.97618 0 0 0
-9.87317 11.6799 2.19868 0 0 0
-8.11348 -0.44892 3.86744 0 0 0
0.68038 -5.62536 2.16224 0 0 0
0.91617 4.4816 0.97798 0 0 0
7.55659 4.92731 1.25716 0 0 0
-4.12431 -6.68398 2.08875 0 0 0
1.80271 -2.22325 0.41964 0 0 0
3.72393 4.80024 2.63772 0 0 0
-3.992 -9.10892 0.29792 0 0 0
4.83688 -0.42227 3.90442 0 0 0
2.9721 -8.05492 1.63173 0 0 0
7.0456 2.75651 0.38256 0 0 0
8.49851 9.13883 0.24123 0 0 0
4.4167 -3.42064 1.99528 0 0 0
-8.65259 -7.66306 2.88747 0 0 0
1.37524 -3.53092 0.0939 0 0 0
6.55258 -5.95809 2.68147 0 0 0
-6.87426 7.64863 2.76116 0 0 0
6.03531 8.19142 1.91428 0 0 0
-6.97934 -0.24755 3.61078 0 0 0
-4.36489 1.14256 1.47504 0 0 0
-0.62705 0.72368 3.33613 0 0 0
-3.67332 -4.1671 0.97431 0 0 0
4.26227 3.54023 1.9788 0 0 0
-3.81431 8.05186 1.1803 0 0 0
2.2646 7.17893 1.85611 0 0 0
4.85005 -0.38959 3.91561 0 0 0
10.3015 -9.64121 1.79194 0 0 0
-2.20917 10.096 2.02003 0 0 0
9.69217 -7.45099 2.65638 0 0 0
9.25557 7.89757 1.78803 0 0 0
-2.31498 -9.79656 1.80396 0 0 0
0.35663 -9.47753 0.65228 0 0 0
7.87277 -8.73925 0.22609 0 0 0
-11.8423 7.35165 1.81907 0 0 0
-0.28112 -4.94093 2.50399 0 0 0
2.98415 6.21111 2.84061 0 0 0
3.67682 -11.3058 2.81535 0 0 0
-3.50011 -9.91723 0.76794 0 0 0
1.71687 -10.4147 0.46191 0 0 0
-4.33011 11.7051 1.72362 0 0 0
9.3932 -6.31858 2.9678 0 0 0
-11.4262 0.33771 2.0348 0 0 0
-7.38115 -0.28027 3.85127 0 0 0
-8.58642 5.47761 3.43625 0 0 0
-3.50835 -10.3855 1.06847 0 0 0
2.76898 -0.97149 2.20002 0 0 0
-9.35854 -10.6436 1.72146 0 0 0
5.12857 -6.00752 3.87688 0 0 0
