ply
format ascii 1.0
comment Created by Open3D
element vertex 400
property double x
property double y
property double z
end_header
0.68907 2.97434 0.919981
-0.35729 2.50353 -1.5231
0.25236 2.70149 0.48598
-0.93586 1.95564 -0.225277
0.93152 3.09423 0.519964
0.71792 2.99014 0.656054
-0.62584 2.10494 0.402301
0.34287 2.76706 0.0717431
-0.26294 2.59127 -1.50153
-0.87191 2.28405 -1.9348
0.66387 2.95358 1.28672
-0.16386 2.41059 -0.0994121
-0.78256 2.04319 -0.920794
-0.30296 2.45851 -1.30714
-0.3378 2.34064 -0.954
0.88786 3.05275 1.62763
0.59245 2.91756 1.07284
-0.93107 2.06345 -1.54431
-0.11773 2.42181 0.988344
-0.93823 1.97042 -0.97761
0.19961 2.67385 -0.142878
0.07809 2.60623 -0.476526
-0.37618 2.32193 -1.01976
-0.15297 2.41732 0.0506571
-0.11665 2.43007 0.881904
0.39179 2.80709 -0.079995
-0.95157 1.94912 -0.220695
0.49035 3.03142 -0.835546
-0.58936 2.13684 -0.576723
0.64762 3.09226 -0.659165
0.93774 3.09495 0.991548
-0.4384 2.25063 -0.829076
-0.73825 2.04785 0.133148
-0.39004 2.35487 -1.2206
-0.61726 2.11563 -0.0193394
-0.38995 2.25623 -0.0957635
-0.09715 2.76133 -1.46823
0.62619 3.0549 -0.595667
0.26949 2.7107 0.88102
-0.63615 2.1026 0.258539
-0.62681 2.11862 -0.691961
0.81985 3.07444 -0.0748614
-0.74257 2.15429 -1.46107
-0.21791 2.40816 -0.773893
-0.26327 2.49269 -1.29938
-0.59836 2.11301 0.583116
0.61726 2.99544 -0.375481
-0.42326 2.23922 -0.467051
0.77655 3.24721 -0.781728
-0.32662 2.30167 -0.362923
-0.97534 2.14448 -1.8214
-0.57587 2.13866 0.224973
-0.85423 2.01071 -0.98396
-0.73599 2.35184 -1.86973
-0.90598 2.06227 -1.4895
0.28295 2.74017 -0.238267
0.75985 3.01348 0.462964
0.98728 3.11503 0.943309
-0.15947 2.41246 0.354685
-0.38912 2.25641 0.221834
-0.99889 1.9809 -1.31743
0.78199 3.04041 0.0711703
-0.59538 2.12836 -0.0225072
0.93567 3.09373 1.08807
0.82088 3.08093 -0.123015
-0.81658 2.09439 -1.41191
0.72952 3.11319 -0.543341
0.28953 2.72743 0.259954
-0.54171 2.19808 -0.998541
0.59615 3.00636 -0.497916
0.53374 2.96051 -0.497499
-0.58569 2.12602 0.48434
0.50041 2.86419 0.673668
-0.93353 2.20487 -1.88295
-0.3945 2.38157 -1.32203
0.79613 3.03227 0.446651
0.47202 2.84286 1.06342
0.58799 2.89954 1.43221
0.13716 2.68646 -0.707185
0.73005 3.04379 -0.230397
0.35821 2.90612 -0.816708
0.64185 3.1444 -0.794753
0.15435 2.79241 -1.02449
0.35292 2.8069 -0.388286
-0.3922 2.44606 -1.47844
-0.0921 2.45715 0.640688
0.38008 2.78727 0.511316
0.04327 2.66405 -0.955916
0.23766 2.69102 0.679883
0.78617 3.02533 0.755091
0.17676 2.91678 -1.22112
-0.25995 2.38909 -0.874564
-0.70487 2.06638 0.0572474
-0.5648 2.20629 -1.15565
0.35478 2.91846 -0.859517
0.29791 2.73194 0.74534
-0.17625 2.53292 -1.18479
0.78089 3.02133 1.11877
0.96633 3.16348 -0.178007
-0.12694 2.5518 -1.1023
0.2424 2.81419 -0.853146
0.1214 2.71254 -0.877725
-0.77345 2.03131 -0.396376
0.54671 2.89255 0.686374
0.42673 2.80798 1.20193
0.30213 2.79883 -0.586418
-0.31407 2.45582 -1.32745
0.66955 2.98086 0.0133431
0.49016 2.89175 -0.270419
-0.8006 2.01851 -0.503029
-0.10803 2.44414 0.70162
-0.35213 2.39929 -1.26263
-0.86762 2.04656 -1.3229
-0.66827 2.08679 -0.176671
0.67511 3.0146 -0.262994
0.70214 2.98206 0.541495
-0.42219 2.29306 -1.05594
-0.8223 2.05168 -1.20379
-0.9691 1.94126 -0.0167796
0.93436 3.12449 -0.00830143
-0.44595 2.21989 0.110733
0.76355 2.99355 1.56365
-0.55481 2.17326 -0.845891
0.85046 3.34997 -0.852474
0.42772 3.08627 -1.05295
-0.84741 1.98077 0.459725
-0.34262 2.28898 -0.270355
0.9176 3.07805 1.44535
0.22104 2.94972 -1.19389
0.86108 3.04057 1.6159
0.38086 3.07551 -1.11274
0.65465 3.165 -0.814439
0.41843 2.81226 0.531518
-0.47735 2.19655 0.414768
0.32262 2.74582 0.955139
-0.10708 2.45353 -0.233161
-0.02543 2.50638 0.524532
-0.38997 2.34005 -1.1617
0.08175 2.57133 1.00018
-0.95267 2.00987 -1.36093
-0.99454 1.93453 -0.679289
0.18381 2.63586 1.17851
-0.67063 2.06726 0.608487
0.70556 3.03167 -0.249418
-0.15879 2.59879 -1.30769
-0.97667 1.95379 -0.978706
-0.69328 2.16719 -1.38599
-0.92495 1.95994 -0.0656549
-0.25303 2.47489 -1.22297
0.77223 3.08118 -0.300188
0.9833 3.09262 1.6694
0.17747 2.64361 0.95207
-0.06262 2.46423 0.97976
0.44979 2.84296 -0.0140644
-0.54611 2.15698 0.192637
-0.95544 2.12044 -1.74463
-0.94081 1.95345 -0.128962
0.61738 2.91346 1.48969
-0.94144 1.9523 0.0195939
0.35698 2.75927 1.21446
0.05213 2.56101 0.60423
-0.84228 1.99811 -0.490605
-0.94229 1.95237 -0.0290409
0.72128 3.04047 -0.243577
-0.16071 2.41935 -0.369987
0.87653 3.06833 0.9463
-0.84061 1.99579 0.156363
0.82976 3.34836 -0.873553
0.31781 2.74589 0.501721
-0.88342 1.97864 -0.421294
0.37455 2.77844 1.05743
0.83117 3.04728 0.837547
-0.1611 2.41128 0.365482
0.20988 2.67045 0.800374
0.60163 2.94243 -0.0283903
0.45339 2.83698 0.232737
0.35442 2.79449 -0.265646
0.11343 2.76577 -1.05819
-0.2412 2.35603 0.1147
-0.46846 2.2286 -0.816942
0.2319 2.6919 -0.0050346
-0.47538 2.20725 -0.537741
-0.41207 2.24234 -0.222831
-0.05212 2.58061 -0.964649
0.52294 2.91851 -0.301213
-0.20098 2.48354 -1.09645
-0.81179 2.2867 -1.86959
-0.94998 2.09187 -1.66466
-0.13543 2.41977 0.815259
-0.96357 2.09951 -1.70508
0.52212 2.87724 0.858124
0.11715 2.59336 1.07356
-0.6839 2.06167 0.57789
0.74028 3.05035 -0.232829
0.56211 3.042 -0.707404
0.45115 2.9151 -0.575783
0.90698 3.0924 0.236697
0.1062 2.60616 -0.148613
-0.7557 2.16628 -1.52875
-0.03713 2.48542 0.94951
0.19107 2.65241 0.978961
0.24938 2.73225 -0.419187
0.50946 2.95716 -0.562284
-0.61293 2.12549 -0.657588
0.49347 2.92618 -0.476413
0.99127 3.15332 -0.0344856
0.71411 3.1539 -0.687442
-0.58754 2.13403 -0.382417
-0.038 2.4981 0.193917
0.88769 3.07759 0.389453
-0.74314 2.0465 -0.149291
0.6574 3.13077 -0.737088
-0.40066 2.36553 -1.28858
-0.94039 2.00948 -1.32524
-0.44722 2.2118 0.552307
0.92893 3.09143 0.729338
-0.59117 2.15576 -0.91332
0.84635 3.31499 -0.805013
-0.0308 2.7696 -1.3656
0.18598 2.65261 0.851229
0.24826 2.87615 -1.00393
-0.0942 2.50569 -0.768356
-0.98572 1.93541 -0.204205
0.57163 2.92713 -0.0766079
-0.30353 2.34429 -0.786649
-0.19913 2.38539 -0.0357725
0.89733 3.07801 0.651747
0.92155 3.09223 0.409669
-0.46337 2.26037 -1.04474
-0.51582 2.17792 -0.392614
0.35745 2.81427 -0.417858
0.41382 2.84102 -0.300329
-0.95049 1.94956 -0.322073
0.85121 3.05672 0.914975
0.39817 2.82725 -0.277327
0.93855 3.12305 0.023278
0.82326 3.24727 -0.715069
0.34976 2.76265 1.0214
-0.5016 2.18458 0.169041
-0.27322 2.33438 -0.0671398
0.22629 2.70477 -0.319146
-0.53047 2.27082 -1.32711
0.74772 3.31397 -0.923199
0.51819 2.87815 0.24077
-0.22009 2.63013 -1.48741
0.31982 2.75735 -0.0898026
-0.0803 2.46967 -0.0788848
-0.54639 2.17493 -0.797715
0.65428 2.94683 1.31454
0.37197 2.84794 -0.552844
0.22399 2.66854 1.13597
0.95729 3.25415 -0.535365
-0.41242 2.2415 0.00578413
-0.15845 2.44162 -0.664192
0.58473 3.07256 -0.739259
-0.77187 2.03198 -0.369661
0.82472 3.1026 -0.249948
-0.9625 1.95087 -0.802064
-0.89295 2.08054 -1.52988
0.28673 2.72491 0.530054
0.87038 3.06167 1.29513
0.14338 2.7837 -1.02955
0.76458 3.0028 1.43694
-0.30042 2.31832 -0.301737
-0.64314 2.22239 -1.4532
0.58484 3.11635 -0.837773
0.54716 2.90324 0.049554
0.30852 2.96439 -1.05899
0.5164 2.91399 -0.301461
0.93033 3.12589 -0.0368403
-0.71022 2.05716 0.381675
-0.02082 2.50975 0.511804
-0.28434 2.34339 -0.620423
0.61801 3.214 -0.953675
-0.89127 1.97902 -0.705876
0.82539 3.27179 -0.75869
-0.14929 2.39868 0.978438
0.90142 3.24791 -0.602271
-0.61567 2.29871 -1.59648
-0.42874 2.22954 0.33345
0.07492 2.61082 -0.542224
0.73428 2.99871 0.8661
0.66247 3.07384 -0.570006
0.40683 2.80984 0.0904531
-0.38166 2.42959 -1.41912
0.55106 2.88539 1.28266
0.18308 2.64956 0.891096
-0.09227 2.4589 0.514017
0.47241 2.96472 -0.696309
-0.46425 2.48296 -1.67294
0.64097 3.15768 -0.82291
-0.51375 2.46618 -1.72455
0.84337 3.06147 0.25178
-0.00608 2.52282 -0.0729593
-0.25878 2.58787 -1.48826
0.82721 3.04504 1.02772
-0.34156 2.40365 -1.24693
0.42426 3.08186 -1.05183
-0.52429 2.16941 0.281421
0.64277 2.93408 1.42229
-0.22928 2.47893 -1.16798
0.16589 2.64149 0.59088
-0.70299 2.11105 -1.13177
0.34733 2.74881 1.26967
-0.55953 2.23839 -1.28826
-0.05172 2.51105 -0.531405
0.82018 3.02451 1.55566
-0.00164 2.52365 0.447952
-0.5483 2.18275 -0.902862
0.45373 2.83416 0.870569
-0.79453 2.08258 -1.29451
0.91561 3.09779 0.21047
0.38619 2.80706 -0.141209
-0.51886 2.16497 0.55254
0.59772 2.92399 0.402294
0.32005 2.74904 0.186811
0.96343 3.20129 -0.359514
-0.84103 2.00039 -0.612383
-0.92743 1.96303 -0.710932
0.94637 3.30497 -0.665119
0.98793 3.11109 1.3558
0.7142 2.98288 1.26301
-0.52544 2.2567 -1.25805
-0.37552 2.25384 0.690766
-0.43756 2.22512 0.169324
0.2866 2.72813 0.0762968
-0.62766 2.26947 -1.55101
-0.40572 2.54731 -1.67393
-0.95959 2.02486 -1.45071
0.09254 2.59148 0.0638942
0.47618 2.85389 0.143932
0.62631 3.1846 -0.895027
-0.79846 2.02199 -0.639939
0.59921 3.11874 -0.816935
-0.84845 1.99442 -0.176798
0.37801 2.99984 -0.992516
-0.00615 2.53701 -0.420877
-0.13794 2.55092 -1.13164
-0.11836 2.5379 -1.02647
-0.96715 2.21727 -1.93823
-0.61067 2.11953 -0.214444
-0.68014 2.0781 0.228551
0.62204 2.93665 0.911864
0.81129 3.03883 0.517864
0.56206 2.90191 0.530768
-0.51195 2.17855 -0.113703
-0.54317 2.1664 -0.606676
0.30429 2.77587 -0.43241
-0.02831 2.56485 -0.797737
0.45433 2.84637 -0.0211708
0.20736 2.69447 -0.363333
-0.78375 2.22333 -1.72023
0.4748 2.8675 -0.131635
0.31195 2.73167 1.13959
0.70732 2.99622 0.115676
0.31556 2.74087 0.959084
-0.88832 1.97525 0.0395414
0.93578 3.09418 0.945918
-0.70065 2.1159 -1.155
-0.19814 2.38321 0.555553
-0.4149 2.23834 0.351736
-0.62205 2.11241 0.118596
0.28446 2.72577 0.117832
-0.88445 1.98736 -0.845141
-0.89372 1.97368 -0.0989667
0.10326 2.5979 0.249842
-0.88693 1.9835 -0.782095
0.86781 3.0643 0.974322
-0.79047 2.03062 -0.774529
0.075 2.63024 -0.680802
-0.19434 2.36876 0.929202
0.80308 3.03243 1.1238
0.23954 2.77358 -0.712028
0.93809 3.10438 0.276486
0.9515 3.08079 1.6455
-0.35536 2.56623 -1.62103
0.02996 2.59387 -0.683864
0.79702 3.06415 -0.0933664
-0.45225 2.2195 -0.44296
0.69135 2.97577 0.76644
-0.31006 2.39761 -1.12725
0.62939 2.94066 0.950917
0.23054 2.67866 1.0319
-0.26247 2.56866 -1.46163
0.32518 2.756 0.0349523
-0.81177 2.04868 -1.13931
-0.25083 2.46697 -1.19205
0.61053 2.92573 1.18469
-0.66183 2.14566 -1.18597
0.33828 2.75957 0.6262
0.83793 3.05204 0.497796
-0.69758 2.21436 -1.54798
-0.6359 2.1066 -0.454076
-0.02525 2.73025 -1.28867
0.4513 2.81456 1.36348
-0.50874 2.1814 -0.317357
0.43907 2.8257 0.443031
0.25569 2.80987 -0.799271
-0.76184 2.1329 -1.42953
-0.77866 2.02865 -0.393399
