ply
format ascii 1.0
comment Created by Open3D
element vertex 400
property double x
property double y
property double z
end_header
-2.67934 -0.232627 1.07069
-1.96439 -1.79612 0.80089
-2.43499 -1.56431 0.741684
-3.1163 -0.364274 0.804624
-2.16934 -1.88287 0.740348
-2.00185 0.176879 1.60988
-2.16298 -1.80821 0.751266
-1.74199 -1.01913 1.16226
-1.49626 -1.38563 1.14503
-2.34376 -0.25613 1.2266
-1.78748 -0.261824 1.50324
-2.62751 -0.430289 1.01347
-1.77657 -2.45086 0.798217
-2.60633 -1.0837 0.804115
-2.17694 -1.90499 0.736685
-2.39743 -1.80734 0.718244
-3.09132 -0.304684 0.83276
-2.9042 0.369051 1.20319
-2.09691 -1.66064 0.793239
-1.51029 -2.14774 0.914409
-2.68884 -0.179991 1.08843
-1.47864 -0.603778 1.51281
-2.45406 -1.19079 0.816715
-1.57868 -0.894076 1.3125
-1.88888 -0.940563 1.12334
-2.49987 -0.737976 0.947544
-1.7141 -1.95651 0.853655
-2.04154 -1.61121 0.820322
-1.24065 -0.931926 1.5284
-1.67309 -1.34807 1.05865
-2.41912 -0.693603 0.997021
-3.30495 -0.638827 0.680421
-1.58796 -0.98004 1.26665
-2.84846 -0.478889 0.896519
-2.99908 0.580367 1.22743
-2.1741 -0.0603829 1.40767
-1.38219 -1.56835 1.14973
-1.74711 -1.54738 0.94934
-1.67355 -0.629903 1.38437
-2.07992 0.301871 1.63229
-1.59519 -0.712182 1.38967
-2.35322 -1.56156 0.756152
-2.22168 -1.74834 0.749222
-2.74177 -0.211415 1.04769
-2.75629 0.956801 1.57509
-1.96293 -0.370082 1.35901
-2.25873 -1.05703 0.920059
-2.49391 -1.55412 0.734507
-2.43525 -0.265542 1.17721
-1.5721 -0.283531 1.60907
-1.47395 -1.66547 1.05455
-2.3113 -0.946229 0.941279
-2.24988 -0.791517 1.02683
-2.75154 -0.337781 0.991972
-2.95289 -1.01547 0.736027
-2.86183 -1.17396 0.732131
-2.99355 -0.795386 0.760875
-1.96948 0.382802 1.72106
-2.70109 -0.0888944 1.12185
-2.27425 -0.153377 1.31121
-2.6613 0.546424 1.44456
-3.20265 -0.59819 0.722069
-2.31453 -0.505493 1.12362
-2.66997 -0.446366 0.987786
-2.2675 -0.00968541 1.38596
-2.91445 -0.805317 0.782916
-1.63786 -0.621045 1.40901
-2.76295 0.534543 1.37508
-1.58075 -0.850861 1.33174
-2.76952 0.460085 1.33552
-2.31714 -0.89584 0.958073
-1.89569 0.211548 1.67672
-1.68711 -1.7311 0.919755
-1.38984 -1.70124 1.09759
-2.26001 0.253837 1.52073
-2.85057 -0.98936 0.763428
-1.50453 -0.0277873 1.76041
-1.40738 -0.327321 1.68467
-1.74111 -1.12497 1.1159
-1.46749 -1.49855 1.11874
-2.09203 0.0976327 1.52725
-1.83527 -1.27509 1.0079
-2.81163 -0.0742825 1.0673
-1.89623 -0.435552 1.36056
-1.91197 0.483144 1.79013
-1.78773 -0.742527 1.26712
-2.14488 -2.02562 0.731346
-1.65629 -1.91179 0.887476
-1.20779 -0.234386 1.84713
-2.47466 -1.32425 0.779154
-2.05508 -0.555659 1.22219
-1.66218 -2.30091 0.831975
-1.38992 -1.75432 1.08029
-2.59425 0.315453 1.3723
-2.06703 -1.87974 0.760387
-1.2763 -1.48805 1.26058
-2.75867 0.201485 1.22077
-3.44929 -0.650236 0.630082
-2.35695 0.123552 1.40649
-2.33844 0.0521629 1.38057
-2.08375 0.313252 1.63588
-1.99525 -0.84763 1.11456
-2.68435 0.39085 1.35571
-1.64862 -0.114087 1.64692
-2.65142 0.737223 1.54105
-2.99419 0.623887 1.25065
-1.98551 -0.844869 1.12035
-1.35202 -1.33821 1.26293
-2.97175 0.995905 1.43379
-1.46024 -1.6207 1.07854
-1.65039 -1.35031 1.06981
-2.65245 0.890825 1.61085
-2.02614 -0.107288 1.45823
-2.26038 -1.25875 0.852792
-2.98889 0.340081 1.13022
-2.73904 1.21203 1.69384
-1.51435 -1.68372 1.02417
-2.14552 0.161685 1.53243
-1.86637 -0.701343 1.24592
-2.28493 -1.10168 0.895346
-1.72749 -1.878 0.86477
-3.37239 -0.690303 0.655962
-2.61149 -0.022195 1.20067
-2.7081 0.20357 1.25208
-2.40562 -0.404715 1.12721
-1.84684 -0.646021 1.28272
-1.49524 -1.38722 1.14503
-1.85849 0.20113 1.68936
-3.19339 -0.584247 0.72757
-2.32492 -0.0286583 1.34736
-1.69535 -0.7818 1.29851
-1.74592 -1.765 0.884774
-2.7359 0.42004 1.33789
-2.9121 1.3094 1.61062
-1.57917 -0.982116 1.27095
-2.79392 0.402892 1.29274
-1.26653 -0.272336 1.79508
-1.75085 0.00677556 1.65121
-3.02654 -0.192069 0.901766
-2.70703 0.886664 1.57541
-2.24017 0.681041 1.73185
-1.33136 -0.759863 1.53806
-2.96776 0.325007 1.139
-1.8138 -0.0187852 1.60781
-2.75102 1.07649 1.63048
-1.57332 -2.05031 0.898089
-2.69434 -1.26378 0.747483
-1.65947 -2.31155 0.832618
-3.25692 -0.419346 0.724169
-2.07801 -0.033915 1.46892
-2.51932 0.25638 1.38552
-2.76332 -0.408011 0.959721
-2.81694 0.0425258 1.11418
-1.31388 -0.744041 1.55787
-1.28421 -1.37156 1.30114
-3.23112 -0.686462 0.701888
-2.36194 -1.43636 0.779373
-2.36052 0.864509 1.75523
-1.33141 -0.669854 1.57934
-2.07411 -1.22404 0.92783
-2.77456 -0.634248 0.877244
-1.16513 -0.748582 1.67035
-1.80353 -0.563464 1.34584
-2.33793 -0.906407 0.946194
-2.85298 0.206197 1.16422
-2.0808 -2.13125 0.735313
-2.49414 -1.19997 0.803874
-1.48529 -0.00468649 1.78006
-3.05455 0.448815 1.12628
-3.29914 -0.913491 0.67429
-2.51023 -1.27232 0.78276
-2.65157 0.232857 1.29922
-2.60812 -1.35566 0.747186
-1.28855 -0.823509 1.54026
-2.74523 -1.31835 0.731502
-2.62047 -1.56237 0.719029
-2.30586 0.716978 1.71697
-2.01968 0.029529 1.52937
-1.45076 -0.474919 1.59086
-1.68693 -0.443036 1.46836
-1.99962 -2.0837 0.751711
-2.54726 -1.25909 0.777429
-2.20335 -1.60419 0.779133
-2.66834 -1.2259 0.758909
-2.9751 0.632756 1.26968
-1.71726 -0.579902 1.38444
-2.24014 -1.37194 0.826056
-2.65228 0.969673 1.64588
-3.05726 0.239891 1.03865
-1.73219 -2.00844 0.837165
-3.01049 -1.08535 0.717275
-1.98751 -1.9435 0.769467
-1.5144 -0.102516 1.72301
-1.88596 -0.091848 1.53622
-2.69559 -0.549644 0.937829
-3.42234 -0.568956 0.638673
-1.45802 -1.45988 1.13983
-2.24263 -1.74129 0.746521
-1.63473 -1.85124 0.911807
-2.89495 1.24471 1.59863
-2.00678 -0.751215 1.1531
-2.10013 0.399826 1.66889
-2.385 0.0883889 1.37447
-1.61677 -2.11608 0.86733
-2.74573 0.859575 1.53832
-1.40456 -0.570096 1.57596
-2.83827 -0.536498 0.882377
-3.28321 -0.811361 0.678999
-3.08645 0.331081 1.05263
-2.23043 -1.17222 0.890042
-1.93718 0.431551 1.75705
-2.31879 -1.02176 0.911256
-3.34303 -0.884533 0.665246
-2.24378 -1.58265 0.77443
-1.51141 -0.539246 1.52332
-3.04797 0.16166 1.01475
-2.30055 -1.01962 0.918468
-1.69634 -0.866967 1.25738
-2.09575 0.123964 1.53839
-2.42819 -1.7858 0.717098
-1.46562 -1.19271 1.24662
-1.47532 -0.0799657 1.75363
-2.89974 -0.555738 0.851074
-1.84538 -1.88053 0.820802
-2.90195 0.191411 1.1261
-3.16255 0.129214 0.919493
-1.52353 -1.31978 1.15518
-3.05919 -0.359032 0.834471
-2.61143 0.193309 1.30324
-3.00127 -0.098273 0.9484
-1.4668 -0.37923 1.62542
-3.18946 -0.289051 0.783807
-1.51184 -1.48575 1.09597
-2.20217 -1.94034 0.729671
-1.90107 0.445391 1.77873
-2.46438 -0.631676 1.00321
-1.52494 -0.509842 1.52916
-2.78186 0.323614 1.2633
-2.86038 -0.194636 0.992071
-2.90064 1.0489 1.51318
-3.33449 -0.450229 0.682994
-2.92739 0.537457 1.26287
-2.58428 -0.587689 0.97037
-2.89835 0.420409 1.23049
-1.73392 -1.28853 1.05119
-3.06337 0.394364 1.09653
-2.2352 -0.0596592 1.37735
-2.90627 -0.560279 0.847107
-2.08054 -0.614341 1.18201
-1.55562 -0.376351 1.57465
-2.96422 -1.00726 0.734755
-3.1748 -0.0638902 0.850558
-1.99898 -0.465155 1.29384
-3.0494 0.0801719 0.982829
-3.30017 -0.347113 0.712665
-2.2205 -0.351401 1.24075
-2.09813 -0.724645 1.12267
-3.01756 -0.571829 0.799207
-2.0242 -2.06195 0.748607
-2.56254 -0.0708856 1.20394
-2.58644 -0.92187 0.854574
-1.68356 -0.669409 1.35948
-1.63339 -1.87723 0.90603
-2.2977 -0.0214936 1.36477
-1.85126 -1.46997 0.929966
-2.97634 0.978327 1.42237
-2.68005 -1.12975 0.775413
-2.63713 0.84972 1.60145
-1.6017 -0.764789 1.36047
-2.82277 0.19782 1.17957
-1.9844 -0.426844 1.32003
-2.7801 0.816356 1.49579
-3.27449 -0.308913 0.732746
-2.87721 1.41076 1.67448
-2.40478 -1.27084 0.808647
-2.70161 -0.909628 0.822238
-2.18854 0.772654 1.79445
-2.52694 -0.144182 1.18807
-1.88524 -0.264976 1.451
-2.55782 0.23083 1.35164
-1.58749 -0.802795 1.35066
-1.20853 -0.473661 1.75253
-1.95561 -1.65801 0.835291
-1.89082 0.411105 1.76841
-2.72272 -0.473683 0.953802
-2.19182 -0.478441 1.19355
-3.00448 -0.0641215 0.958724
-2.35506 0.108481 1.39999
-2.43351 -0.0596035 1.27652
-1.7166 -2.20896 0.817712
-1.97108 -0.933846 1.08747
-1.81189 -1.20569 1.04657
-2.51596 -0.970459 0.862246
-2.4883 -1.47681 0.74708
-1.88004 -1.65585 0.861942
-1.59187 -0.0108541 1.72294
-1.34036 -1.65477 1.14886
-3.11289 -0.314698 0.81878
-2.73319 -0.322435 1.00691
-2.38916 0.683789 1.661
-1.83144 -1.9677 0.809439
-2.18663 -1.52822 0.800311
-2.30398 0.59974 1.66466
-2.67433 0.0832964 1.2152
-2.63324 1.08956 1.70806
-2.59441 -0.367192 1.05498
-2.48268 0.164161 1.36018
-1.68465 -2.21849 0.828446
-2.15391 -0.0070333 1.44444
-2.44458 -0.189192 1.20857
-2.69558 0.987455 1.62734
-2.2806 -1.59795 0.763583
-2.15482 0.190544 1.54203
-1.36176 -0.28505 1.73076
-1.65932 -0.66487 1.3754
-2.51434 -0.823389 0.911298
-1.28485 -1.08217 1.42592
-3.10973 -0.277908 0.830143
-2.90276 1.08385 1.5265
-2.9625 -0.304555 0.899461
-2.64632 -0.847973 0.857346
-3.09421 -0.267858 0.841309
-1.68957 -0.671775 1.35495
-3.48824 -0.744588 0.62393
-1.50427 -1.47294 1.10551
-2.38087 -1.06259 0.876445
-1.7691 -1.83298 0.858569
-1.32847 -0.642685 1.5938
-2.86334 0.0407518 1.08571
-1.90976 -1.49519 0.898301
-2.9475 -0.840934 0.765889
-1.96582 0.0393791 1.56077
-3.31102 -0.911047 0.671999
-2.98664 0.706917 1.29374
-1.32417 -0.499694 1.66111
-2.39241 0.5853 1.6135
-2.84021 1.04407 1.55576
-2.55505 0.727174 1.59259
-2.19627 0.622425 1.72602
-2.16436 -1.54421 0.802305
-2.76084 -0.555449 0.908484
-1.42945 -1.72119 1.06444
-2.95065 -1.189 0.717197
-1.83226 -0.331916 1.4452
-1.87348 -0.782756 1.20358
-2.2723 -1.293 0.839067
-2.12445 -1.13774 0.940148
-2.05852 -1.98075 0.749498
-2.64895 -0.540739 0.96088
-1.70059 -2.47423 0.821729
-1.22101 -0.648949 1.66911
-1.58687 -1.46044 1.06177
-2.05171 0.386841 1.68537
-2.73153 -1.37135 0.726906
-2.47137 -0.802445 0.934647
-2.84272 0.860899 1.47275
-1.53961 -0.824162 1.3695
-1.53503 -0.335228 1.60585
-1.55655 -0.39498 1.56527
-1.71568 -1.07005 1.15343
-1.28171 -1.27767 1.34265
-1.76179 0.269089 1.76413
-2.89912 -0.746394 0.801131
-2.87758 0.671661 1.36084
-1.58079 0.142848 1.7941
-3.20924 -0.202152 0.792405
-2.75596 0.681023 1.44889
-2.36477 -0.99055 0.906087
-2.98744 -0.802598 0.761384
-1.9519 -2.19448 0.755034
-1.54808 -0.171825 1.67392
-2.3816 0.357802 1.50947
-3.05572 -0.358882 0.836224
-2.52158 0.321758 1.41636
-1.56867 -0.455216 1.52946
-2.75528 0.270936 1.25523
-2.36268 -0.833752 0.964359
-1.67642 -1.78062 0.910881
-2.85535 -1.25077 0.72419
-2.18219 -0.928769 0.998265
-1.127 -0.630934 1.75068
-2.22346 -0.69955 1.07764
-2.4628 0.425147 1.49923
-3.39581 -0.654089 0.648374
-2.57602 -1.62566 0.717374
-2.26964 -1.74445 0.741465
-2.69848 -1.19419 0.758775
-2.61051 -0.607403 0.952041
-1.43935 -0.277068 1.68796
-2.42794 -1.73042 0.721871
-2.98061 0.0663813 1.02305
-3.0053 -0.846691 0.748635
-2.6049 -1.20578 0.776191
-1.91425 -2.11327 0.768017
-2.03711 -1.26114 0.928622
-1.52587 -1.32231 1.1527
-3.0634 0.112547 0.985276
-2.24684 -0.904298 0.982129
-2.44084 -0.366683 1.12788
-2.62561 -0.540519 0.970935
