ply
format ascii 1.0
comment Created by Open3D
element vertex 400
property double x
property double y
property double z
end_header
-1.79316 0.492109 2.59042
-0.353416 2.50741 1.51762
-1.5682 0.880924 2.08869
-1.28645 1.60504 0.721092
-1.44902 0.713684 2.84663
-1.60001 0.672211 2.622
-1.64986 1.08092 1.04588
-1.26283 1.16137 2.19906
-0.36536 2.48885 1.64638
-0.209872 2.94609 0.998537
-2.0547 0.235009 2.55792
-1.21693 1.35752 1.58868
-0.761773 2.06397 0.891397
-0.456446 2.30503 1.5242
-0.664638 2.0138 1.41622
-2.23335 -0.0684652 2.78643
-1.92117 0.403939 2.48195
-0.40527 2.58925 0.800714
-1.96863 0.570903 1.62923
-0.763048 2.1456 0.729866
-1.13609 1.33815 2.03185
-0.927116 1.60103 1.8981
-0.627973 2.07013 1.37585
-1.32096 1.24932 1.60113
-1.89696 0.649761 1.63584
-1.15109 1.26422 2.26195
-1.29429 1.6064 0.705373
-0.679717 1.86136 2.49027
-0.955296 1.77091 1.09423
-0.756221 1.68842 2.6445
-1.77973 0.377475 2.85154
-0.758269 1.93076 1.28144
-1.4872 1.2989 0.926028
-0.50936 2.23555 1.38935
-1.35277 1.38012 1.05951
-1.25537 1.3908 1.31966
-0.391045 2.46743 1.88386
-0.793155 1.63555 2.60292
-1.84358 0.59763 2.10731
-1.55219 1.18656 1.03694
-0.883425 1.862 1.05487
-1.07436 1.18023 2.75368
-0.415298 2.48156 0.998234
-0.765809 1.86026 1.54874
-0.459181 2.29678 1.57644
-1.76801 0.943361 1.07102
-0.923584 1.45459 2.55456
-1.00098 1.66149 1.28407
-0.682566 1.7881 2.84523
-1.05752 1.57077 1.39657
-0.271984 2.84783 0.826705
-1.51634 1.19818 1.10506
-0.736704 2.12823 0.817753
-0.221814 2.86601 1.14258
-0.43089 2.53736 0.81762
-1.06013 1.39709 2.13767
-1.45418 0.799452 2.66815
-1.7309 0.396856 2.90077
-1.53677 1.03517 1.59311
-1.47962 1.1659 1.32037
-0.558328 2.42146 0.694383
-1.17954 1.07889 2.70285
-1.34595 1.37778 1.08398
-1.84841 0.309652 2.84922
-1.04304 1.21701 2.75899
-0.457117 2.45386 0.903551
-0.807637 1.57604 2.71721
-1.40277 1.03514 2.13331
-0.663818 2.07597 1.17123
-0.853027 1.55719 2.54736
-0.861599 1.56517 2.47081
-1.69833 1.01337 1.08917
-1.65824 0.705533 2.37913
-0.237751 2.90065 0.898975
-0.45322 2.32285 1.40507
-1.4339 0.802241 2.70709
-1.93737 0.433465 2.34397
-2.1685 0.14305 2.46606
-0.774596 1.77471 1.9966
-0.993955 1.31979 2.66851
-0.696457 1.85146 2.30823
-0.689299 1.81325 2.67728
-0.594607 2.04346 2.08368
-0.952431 1.50155 2.23433
-0.373715 2.46454 1.4523
-1.72766 0.821588 1.67234
-1.56515 0.842038 2.23965
-0.634453 1.98632 1.91436
-1.70743 0.745931 2.07089
-1.65351 0.585649 2.69514
-0.506545 2.23348 2.18746
-0.706109 1.94293 1.50553
-1.4261 1.34514 0.962732
-0.568382 2.20271 1.16071
-0.674068 1.88961 2.31453
-1.74405 0.689981 2.14243
-0.51681 2.19236 1.66642
-1.91131 0.329128 2.68857
-0.972706 1.22445 2.92022
-0.559925 2.11881 1.71463
-0.682632 1.88916 2.16134
-0.674925 1.91621 2.0039
-1.1221 1.68266 0.889438
-1.65826 0.687579 2.43192
-2.04052 0.340732 2.28729
-0.833689 1.66301 2.19271
-0.446297 2.3236 1.51445
-1.16509 1.14622 2.58123
-1.00958 1.39201 2.39137
-1.05386 1.76525 0.861195
-1.77221 0.779966 1.65188
-0.482896 2.26853 1.44756
-0.521654 2.39252 0.833635
-1.25261 1.50246 1.00305
-0.983781 1.35571 2.60902
-1.52286 0.757065 2.60512
-0.610958 2.10429 1.3229
-0.585784 2.28819 0.869301
-1.44331 1.46704 0.687418
-1.0892 1.10094 2.87004
-1.41122 1.25462 1.25437
-2.22067 0.00933035 2.65667
-0.765899 1.96217 1.14442
-0.646967 1.85255 2.97016
-0.584723 2.07382 2.48476
-1.73916 1.08901 0.801406
-1.12463 1.50697 1.37628
-2.10224 0.058205 2.82535
-0.520134 2.20854 2.24206
-2.23236 -0.0528719 2.75888
-0.560501 2.13415 2.44402
-0.679281 1.83107 2.7009
-1.57276 0.821076 2.28444
-1.63023 1.04366 1.21566
-1.88698 0.536213 2.16971
-1.11544 1.44518 1.65919
-1.63681 0.895006 1.7543
-0.543565 2.18645 1.37891
-1.95203 0.537555 1.87601
-0.518947 2.4436 0.747556
-0.984206 1.94487 0.664674
-2.05936 0.39269 1.99381
-1.79921 0.938681 0.987568
-0.98669 1.33942 2.64262
-0.454117 2.30347 1.72534
-0.773181 2.15728 0.69093
-0.45019 2.41028 1.04221
-1.39602 1.48887 0.731847
-0.499189 2.22873 1.57109
-0.942211 1.36674 2.72477
-2.23511 -0.125783 2.88211
-1.90629 0.559855 1.99481
-1.95622 0.570631 1.6982
-1.18664 1.20653 2.32832
-1.48776 1.21533 1.13906
-0.304302 2.77158 0.823782
-1.35594 1.53832 0.716047
-2.20141 0.0946719 2.49668
-1.46073 1.43302 0.714786
-2.0599 0.342388 2.20352
-1.68169 0.827183 1.84777
-1.07329 1.76711 0.817298
-1.4268 1.46787 0.714235
-0.987359 1.33183 2.65996
-1.02841 1.55165 1.5971
-1.76503 0.426764 2.78944
-1.52876 1.30763 0.816834
-0.641603 1.87699 2.95437
-1.56881 0.859272 2.16637
-1.13313 1.72893 0.774438
-1.94966 0.454231 2.2295
-1.70029 0.515822 2.74248
-1.54463 1.02776 1.59112
-1.79623 0.664333 2.0367
-1.15033 1.19048 2.50603
-1.35637 1.02723 2.32665
-1.03219 1.40787 2.22661
-0.577915 2.07443 2.0359
-1.37972 1.21751 1.49541
-0.770863 1.92619 1.2446
-1.22644 1.23356 2.06744
-0.961074 1.72155 1.22462
-1.16964 1.48477 1.2942
-0.634257 1.99848 1.78792
-0.984796 1.41078 2.43347
-0.566953 2.11756 1.61401
-0.227244 2.87124 1.04292
-0.34383 2.69802 0.807438
-1.85407 0.701124 1.61527
-0.325863 2.73721 0.803228
-1.78434 0.570774 2.40371
-1.99723 0.478982 1.91662
-1.78141 0.964154 0.97423
-0.990401 1.31967 2.68038
-0.739736 1.74016 2.54849
-0.824837 1.63912 2.3803
-1.26008 0.925342 2.82799
-1.1449 1.35507 1.91793
-0.379999 2.54198 0.997429
-1.93268 0.589868 1.7312
-1.9229 0.538442 2.01065
-0.945023 1.53784 2.10833
-0.826253 1.62144 2.45127
-0.904223 1.83419 1.06954
-0.879482 1.55323 2.41806
-1.05664 1.10541 2.93067
-0.733801 1.70599 2.7351
-1.09038 1.6312 1.09354
-1.40517 1.13093 1.73955
-1.37034 0.819565 2.80388
-1.28926 1.50039 0.921616
-0.715486 1.75789 2.67864
-0.471932 2.29426 1.38938
-0.537849 2.41202 0.755959
-1.72005 0.938971 1.24775
-1.59697 0.565529 2.84282
-0.727652 2.01928 1.10633
-0.665089 1.80355 2.94251
-0.434576 2.36583 1.93663
-1.83523 0.631406 2.00719
-0.60406 2.02383 2.20929
-0.756635 1.84325 1.70518
-1.31617 1.60496 0.671536
-1.12358 1.23192 2.47399
-0.767666 1.88016 1.44304
-1.26696 1.31755 1.54592
-1.5512 0.629487 2.81099
-1.37502 0.795662 2.83817
-0.623126 2.10062 1.27067
-1.06925 1.62449 1.17528
-0.93294 1.52388 2.24275
-1.00124 1.42597 2.30152
-1.22229 1.67777 0.706452
-1.74974 0.455768 2.76332
-1.01844 1.41064 2.28072
-1.10871 1.07579 2.87199
-0.706377 1.71764 2.8783
-1.92869 0.484206 2.20081
-1.46262 1.22356 1.19005
-1.25632 1.35127 1.45746
-1.01357 1.46491 2.07257
-0.462233 2.33905 1.23061
-0.630325 1.93592 2.87205
-1.35023 1.00973 2.40158
-0.373357 2.47687 1.70416
-1.15526 1.28226 2.17589
-1.2192 1.33076 1.68954
-0.796592 1.92473 1.15155
-2.07579 0.216753 2.54637
-0.847067 1.62891 2.27682
-2.02553 0.419022 2.04533
-0.769869 1.52699 2.97794
-1.33105 1.32287 1.29336
-0.830379 1.76969 1.61444
-0.721178 1.76665 2.58609
-1.14054 1.66332 0.891035
-0.9622 1.31568 2.77704
-0.889541 2.02383 0.698885
-0.404961 2.56853 0.839754
-1.5939 0.844287 2.12955
-2.01144 0.179848 2.78038
-0.592158 2.04816 2.06975
-2.13518 0.10304 2.66394
-1.09601 1.52273 1.42687
-0.405199 2.46033 1.1167
-0.673362 1.85815 2.61714
-1.21308 1.143 2.4398
-0.579115 2.07675 2.3143
-0.985632 1.41196 2.42565
-1.07173 1.12383 2.86818
-1.65358 1.11381 0.952434
-1.62718 0.903384 1.75994
-0.875159 1.75257 1.45597
-0.623644 1.97234 2.70964
-0.936016 1.93428 0.769157
-0.686725 1.75968 2.89714
-1.96584 0.582123 1.59056
-0.747376 1.59912 2.93402
-0.328306 2.58608 1.19009
-1.56493 1.09336 1.27336
-0.884541 1.65136 1.89911
-1.74464 0.519788 2.63962
-0.802631 1.60874 2.64197
-1.26547 1.13755 2.27453
-0.402155 2.4091 1.44811
-2.07415 0.260186 2.42994
-1.86334 0.603139 2.00298
-1.63905 0.91212 1.67346
-0.753791 1.73852 2.43042
-0.290658 2.65655 1.42744
-0.676469 1.84024 2.68605
-0.270523 2.7094 1.38057
-1.28708 0.931014 2.76114
-1.21286 1.31604 1.7796
-0.370965 2.47568 1.64691
-1.83563 0.382206 2.7381
-0.490888 2.25432 1.45812
-0.585046 2.07256 2.4792
-1.54585 1.14786 1.16328
-2.15137 0.139947 2.52922
-0.528216 2.18 1.59074
-1.65561 0.819985 1.98512
-0.606733 2.2073 0.995646
-2.09854 0.302947 2.1893
-0.488019 2.3099 1.18713
-0.905625 1.65714 1.73901
-2.20218 0.00214392 2.7186
-1.57939 0.945895 1.78333
-0.727107 2.00395 1.15573
-1.8058 0.574631 2.32489
-0.523199 2.35391 0.910787
-1.23991 0.942263 2.8379
-1.11058 1.31028 2.25797
-1.73262 0.95121 1.16398
-1.4476 0.878671 2.49023
-1.34659 1.0824 2.17017
-0.864716 1.37315 2.9449
-0.98769 1.85373 0.819792
-0.942527 1.94794 0.732283
-0.708992 1.64961 3.00615
-2.02028 0.102887 2.89845
-2.02743 0.241255 2.61423
-0.501493 2.28064 1.22418
-1.80312 0.826235 1.32817
-1.45107 1.21161 1.264
-1.27472 1.16682 2.13174
-0.351837 2.5453 1.16094
-0.292865 2.66016 1.51433
-0.466413 2.51803 0.753257
-1.29465 1.20429 1.89789
-1.29063 1.08708 2.35472
-0.646263 1.91202 2.69472
-0.957722 1.86273 0.865169
-0.682103 1.83742 2.62899
-1.29642 1.54645 0.81032
-0.609098 2.01273 2.3885
-0.973974 1.56918 1.78959
-0.544238 2.14462 1.70623
-0.602304 2.05395 1.71087
-0.221674 2.96274 0.883967
-1.21347 1.51674 1.06693
-1.54073 1.21751 0.988508
-1.80209 0.51252 2.51637
-1.47995 0.747583 2.72244
-1.54523 0.794615 2.4494
-1.26485 1.42565 1.17847
-0.925799 1.78377 1.1478
-0.930032 1.54155 2.17801
-0.732497 1.86067 1.79361
-1.18105 1.21099 2.33395
-0.986638 1.50047 2.0519
-0.287157 2.71993 1.01794
-1.10327 1.28943 2.36336
-2.01567 0.404048 2.15216
-1.22624 1.06265 2.6188
-1.89083 0.534478 2.16122
-1.45974 1.40382 0.768573
-1.74806 0.410335 2.84961
-0.591567 2.22499 1.00074
-1.68351 0.897841 1.54508
-1.57533 1.0779 1.28937
-1.45109 1.28337 1.05384
-1.30397 1.13733 2.12855
-0.838299 2.03351 0.779874
-1.36372 1.50368 0.763645
-1.42399 1.07066 1.91001
-0.882189 1.98824 0.775391
-1.7872 0.409297 2.78042
-0.86287 1.95822 0.876918
-0.79622 1.75902 1.91289
-1.93859 0.624504 1.53755
-1.90932 0.320024 2.71211
-0.763542 1.7705 2.1306
-1.27865 0.887638 2.85845
-2.22819 -0.0989018 2.85126
-0.314556 2.60704 1.56332
-0.798391 1.76552 1.85533
-1.06754 1.19958 2.73026
-1.02265 1.64909 1.24963
-1.68416 0.600253 2.59304
-0.556749 2.15092 1.47612
-1.82803 0.483235 2.52441
-1.95372 0.494401 2.05712
-0.382037 2.4491 1.63073
-1.24012 1.19069 2.17872
-0.62461 2.23584 0.874627
-0.515989 2.20181 1.56705
-1.9953 0.319898 2.50051
-0.565134 2.24235 1.04923
-1.65343 0.767855 2.19051
-1.45905 0.755058 2.75062
-0.361381 2.55056 1.07253
-1.05017 1.69233 1.03994
-0.466523 2.28897 1.91272
-2.14576 0.217505 2.30931
-1.12067 1.56948 1.18275
-1.50658 0.880044 2.30854
-0.711921 1.84226 2.16768
-0.436541 2.4582 0.969488
-1.12548 1.68183 0.883879
