ply
format ascii 1.0
comment Created by Open3D
element vertex 400
property double x
property double y
property double z
end_header
-0.75777 1.79676 -2.46325
-0.96722 2.62672 -1.95296
-0.40054 1.91627 -2.05127
0.87303 2.65062 -0.35185
-0.7525 1.79275 -2.46333
0.98144 1.03913 -1.67567
0.02594 1.39913 -2.14489
0.10202 2.22268 -1.29147
0.01163 2.25968 -1.3527
0.46734 2.58208 -0.70198
-0.56052 2.88217 -1.56509
0.13463 2.76374 -0.93632
-0.41324 2.90837 -1.42866
-0.03932 1.0927 -2.4994
-0.72622 1.53796 -2.69688
0.10018 1.31083 -2.15704
0.65827 1.42839 -1.53018
-0.00602 1.54018 -2.03663
-0.36899 2.91139 -1.38705
-0.84765 2.91801 -1.77462
-0.74232 2.34202 -1.97899
0.54803 1.50445 -1.54529
-0.00566 2.69283 -1.10467
-0.94115 1.21527 -3.15632
-0.79971 1.46934 -2.81843
-0.48002 2.30103 -1.79476
-0.30676 2.91674 -1.32715
-0.71357 1.53888 -2.68645
0.64377 2.03881 -0.94867
0.05745 1.76405 -1.75053
0.75325 2.81726 -0.36812
0.11585 2.78642 -0.94682
0.09228 1.28544 -2.18935
0.94811 2.35777 -0.47947
0.00859 1.6065 -1.95571
0.04418 2.6685 -1.06567
-0.9875 2.28892 -2.17668
0.45438 2.65766 -0.67592
-0.00796 2.5305 -1.18894
0.01282 1.87309 -1.68947
0.77533 2.52428 -0.48461
-0.48682 1.45213 -2.5862
0.95987 1.77658 -0.97655
-0.54984 1.86626 -2.23136
0.86353 1.81758 -0.99557
0.66193 1.02815 -1.90176
-0.40348 2.26827 -1.75034
-0.83072 1.93557 -2.38168
0.78616 2.82892 -0.34084
-0.64113 2.5154 -1.78784
0.19154 1.1874 -2.1837
-0.9189 2.16924 -2.23158
-0.43744 1.07028 -2.9035
-0.51725 1.47625 -2.5889
-0.56786 2.93364 -1.55937
0.27562 2.52736 -0.91064
0.55005 2.64819 -0.59654
0.04517 2.35681 -1.2473
-0.59225 1.95365 -2.18466
-0.58991 1.37949 -2.74642
0.77422 2.82543 -0.35041
-0.16625 2.65974 -1.27934
-0.15496 2.92836 -1.17699
0.29139 1.05819 -2.20317
-0.04657 1.2821 -2.33125
0.99929 1.25327 -1.47113
0.01835 1.07834 -2.45444
-0.00203 1.69359 -1.87954
-0.51472 2.90273 -1.52068
-0.16435 2.6705 -1.27254
0.74228 2.93159 -0.346
0.15896 1.5059 -1.90656
-0.03894 2.79874 -1.09713
0.60643 2.39425 -0.69656
-0.48384 1.55039 -2.48558
0.12665 1.6277 -1.81682
0.07222 2.46939 -1.14539
-0.71258 2.25566 -2.02122
0.81613 2.56406 -0.43369
0.53782 1.01337 -2.01673
-0.88711 1.17802 -3.158
-0.35955 1.02604 -2.87006
-0.05619 1.79774 -1.83115
-0.63645 1.02384 -3.11443
0.87123 1.76423 -1.04264
-0.09718 1.31893 -2.34624
0.75194 2.4487 -0.54754
0.80839 2.2015 -0.68711
0.23587 2.60026 -0.90929
0.1292 1.85462 -1.59113
-0.57412 1.57167 -2.54222
0.50478 2.24053 -0.89561
-0.99074 1.34246 -3.06279
0.35727 1.49146 -1.72954
0.08925 2.60166 -1.05312
0.03832 2.30367 -1.29268
-0.1111 1.41469 -2.26635
0.22551 1.79464 -1.55442
-0.90901 1.17228 -3.17695
-0.17452 2.9281 -1.19634
0.97311 2.24796 -0.54678
0.90524 1.58379 -1.20043
-0.86843 2.1866 -2.1857
0.8047 1.62699 -1.22321
-0.21204 2.74698 -1.28731
0.64063 2.22795 -0.79144
0.56984 2.03217 -1.01532
-0.68228 1.35459 -2.84509
0.15043 2.76515 -0.92016
0.95133 2.99051 -0.1972
-0.66059 2.08668 -2.12028
-0.63796 2.85373 -1.6367
0.31215 1.92197 -1.34889
-0.87507 1.57803 -2.76035
-0.23711 1.31057 -2.49219
-0.20299 1.43687 -2.33513
-0.19713 2.30176 -1.52827
-0.46637 2.02231 -2.01332
0.2201 2.28302 -1.12815
0.20059 2.44642 -1.03281
-0.2386 1.22297 -2.57719
-0.25109 2.97274 -1.26268
-0.61154 1.29963 -2.84199
-0.91782 1.92937 -2.44334
-0.10258 2.51272 -1.29371
-0.37782 2.82764 -1.41778
0.41106 2.02132 -1.16498
-0.79265 1.98256 -2.31199
0.5301 1.97562 -1.10053
-0.17657 2.11234 -1.66019
-0.48177 2.81023 -1.51775
0.63648 1.27074 -1.70121
-0.54319 2.45684 -1.74229
0.39492 2.29643 -0.95166
0.12851 2.05326 -1.40788
-0.88813 2.04871 -2.31597
0.93189 1.78907 -0.98071
0.10599 2.31732 -1.21512
0.88776 1.66025 -1.13501
0.07616 1.2108 -2.27618
0.57892 2.653 -0.56989
-0.73402 1.20036 -3.03189
-0.58178 2.91509 -1.57506
-0.78872 2.90738 -1.73675
-0.81369 1.37645 -2.91996
0.87774 1.98526 -0.828
0.00419 2.51043 -1.18847
0.77167 2.89268 -0.33348
0.32123 2.57302 -0.8416
-0.65841 1.64331 -2.53941
0.73493 2.05327 -0.8655
-0.46233 2.45074 -1.67533
-0.26676 1.86826 -1.97051
-0.54224 2.64532 -1.6367
-0.28637 1.03359 -2.79422
0.19347 2.06938 -1.32955
0.14872 2.76858 -0.9206
0.38069 2.26597 -0.98792
0.98346 1.23593 -1.49622
0.6062 2.24861 -0.80316
0.604 1.8378 -1.16822
0.28738 2.19816 -1.12955
-0.83153 2.8802 -1.77293
0.20732 2.90759 -0.82142
-0.76658 1.65672 -2.60785
0.93879 2.49721 -0.39368
-0.22658 2.7651 -1.29468
0.51224 1.5165 -1.56414
0.9863 1.75475 -0.98309
-0.48489 2.34424 -1.7675
-0.66202 2.68856 -1.71559
0.22341 2.93212 -0.8003
0.68569 1.42044 -1.51658
0.51644 2.62254 -0.63792
0.86564 1.91305 -0.90288
0.31101 2.6098 -0.83208
0.87646 1.64242 -1.15996
-0.44631 2.44503 -1.66458
0.22985 2.4703 -0.98916
0.09688 1.20925 -2.25699
-0.57615 1.7446 -2.37187
-0.76501 2.4994 -1.89176
-0.51227 2.11482 -1.97257
0.4264 2.6948 -0.68456
-0.97507 1.77786 -2.62215
-0.4949 1.87478 -2.17561
-0.48958 1.64554 -2.39558
0.40905 1.75116 -1.42287
0.46997 2.50576 -0.74256
-0.46833 1.19434 -2.81902
-0.13259 2.99217 -1.14335
-0.19814 1.97081 -1.80742
-0.37902 1.39977 -2.54021
-0.05057 1.02236 -2.5719
0.9955 2.19339 -0.57782
0.15345 1.68955 -1.72868
-0.39282 1.46386 -2.48952
-0.53008 1.81704 -2.26184
0.31107 2.19109 -1.11265
-0.86304 1.93645 -2.40226
-0.28029 1.71332 -2.1346
-0.46019 1.35035 -2.66278
0.9561 2.37144 -0.46525
0.84641 2.19279 -0.66844
-0.87878 1.59184 -2.74891
0.95484 2.0104 -0.75819
0.12166 2.13704 -1.34217
0.51921 1.47479 -1.59967
-0.90756 1.88691 -2.47713
-0.89261 2.00535 -2.3577
0.49919 2.41409 -0.77444
0.56462 2.94209 -0.48474
0.5353 1.52809 -1.5326
0.14443 1.7583 -1.66966
0.31354 2.0884 -1.19677
-0.47237 2.25134 -1.82579
0.73515 1.88153 -1.02355
0.00783 2.73862 -1.07227
-0.64762 1.66176 -2.51246
-0.70566 2.19511 -2.06399
-0.48041 1.10621 -2.9102
0.63366 1.70962 -1.26953
0.52426 1.82456 -1.24838
0.98751 2.98282 -0.17792
0.27353 1.49678 -1.80382
-0.80674 2.18954 -2.14202
0.66299 1.53214 -1.42317
0.53269 1.50426 -1.55864
0.62106 1.89066 -1.10367
-0.86347 1.13875 -3.17884
0.79345 1.19264 -1.65643
-0.93423 2.4915 -2.00811
-0.72044 2.41129 -1.91474
0.70813 1.52252 -1.39784
0.28397 1.59836 -1.69226
-0.01756 1.49334 -2.09493
-0.46792 1.84822 -2.17716
0.41619 1.23442 -1.92579
-0.53607 2.29233 -1.85022
-0.87191 1.81396 -2.52478
0.66818 2.00576 -0.95907
-0.17599 2.25853 -1.5403
0.88789 2.68059 -0.32865
0.47509 1.97286 -1.15126
0.52234 1.83414 -1.24078
0.22807 1.41939 -1.92474
0.18654 1.80836 -1.5792
0.4248 2.95509 -0.6052
-0.91492 1.52793 -2.83537
-0.07449 2.46556 -1.29436
-0.16693 1.93083 -1.81386
-0.61483 2.93357 -1.59838
0.91007 2.34686 -0.50998
0.64286 2.00422 -0.98053
0.02938 2.4757 -1.18426
0.46434 2.52805 -0.73455
-0.35038 1.15402 -2.74806
-0.46149 2.6082 -1.58419
-0.50154 1.91931 -2.13927
0.31509 2.52598 -0.87368
0.25369 1.3221 -1.99516
0.44441 1.49807 -1.64273
-0.50638 2.48862 -1.69073
0.96531 1.25279 -1.49044
-0.80528 2.25455 -2.08932
-0.03699 2.86716 -1.0744
-0.72277 2.75977 -1.73348
0.65729 1.11119 -1.83262
-0.60707 2.37623 -1.84933
-0.96017 1.38607 -3.00296
-0.093 2.91199 -1.11911
0.04823 2.10336 -1.44405
-0.99989 1.82638 -2.58861
-0.88921 1.15166 -3.18355
-0.8725 2.65889 -1.8802
-0.14969 2.31501 -1.47174
0.18192 1.14648 -2.23078
-0.42272 1.72117 -2.26043
-0.00599 2.51687 -1.19487
0.44496 1.25284 -1.8822
-0.4976 2.70412 -1.5715
0.25564 1.52353 -1.79439
-0.81699 1.77093 -2.53029
0.62969 1.3932 -1.58777
-0.33055 1.11197 -2.76746
-0.45209 1.75047 -2.25814
0.72719 2.19722 -0.74898
-0.55134 2.12758 -1.99537
-0.33174 1.19055 -2.69684
0.36706 1.97155 -1.25102
0.22276 1.80114 -1.55077
0.20423 1.26787 -2.0955
0.01945 2.20827 -1.38539
0.21972 2.60176 -0.92425
0.11477 1.02525 -2.40437
0.83969 2.07019 -0.77666
0.37587 2.50141 -0.83093
0.27648 2.54059 -0.90226
-0.39664 2.61576 -1.52141
-0.21997 2.39002 -1.48759
-0.14891 1.53497 -2.18418
-0.01076 2.1124 -1.49525
-0.82965 2.9025 -1.76614
-0.58 2.74519 -1.62556
-0.91103 2.02673 -2.34983
0.96337 2.386 -0.45102
-0.77785 1.58531 -2.68724
0.30101 1.78591 -1.49006
0.80027 1.69433 -1.15924
0.2336 2.1453 -1.2251
-0.69557 1.8811 -2.33548
0.80498 1.80305 -1.04901
-0.65799 1.92061 -2.2688
0.97084 1.71631 -1.02965
-0.75018 2.49266 -1.88504
-0.17095 2.01403 -1.74126
0.89378 2.23722 -0.60237
-0.69167 2.80897 -1.69264
0.83004 2.20049 -0.67315
0.72967 1.19775 -1.69783
-0.35789 2.23563 -1.73337
0.84305 1.93905 -0.89333
-0.60747 2.79857 -1.62905
-0.98832 1.79721 -2.61062
-0.62972 2.41106 -1.8441
-0.59859 2.99216 -1.57462
-0.55636 1.90445 -2.20061
0.89818 1.86227 -0.93044
0.39612 1.13875 -2.03289
0.34472 2.35074 -0.95883
-0.1565 1.22397 -2.49577
-0.55708 1.27053 -2.82448
-0.64101 1.66989 -2.49907
0.11398 2.454 -1.11349
0.14944 2.8116 -0.90507
-0.61021 2.25502 -1.94097
0.94885 1.66121 -1.09696
-0.04601 2.85456 -1.08691
0.19833 1.95276 -1.43022
0.45063 1.22807 -1.90052
0.71723 1.76929 -1.14551
-0.16097 2.12001 -1.63826
0.81233 2.26605 -0.63353
-0.25841 1.81858 -2.01029
-0.08265 2.57132 -1.24081
-0.29442 1.7656 -2.09661
0.95783 2.01413 -0.7531
0.14072 1.95377 -1.48607
-0.29542 2.13735 -1.75442
0.39152 1.89322 -1.30154
0.3019 1.05754 -2.19368
0.64596 2.21712 -0.79578
0.06165 2.33711 -1.2449
-0.4697 2.01954 -2.01878
0.88687 2.45879 -0.4491
0.81432 1.04321 -1.77619
0.92401 2.50029 -0.40066
0.8981 2.22261 -0.61122
-0.92008 1.84305 -2.52675
0.95928 2.87202 -0.21734
-0.51584 1.16307 -2.88979
-0.39626 2.20477 -1.79362
0.97976 1.16605 -1.56342
0.19621 1.73518 -1.6414
0.66516 1.38997 -1.56266
-0.34621 2.48552 -1.54694
0.88885 1.44705 -1.34709
0.74379 1.23083 -1.65637
0.16365 1.19128 -2.20755
0.7333 1.38898 -1.51149
0.51403 1.24212 -1.8311
-0.60296 1.80326 -2.33671
0.98377 1.00107 -1.70681
0.57941 2.29679 -0.78859
-0.70816 2.09491 -2.14999
-0.90789 1.30457 -3.0513
-0.77483 2.88076 -1.73342
0.44002 1.28167 -1.85916
0.71409 1.11274 -1.78727
-0.38591 1.90592 -2.04752
-0.84014 1.17396 -3.13124
-0.48704 2.81253 -1.52166
0.86439 1.03748 -1.74769
-0.77368 2.36542 -1.98517
0.59468 2.2423 -0.8176
-0.8429 1.54062 -2.77675
0.24127 2.34179 -1.06421
0.21571 1.3718 -1.98365
0.89953 2.02248 -0.78049
-0.64922 2.0112 -2.17826
-0.83899 1.62295 -2.69184
0.38952 1.19931 -1.98326
0.80211 1.67631 -1.17586
-0.05167 1.14003 -2.46922
-0.82312 1.63141 -2.6727
-0.45 2.1911 -1.85368
0.65685 1.02244 -1.91066
-0.15629 1.00868 -2.68863
-0.15526 1.39184 -2.33263
0.21279 2.92064 -0.81313
