ply
format ascii 1.0
comment Created by Open3D
element vertex 250
property double x
property double y
property double z
end_header
0.0267434 -3.01787 0.779784
0.225126 -1.11927 2.19496
1.12038 -2.21217 0.285244
-0.29313 -2.96944 1.18523
0.730121 -3.03797 0.137468
0.599167 -2.40537 0.72508
0.335193 -1.83939 1.63756
-0.654442 -1.89403 2.53918
0.305391 -0.893592 2.22637
-0.893283 -0.911084 2.65003
1.34381 -2.11199 0.131012
-0.388827 -2.19991 2.14587
0.927887 -2.92567 0.035664
-1.88142 -1.19784 2.85961
0.324294 -2.64521 0.827891
-0.983974 -2.68374 2.29887
-1.36042 -2.34842 2.7889
0.322904 -2.71054 0.76506
0.417341 -1.63929 1.72378
-1.2035 -2.31258 2.72795
-0.294211 -1.52082 2.40132
-0.55008 -1.92849 2.44909
0.926676 -2.22368 0.49731
0.564322 -0.967639 2.08
-0.868036 -0.647262 2.57293
0.346464 -1.94905 1.52007
0.933188 -2.56873 0.216756
-0.321596 -2.57533 1.71561
0.271728 -2.00861 1.55449
-0.461016 -0.36544 2.40924
-1.19951 -2.11831 2.79744
-1.57153 -1.82739 2.95037
0.450206 -0.896479 2.16487
1.17396 -2.59646 -0.0193929
-0.321741 -0.694433 2.44827
1.55861 -1.73471 0.28246
0.134319 -3.3885 0.353528
-1.85477 -1.17424 2.85433
-0.15974 -1.77922 2.19314
0.296392 -2.97281 0.553335
0.0527552 -2.95134 0.823987
-1.00713 -1.36019 2.76422
0.679407 -1.82934 1.22803
1.606 -2.52414 -0.314218
0.642259 -3.19095 0.13387
-0.342021 -0.663349 2.44908
1.87443 -2.36248 -0.427286
-0.644063 -0.410821 2.4561
0.517225 -2.14739 1.09521
-0.211283 -2.04589 2.07556
-0.850687 -1.39769 2.70928
1.44495 -2.17387 -0.0148534
-0.640349 -1.52734 2.60813
-0.86839 -1.06635 2.67591
0.22174 -1.38048 2.08247
-0.903658 -0.952701 2.66246
0.56176 -0.879553 2.12585
0.112906 -2.06818 1.69237
-0.0296823 -2.72011 1.18231
0.859475 -2.81922 0.138749
-1.49688 -1.24911 2.8581
-1.30826 -0.835541 2.71383
-0.0859195 -0.225437 2.31975
-1.12567 -0.681083 2.63365
0.75158 -2.88446 0.196582
1.95159 -1.98459 -0.290872
-0.313846 -2.10363 2.13953
-0.935113 -2.08531 2.6612
-0.623616 -2.79143 1.80878
1.86937 -2.00422 -0.247911
-0.497256 -1.9528 2.39614
1.50211 -1.73197 0.345733
-0.435676 -2.95391 1.36851
-1.57821 -1.86999 2.95167
1.63107 -1.96753 -0.0264537
0.0379828 -2.79143 1.01773
-0.360604 -1.05901 2.49169
-1.29916 -0.779046 2.69402
0.262517 -2.41164 1.14996
-1.07178 -1.18513 2.75708
-1.11249 -1.64065 2.81919
1.07732 -2.4438 0.156286
-1.59737 -2.00076 2.94901
-0.242788 -1.32913 2.41234
-0.699746 -2.89963 1.74323
-1.05881 -2.27948 2.65829
-0.126662 -3.09761 0.843895
-1.60432 -1.3227 2.88716
-1.70278 -1.4803 2.92713
1.62876 -2.14996 -0.159265
-0.177824 -2.78653 1.28536
-0.102081 -2.64773 1.3579
0.493871 -1.58512 1.69062
-0.420582 -2.9157 1.40527
1.28353 -2.15116 0.161122
-0.214103 -0.814617 2.42764
-1.53807 -2.07114 2.92834
0.0489406 -0.979574 2.31901
1.61436 -1.97778 -0.0199547
1.56461 -1.91101 0.0870379
-0.737075 -0.854426 2.59506
0.655172 -1.87512 1.20865
1.48734 -1.78935 0.293891
0.79392 -1.24416 1.72267
-0.239973 -0.0843044 2.30051
1.4418 -2.37185 -0.132247
-0.0949799 -0.441376 2.35871
1.06219 -2.19063 0.369148
-0.228083 -0.94156 2.4369
0.650036 -1.74056 1.36053
-1.29055 -2.30025 2.77781
-0.0214265 -0.640762 2.3612
0.353284 -3.37538 0.230795
1.09288 -1.50178 1.12161
1.57747 -2.32167 -0.214685
1.23335 -2.68722 -0.105599
0.669512 -3.0791 0.163924
0.618896 -0.960354 2.05746
0.93039 -2.45402 0.299988
-0.820545 -0.472706 2.50885
1.40815 -2.52955 -0.177421
-1.28215 -2.56289 2.62228
0.349166 -1.2145 2.07665
0.132133 -1.76049 1.92528
0.473684 -2.6476 0.649214
-0.481388 -2.94299 1.43616
1.01043 -2.76855 0.0368823
-0.877248 -2.646 2.24272
0.350163 -2.61165 0.830044
-1.08427 -2.46133 2.56921
0.690545 -2.20621 0.807602
0.638701 -1.76974 1.34315
1.03514 -2.12302 0.463194
1.04347 -1.84714 0.746747
-0.478873 -2.58081 1.89576
-0.349092 -2.83916 1.42524
-0.0943461 -2.21429 1.80669
0.0890019 -1.36616 2.18761
-1.05856 -2.63238 2.41159
0.273014 -2.85044 0.687305
0.136792 -0.437633 2.31891
0.969213 -2.81748 0.0485342
-0.665999 -2.5292 2.15265
-0.10835 -2.55965 1.46734
-0.968502 -2.62045 2.34934
-0.216442 -0.01652 2.27939
1.25725 -2.10377 0.228943
0.331357 -1.92649 1.56042
1.21721 -2.91505 -0.162236
-0.783609 -2.53629 2.26188
0.0569877 -2.35148 1.48211
-0.996868 -1.93825 2.7388
0.0645249 -2.7429 1.04022
-0.225153 -0.341262 2.36288
-0.836488 -2.28567 2.49654
-0.80541 -0.840462 2.61027
-0.137906 -2.1789 1.88934
0.661896 -1.6248 1.46871
-0.0713371 -1.20627 2.33854
1.4649 -2.33528 -0.132116
-0.177616 -2.23004 1.89014
-0.0578244 -3.08816 0.787221
0.596825 -1.83722 1.32301
-1.6057 -1.55035 2.93109
-0.727445 -2.23633 2.43736
-0.522433 -2.05626 2.36507
-1.56723 -1.85467 2.94982
1.04396 -1.54315 1.12323
1.36803 -1.72188 0.507556
0.724528 -2.56402 0.437839
-0.0873065 -3.02484 0.890121
-1.37168 -1.55505 2.89155
-0.223951 -2.78272 1.34651
1.49431 -2.68366 -0.285718
0.647291 -1.41498 1.69107
0.92146 -1.33089 1.51722
-0.691347 -0.410972 2.46494
-0.744578 -2.43621 2.31185
-0.0532149 -2.75926 1.16553
-0.108965 -1.85471 2.10175
-0.0967887 -2.96822 0.967586
0.264022 -2.64036 0.90621
0.657139 -2.01409 1.05472
0.350229 -2.22508 1.23276
-1.23806 -1.7854 2.86303
0.255162 -3.59432 0.170741
-1.61477 -2.06747 2.94491
1.46116 -1.8658 0.237913
-0.392754 -1.25958 2.50145
0.22312 -3.03619 0.568691
-0.00879294 -3.26686 0.555619
-0.282266 -0.999374 2.45885
-0.106234 -3.13989 0.774568
-1.06643 -1.60989 2.80144
-0.299406 -1.65314 2.36358
1.50596 -1.65746 0.436108
0.614497 -2.86656 0.329792
-1.39977 -2.42593 2.7683
0.482298 -1.13709 2.03156
0.847034 -2.6451 0.251741
-2.36426 -2.33979 2.77799
-2.53568 -1.7504 2.76197
-2.27065 -2.13321 2.87981
-1.75606 -1.86631 2.97204
-2.38478 -2.41413 2.73202
-1.87415 -1.7607 2.96776
-2.49076 -2.03576 2.77902
-2.15775 -1.91324 2.93409
-3.47144 -1.65263 1.58946
-2.52934 -2.47345 2.58891
-1.75916 -1.93158 2.97218
-2.1156 -2.34088 2.87813
-3.26528 -1.91667 1.87943
-1.87036 -2.31034 2.91818
-2.21957 -2.02992 2.91118
-2.79719 -1.90296 2.53988
-1.80398 -2.38086 2.89104
-3.34903 -1.77454 1.77894
-2.85858 -1.61824 2.49265
-3.15872 -1.96532 2.04208
-1.79106 -2.21107 2.942
-3.29514 -1.71209 1.88893
-2.44459 -2.35953 2.7193
-2.05635 -1.67955 2.9407
-2.69224 -1.64483 2.64471
-2.93354 -2.03568 2.3511
-2.44044 -1.72223 2.8156
-2.4137 -2.38366 2.72869
-3.27386 -2.04046 1.80799
-2.73126 -2.1277 2.55977
-2.39721 -2.55791 2.63269
-2.27907 -2.04261 2.88828
-2.05028 -1.49626 2.91259
-2.55158 -1.85591 2.7523
-2.6061 -1.67034 2.7109
-2.92718 -2.28822 2.24192
-2.69897 -2.52252 2.37042
-2.80521 -2.26572 2.42024
-2.93957 -2.04164 2.34123
-2.696 -1.66441 2.64256
-2.69446 -1.88788 2.63961
-2.98708 -1.66057 2.34779
-3.0201 -2.57451 1.78987
-3.32758 -2.11509 1.66246
-3.24277 -1.98829 1.88941
-2.99321 -1.80656 2.32527
-3.16351 -2.20894 1.90577
-1.98036 -2.47405 2.84599
-2.95662 -1.94514 2.34599
-3.03004 -1.68314 2.29198
