ply
format ascii 1.0
comment Created by Open3D
element vertex 400
property double x
property double y
property double z
end_header
-0.68907 1.45265 -2.7537
0.35729 2.84726 -0.69327
-0.25236 1.5666 -2.25388
0.93586 1.54214 -1.22355
-0.93152 1.82028 -2.55562
-0.71792 1.65045 -2.57825
0.62584 1.20395 -1.77289
-0.34287 1.90588 -2.00734
0.26294 2.89405 -0.77056
0.87191 2.98318 -0.24696
-0.66387 1.17865 -2.99834
0.16386 1.77484 -1.63425
0.78256 2.09585 -0.79365
0.30296 2.66272 -0.81414
0.3378 2.32966 -0.9805
-0.88786 1.00771 -3.30953
-0.59245 1.30441 -2.82164
0.93107 2.55107 -0.36709
0.11773 1.01361 -2.41134
0.93823 2.08457 -0.70202
-0.19961 1.99173 -1.78967
-0.07809 2.17984 -1.50593
0.37618 2.36293 -0.92077
0.15297 1.67348 -1.74512
0.11665 1.09472 -2.34192
-0.39179 2.04148 -1.92835
0.95157 1.53429 -1.22218
-0.49035 2.73436 -1.55272
0.58936 1.91878 -1.10317
-0.64762 2.65266 -1.72046
-0.93774 1.48733 -2.88959
0.4384 2.17768 -1.00519
0.73825 1.3539 -1.5422
0.39004 2.52824 -0.80205
0.61726 1.50965 -1.4823
0.38995 1.66311 -1.52768
0.09715 2.99075 -0.91436
-0.62619 2.58134 -1.73894
-0.26949 1.29378 -2.53973
0.63615 1.30395 -1.66958
0.62681 1.98738 -1.0088
-0.81985 2.22689 -2.12102
0.74257 2.55644 -0.49018
0.21791 2.25005 -1.1556
0.26327 2.6814 -0.8438
0.59836 1.0818 -1.90645
-0.61726 2.3836 -1.85259
0.42326 1.91362 -1.25311
-0.77655 2.84889 -1.74336
0.32662 1.88415 -1.3709
0.97534 2.8043 -0.22845
0.57587 1.35318 -1.67134
0.85423 2.11755 -0.72602
0.73599 2.9851 -0.3409
0.90598 2.51148 -0.40501
-0.28295 2.10607 -1.76911
-0.75985 1.80349 -2.45822
-0.98728 1.53564 -2.86968
0.15947 1.45507 -1.95667
0.38912 1.43866 -1.75238
0.99889 2.33227 -0.46914
-0.78199 2.09957 -2.20022
0.59538 1.52089 -1.48906
-0.93567 1.41822 -2.95698
-0.82088 2.26553 -2.09156
0.81658 2.47933 -0.48259
-0.72952 2.58556 -1.81716
-0.28953 1.74477 -2.1124
0.54171 2.26035 -0.8482
-0.59615 2.4779 -1.77374
-0.53374 2.44518 -1.74161
0.58569 1.16084 -1.8458
-0.50041 1.54893 -2.50164
0.93353 2.89053 -0.22763
0.3945 2.61884 -0.74921
-0.79613 1.82831 -2.45997
-0.47202 1.25825 -2.76216
-0.58799 1.03756 -3.06301
-0.13716 2.39967 -1.39956
-0.73005 2.3152 -1.98937
-0.35821 2.63244 -1.47744
-0.64185 2.7854 -1.66145
-0.15435 2.69896 -1.25011
-0.35292 2.25934 -1.71022
0.3922 2.77504 -0.68421
0.0921 1.28443 -2.1905
-0.38008 1.60934 -2.33245
-0.04327 2.5597 -1.20783
-0.23766 1.42209 -2.38359
-0.78617 1.6053 -2.67316
-0.17676 2.92594 -1.19901
0.25995 2.30775 -1.07093
0.70487 1.42067 -1.50163
0.5648 2.37725 -0.74292
-0.35478 2.67143 -1.45589
-0.29791 1.40474 -2.45881
0.17625 2.62882 -0.95327
-0.78089 1.34531 -2.92749
-0.96633 2.36279 -2.11105
0.12694 2.58384 -1.02495
-0.2424 2.5932 -1.38667
-0.1214 2.5387 -1.29741
0.77345 1.71663 -1.15607
-0.54671 1.56 -2.53068
-0.42673 1.13565 -2.83544
-0.30213 2.39373 -1.56441
0.31407 2.67518 -0.79788
-0.66955 2.09835 -2.11722
-0.49016 2.23599 -1.85356
0.8006 1.783 -1.07161
0.10803 1.23215 -2.22439
0.35213 2.58937 -0.80374
0.86762 2.38257 -0.5117
0.66827 1.60051 -1.35066
-0.67511 2.31761 -1.94568
-0.70214 1.72574 -2.49153
0.42219 2.3681 -0.87477
0.8223 2.30196 -0.59955
0.9691 1.38454 -1.36081
-0.93436 2.21522 -2.20348
0.44595 1.4914 -1.648
-0.76355 1.01109 -3.22243
0.55481 2.13486 -0.93859
-0.85046 2.97158 -1.766
-0.42772 2.92687 -1.43777
0.84741 1.07554 -1.72569
0.34262 1.80972 -1.42738
-0.9176 1.15449 -3.19853
-0.22104 2.92997 -1.24156
-0.86108 1.00739 -3.29262
-0.38086 2.96154 -1.38789
-0.65465 2.81389 -1.6621
-0.41843 1.61273 -2.36441
0.47735 1.25991 -1.84648
-0.32262 1.2662 -2.61697
0.10708 1.89978 -1.57004
0.02543 1.40138 -2.14318
0.38997 2.47611 -0.83322
-0.08175 1.11097 -2.52544
0.95267 2.38352 -0.45887
0.99454 1.84825 -0.88759
-0.18381 1.0305 -2.69717
0.67063 1.03151 -1.89204
-0.70556 2.32008 -1.96735
0.15879 2.7623 -0.91295
0.97667 2.07359 -0.68949
0.69328 2.51248 -0.55239
0.92495 1.43231 -1.33946
0.25303 2.61478 -0.88524
-0.77223 2.39099 -1.96646
-0.9833 1.00637 -3.36726
-0.17747 1.1961 -2.54253
0.06262 1.04968 -2.43527
-0.44979 2.02022 -2.00033
0.54611 1.389 -1.66143
0.95544 2.73302 -0.26574
0.94081 1.47249 -1.29011
-0.61738 1.00676 -3.1135
0.94144 1.36663 -1.39434
-0.35698 1.09234 -2.80985
-0.05213 1.38365 -2.23816
0.84228 1.75979 -1.06597
0.94229 1.40107 -1.36
-0.72128 2.32217 -1.9777
0.16071 1.97236 -1.44912
-0.87653 1.5005 -2.83877
0.84061 1.30067 -1.5218
-0.82976 2.98534 -1.74995
-0.31781 1.58687 -2.29641
0.88342 1.69701 -1.10121
-0.37455 1.21694 -2.71237
-0.83117 1.56252 -2.74699
0.1611 1.4466 -1.96347
-0.20988 1.32234 -2.45424
-0.60163 2.10069 -2.06054
-0.45339 1.84148 -2.17062
-0.35442 2.16384 -1.78816
-0.11343 2.70395 -1.20744
0.2412 1.58486 -1.74707
0.46846 2.15352 -0.99819
-0.2319 1.90702 -1.8999
0.47538 1.941 -1.18052
0.41207 1.74314 -1.42801
0.05212 2.50688 -1.14266
-0.52294 2.27669 -1.85071
0.20098 2.53143 -0.98082
0.81179 2.93894 -0.29494
0.94998 2.65627 -0.30208
0.13543 1.13456 -2.28751
0.96357 2.69025 -0.2789
-0.52212 1.42773 -2.6413
-0.11715 1.07466 -2.59291
0.6839 1.04919 -1.86645
-0.74028 2.32156 -1.99229
-0.56211 2.65123 -1.65081
-0.45115 2.46843 -1.65415
-0.90698 2.01929 -2.35403
-0.1062 1.94792 -1.73775
0.7557 2.61278 -0.4508
0.03713 1.08605 -2.42886
-0.19107 1.18331 -2.56777
-0.24938 2.2284 -1.63558
-0.50946 2.48862 -1.69343
0.61293 1.96793 -1.03796
-0.49347 2.406 -1.73225
-0.99127 2.25412 -2.20535
-0.71411 2.71624 -1.74405
0.58754 1.7794 -1.23858
0.038 1.6293 -1.90354
-0.88769 1.9008 -2.45157
0.74314 1.55266 -1.34153
-0.6574 2.73499 -1.69259
0.40066 2.58385 -0.76152
0.94039 2.358 -0.48383
0.44722 1.17344 -1.95452
-0.92893 1.67025 -2.70169
0.59117 2.17017 -0.87854
-0.84635 2.91328 -1.77482
0.0308 2.92403 -0.99278
-0.18598 1.27377 -2.47759
-0.24826 2.74363 -1.32386
0.0942 2.3151 -1.22848
0.98572 1.51294 -1.22415
-0.57163 2.12396 -2.01562
0.30353 2.21391 -1.10142
0.19913 1.71202 -1.66143
-0.89733 1.71563 -2.63734
-0.92155 1.89686 -2.47622
0.46337 2.33707 -0.85958
0.51582 1.81764 -1.2624
-0.35745 2.28546 -1.69452
-0.41382 2.22127 -1.79654
0.95049 1.60629 -1.15081
-0.85121 1.51444 -2.80841
-0.39817 2.19527 -1.80307
-0.93855 2.19187 -2.22479
-0.82326 2.8018 -1.79054
-0.34976 1.23125 -2.67573
0.5016 1.4252 -1.66426
0.27322 1.69813 -1.60318
-0.22629 2.13823 -1.68689
0.53047 2.54412 -0.6673
-0.74772 2.99613 -1.69053
-0.51819 1.86491 -2.20541
0.22009 2.91154 -0.80803
-0.31982 2.01324 -1.88624
0.0803 1.8021 -1.69054
0.54639 2.10198 -0.97384
-0.65428 1.1542 -3.01324
-0.37197 2.40472 -1.62288
-0.22399 1.08369 -2.6902
-0.95729 2.67959 -1.92247
0.41242 1.58089 -1.58907
0.15845 2.19614 -1.25683
-0.58473 2.69536 -1.64989
0.77187 1.69822 -1.17544
-0.82472 2.37061 -2.01713
0.9625 1.94662 -0.81233
0.89295 2.55295 -0.38938
-0.28673 1.552 -2.30161
-0.87038 1.24913 -3.08072
-0.14338 2.69637 -1.24037
-0.76458 1.10723 -3.13937
0.30042 1.85266 -1.42594
0.64314 2.59903 -0.5439
-0.58484 2.79599 -1.6112
-0.54716 2.01786 -2.08794
-0.30852 2.84496 -1.34732
-0.5164 2.27367 -1.84734
-0.93033 2.23639 -2.18429
0.71022 1.18475 -1.72452
0.02082 1.41276 -2.13656
0.28434 2.09573 -1.21832
-0.61801 2.94699 -1.59829
0.89127 1.89851 -0.90025
-0.82539 2.84998 -1.77703
0.14929 1.00426 -2.38798
-0.90142 2.72249 -1.87075
0.61567 2.75432 -0.49655
0.42874 1.34074 -1.81231
-0.07492 2.22954 -1.46272
-0.73428 1.50798 -2.73283
-0.66247 2.57659 -1.77048
-0.40683 1.9229 -2.05082
0.38166 2.72145 -0.71451
-0.55106 1.1333 -2.94726
-0.18308 1.24342 -2.50362
0.09227 1.37524 -2.10217
-0.47241 2.58874 -1.60401
0.46425 2.93866 -0.57277
-0.64097 2.8147 -1.65093
0.51375 2.96329 -0.52441
-0.84337 1.98675 -2.34282
0.00608 1.83549 -1.73231
0.25878 2.88226 -0.77754
-0.82721 1.42646 -2.87988
0.34156 2.58135 -0.81792
-0.42426 2.92296 -1.43545
0.52429 1.33501 -1.733
-0.64277 1.069 -3.08042
0.22928 2.57876 -0.92698
-0.16589 1.45 -2.28563
0.70299 2.29302 -0.69245
-0.34733 1.04591 -2.8415
0.55953 2.49372 -0.67184
0.05172 2.15134 -1.39982
-0.82018 1.03863 -3.23867
0.00164 1.46774 -2.10124
0.5483 2.18186 -0.90502
-0.45373 1.38847 -2.61964
0.79453 2.38796 -0.55725
-0.91561 2.04164 -2.33929
-0.38619 2.08474 -1.88504
0.51886 1.14016 -1.92157
-0.59772 1.78311 -2.35204
-0.32005 1.81177 -2.07596
-0.96343 2.51787 -2.00944
0.84103 1.84751 -0.98147
0.92743 1.89078 -0.88537
-0.94637 2.80728 -1.86666
-0.98793 1.24118 -3.15857
-0.7142 1.21613 -3.0023
0.52544 2.4853 -0.70615
0.37552 1.10526 -2.08215
0.43756 1.45367 -1.69313
-0.2866 1.87513 -1.98303
0.62766 2.70149 -0.50803
0.40572 2.98487 -0.61757
0.95959 2.4576 -0.40598
-0.09254 1.78727 -1.87763
-0.47618 1.91623 -2.11978
-0.62631 2.88473 -1.61897
0.79846 1.88227 -0.97726
-0.59921 2.78294 -1.62762
0.84845 1.53528 -1.28525
-0.37801 2.82302 -1.41939
0.00615 2.09154 -1.49633
0.13794 2.60396 -1.00358
0.11836 2.52039 -1.06874
0.96715 2.93838 -0.19731
0.61067 1.65037 -1.3471
0.68014 1.30783 -1.63105
-0.62204 1.43174 -2.72131
-0.81129 1.78259 -2.51496
-0.56206 1.67665 -2.42727
0.51195 1.62087 -1.46007
0.54317 1.96086 -1.10289
-0.30429 2.2686 -1.65708
0.02831 2.37771 -1.24954
-0.45433 2.02766 -1.99772
-0.20736 2.16219 -1.64836
0.78375 2.78852 -0.35575
-0.4748 2.12071 -1.93455
-0.31195 1.12577 -2.73739
-0.70732 2.03685 -2.20044
-0.31556 1.25991 -2.61626
0.88832 1.36875 -1.42467
-0.93578 1.51905 -2.85678
0.70065 2.31288 -0.67946
0.19814 1.29235 -2.07802
0.4149 1.33403 -1.83146
0.62205 1.40984 -1.57756
-0.28446 1.84409 -2.01073
0.88445 2.00288 -0.80767
0.89372 1.46558 -1.32562
-0.10326 1.66033 -2.01366
0.88693 1.95557 -0.84952
-0.86781 1.47784 -2.85574
0.79047 1.98354 -0.88819
-0.075 2.34126 -1.37846
0.19434 1.01792 -2.33201
-0.80308 1.3496 -2.9389
-0.23954 2.4647 -1.45774
-0.93809 1.99962 -2.39063
-0.9515 1.0149 -3.34199
0.35536 2.96084 -0.66836
-0.02996 2.31771 -1.35058
-0.79702 2.2327 -2.10066
0.45225 1.88264 -1.2562
-0.69135 1.56223 -2.64614
0.31006 2.49245 -0.89828
-0.62939 1.40696 -2.75176
-0.23054 1.16444 -2.62376
0.26247 2.84985 -0.78279
-0.32518 1.92407 -1.9735
0.81177 2.25425 -0.64302
0.25083 2.58732 -0.9015
-0.61053 1.2311 -2.9065
0.66183 2.35582 -0.6786
-0.33828 1.50852 -2.3941
-0.83793 1.80612 -2.51011
0.69758 2.66038 -0.4712
0.6359 1.81067 -1.16851
0.02525 2.8418 -1.01935
-0.4513 1.02607 -2.95432
0.50874 1.76689 -1.31808
-0.43907 1.6848 -2.31134
-0.25569 2.55205 -1.42171
0.76184 2.51902 -0.49736
0.77866 1.71265 -1.1563
