ply
format ascii 1.0
comment Created by Open3D
element vertex 400
property double x
property double y
property double z
end_header
0.0555927 2.34946 -1.69006
1.42032 1.31381 -1.99572
1.32097 1.83085 -1.95687
0.364987 2.77373 -1.63238
1.55465 1.49715 -2.03494
-0.66275 1.72444 -1.79373
1.48453 1.50813 -2.00853
0.543857 1.24228 -1.89339
0.829323 0.917991 -1.98479
-0.051442 1.99957 -1.74998
-0.266367 1.42521 -1.84965
0.245331 2.25882 -1.71861
1.95301 0.970759 -2.24577
0.904623 2.10585 -1.8333
1.57647 1.49943 -2.04382
1.53463 1.73758 -2.03856
0.296398 2.7606 -1.62291
-0.491291 2.69569 -1.58434
1.32791 1.47564 -1.96039
1.59718 0.774663 -2.13982
0.00318905 2.36911 -1.68352
-0.0245083 1.04272 -1.93692
0.967435 1.9315 -1.85494
0.338082 1.09523 -1.92365
0.517772 1.40821 -1.86099
0.522227 2.06938 -1.77108
1.49419 1.02644 -2.0515
1.26407 1.43103 -1.94707
0.212938 0.73062 -2.04072
0.86634 1.10927 -1.9381
0.44779 1.99595 -1.77284
0.689061 2.90384 -1.69902
0.43574 1.08934 -1.92613
0.377645 2.47526 -1.69625
-0.669885 2.83578 -1.53216
-0.333903 1.8596 -1.77265
0.966226 0.762444 -2.04381
1.10196 1.1463 -1.95441
0.0905592 1.24156 -1.88795
-0.769212 1.82713 -1.77524
0.146661 1.14521 -1.9105
1.29942 1.75116 -1.94752
1.44305 1.57958 -1.9941
0.0581312 2.41789 -1.67634
-1.20058 2.6466 -1.59613
-0.0761554 1.58719 -1.81989
0.772981 1.76285 -1.83317
1.3245 1.89084 -1.96082
-0.00531744 2.09201 -1.73501
-0.332298 1.19814 -1.89606
1.11014 0.839922 -2.0299
0.675499 1.83776 -1.81378
0.491673 1.80512 -1.80073
0.195282 2.4038 -1.68899
0.931189 2.46458 -1.83064
1.05507 2.33837 -1.87699
0.736862 2.55487 -1.76141
-0.898846 1.72866 -1.7864
-0.0894844 2.39872 -1.67347
-0.191633 1.94633 -1.75786
-0.798946 2.4722 -1.64856
0.61857 2.80999 -1.69042
0.208611 1.92433 -1.76877
0.278112 2.29919 -1.71466
-0.352648 1.96484 -1.7543
0.722734 2.47345 -1.76499
0.0654498 1.20601 -1.89601
-0.739174 2.5767 -1.62009
0.29188 1.1052 -1.92084
-0.65488 2.57017 -1.62201
0.624948 1.85348 -1.80655
-0.74131 1.62172 -1.80839
1.26478 1.04727 -1.99814
1.10684 0.744176 -2.06195
-0.646055 2.00383 -1.74699
0.880214 2.36916 -1.81651
-0.636156 1.17524 -1.89144
-0.356841 1.01847 -1.93942
0.657256 1.22177 -1.90199
0.934633 0.866073 -2.00678
-0.54059 1.80304 -1.78197
0.853181 1.29018 -1.90196
-0.0584919 2.51616 -1.64786
-0.0308157 1.50676 -1.83446
-1.02745 1.68858 -1.78512
0.262033 1.33985 -1.8679
1.67741 1.43937 -2.08639
1.43064 0.977334 -2.04548
-0.546629 0.826878 -1.98571
1.10314 1.92334 -1.88904
0.164148 1.64903 -1.81097
1.79138 0.893817 -2.17744
1.16081 0.73352 -2.07148
-0.575486 2.36087 -1.67569
1.52698 1.39708 -2.02503
0.826749 0.664935 -2.07525
-0.378366 2.51193 -1.63956
0.745107 3.0465 -1.69736
-0.463537 2.08076 -1.73328
-0.392352 2.049 -1.73915
-0.780158 1.83311 -1.77406
0.458417 1.53454 -1.8376
-0.618351 2.46838 -1.6496
-0.484644 1.3082 -1.87003
-1.0115 2.49631 -1.64124
-0.719354 2.83858 -1.53086
0.451735 1.52506 -1.83885
0.708768 0.774524 -2.02769
-1.13175 2.88328 -1.51152
1.05794 0.834486 -2.02648
0.859347 1.08535 -1.94297
-1.17735 2.52549 -1.63085
-0.340818 1.69886 -1.80025
0.979039 1.72385 -1.86838
-0.417674 2.78019 -1.55647
-1.48033 2.6765 -1.57652
1.14683 0.878475 -2.0224
-0.590017 1.86949 -1.77048
0.249001 1.42852 -1.85064
0.827294 1.78038 -1.83905
1.42357 1.05725 -2.02844
0.755105 2.9591 -1.71854
-0.198944 2.3181 -1.68785
-0.403206 2.45947 -1.65269
0.134138 2.03619 -1.74853
0.180517 1.41827 -1.85188
0.830518 0.91661 -1.98526
-0.744187 1.58165 -1.81465
0.602561 2.8038 -1.68643
-0.308744 2.02071 -1.74438
0.266332 1.23702 -1.88955
1.31981 1.10021 -1.99847
-0.626808 2.52763 -1.63393
-1.49649 2.87867 -1.50424
0.434079 1.07978 -1.92854
-0.5811 2.58548 -1.61774
-0.479609 0.881233 -1.97332
-0.574984 1.43563 -1.84402
0.156285 2.71664 -1.61414
-1.14809 2.58186 -1.61616
-1.11917 2.06072 -1.72696
0.0745291 0.859048 -1.99299
-0.412293 2.75491 -1.56558
-0.522248 1.49584 -1.83439
-1.33121 2.66336 -1.58739
1.53141 0.861734 -2.09711
1.09954 2.15336 -1.88928
1.79975 0.888471 -2.18218
0.472814 2.90633 -1.62403
-0.401191 1.76529 -1.7888
-0.542648 2.27245 -1.69525
0.273078 2.40224 -1.69651
-0.180857 2.54358 -1.63581
0.048557 0.843369 -1.9983
0.708196 0.695687 -2.05859
0.708175 2.81812 -1.72067
1.18223 1.78741 -1.91229
-1.26983 2.21835 -1.69314
-0.0229315 0.875553 -1.9871
0.884612 1.54326 -1.86999
0.509067 2.36852 -1.73233
-0.0255902 0.683393 -2.0592
0.0721461 1.38821 -1.8572
0.642951 1.87248 -1.80643
-0.340302 2.61166 -1.61272
1.75621 1.35105 -2.12204
0.987559 1.96944 -1.8582
-0.668513 1.15972 -1.89284
-0.498899 2.87079 -1.51982
0.925716 2.83051 -1.81789
1.06223 1.96985 -1.87727
-0.460051 2.40579 -1.6654
1.16549 2.04791 -1.90948
0.121481 0.801835 -2.01326
1.16156 2.19076 -1.91331
1.35781 2.01218 -1.98302
-1.13278 2.13476 -1.71425
-0.494112 1.71646 -1.79682
-0.177604 1.03683 -1.93766
-0.108979 1.28877 -1.87757
1.69554 1.28284 -2.09401
1.05903 2.00938 -1.87593
1.30237 1.59369 -1.94916
1.05769 2.13627 -1.87523
-0.739238 2.81974 -1.53828
0.0542422 1.29588 -1.87609
1.08605 1.68009 -1.89224
-1.26219 2.5399 -1.62467
-0.276359 2.83399 -1.5412
1.54941 1.03318 -2.06569
1.00865 2.50498 -1.86098
1.56521 1.3037 -2.04204
-0.552222 1.17148 -1.89614
-0.413523 1.55713 -1.82472
0.394997 2.30522 -1.72563
0.667488 3.03977 -1.6608
0.889689 0.863583 -2.00473
1.44144 1.60179 -1.9938
1.36363 0.968269 -2.03317
-1.43778 2.84784 -1.51929
0.358538 1.56404 -1.82931
-0.868157 1.86561 -1.76675
-0.413403 2.10351 -1.72903
1.6093 0.891387 -2.11178
-1.10075 2.61756 -1.60656
-0.0956786 0.970993 -1.9569
0.432396 2.45318 -1.70796
0.833856 2.84011 -1.77124
-0.356912 2.88268 -1.51875
0.882165 1.71136 -1.85313
-0.963186 1.70466 -1.78677
0.756081 1.83044 -1.82456
0.911949 2.88108 -1.80791
1.29226 1.63846 -1.94541
-0.0800445 1.08868 -1.92458
-0.198994 2.80904 -1.55424
0.74797 1.81246 -1.82517
0.359734 1.22269 -1.89363
-0.56809 1.81155 -1.78037
1.52133 1.77257 -2.03543
0.60937 0.922017 -1.97566
-0.592506 1.13523 -1.9022
0.473472 2.51179 -1.7054
1.46498 1.17589 -2.02155
-0.301447 2.66041 -1.59918
-0.106893 2.92454 -1.51641
0.772033 0.959067 -1.97017
0.337226 2.71601 -1.64118
-0.434185 2.35689 -1.67688
0.0492076 2.70908 -1.60475
-0.274209 1.07104 -1.92743
0.321903 2.86561 -1.59851
0.941583 0.915051 -1.99257
1.61384 1.51577 -2.06029
-0.991123 1.67039 -1.78991
0.398462 2.05383 -1.76114
-0.10608 1.10813 -1.91951
-0.500476 2.55843 -1.62583
0.0889894 2.54374 -1.65085
-1.22709 2.81685 -1.53728
0.531122 2.97888 -1.6224
-0.661477 2.75125 -1.5641
0.394898 2.1844 -1.74297
-0.549634 2.69893 -1.58271
0.828156 1.18347 -1.91972
-0.436257 2.86998 -1.52152
-0.310413 1.9227 -1.76171
0.480288 2.51748 -1.70573
0.238055 1.66461 -1.80987
-0.238274 1.16421 -1.90498
0.926473 2.47766 -1.82863
0.0941937 2.89809 -1.5489
0.0428577 1.60747 -1.81674
-0.113271 2.79471 -1.5646
0.423246 2.96747 -1.59201
0.00475176 1.8557 -1.7748
0.36445 1.66256 -1.81403
0.530394 2.62813 -1.69794
1.68212 1.31226 -2.08756
-0.166191 2.25859 -1.70066
0.738354 2.11988 -1.79743
0.13819 1.2449 -1.88727
1.3885 0.961335 -2.03979
-0.327546 1.99391 -1.74915
1.06083 1.26817 -1.92853
-1.11036 2.88496 -1.51095
0.969076 2.1691 -1.84828
-1.13981 2.50192 -1.63779
0.207119 1.14256 -1.91125
-0.345252 2.5784 -1.6221
-0.00506996 1.59926 -1.81793
-1.03756 2.64589 -1.5986
0.376838 2.9495 -1.58527
-1.62005 2.86126 -1.50369
1.03258 1.8655 -1.87233
0.760939 2.23791 -1.79302
-1.23622 2.02504 -1.7256
-0.100904 2.20852 -1.71172
-0.223241 1.52563 -1.83094
-0.498263 2.30787 -1.68764
0.242382 1.1209 -1.9167
-0.294984 0.781626 -2.01452
1.28395 1.3349 -1.95976
-0.9582 1.65352 -1.79422
0.326146 2.34783 -1.71133
0.132583 1.8034 -1.78542
0.0153654 2.71918 -1.59875
-0.447698 2.07614 -1.73414
-0.231005 2.12729 -1.7252
1.728 0.970978 -2.13684
0.542011 1.49381 -1.84785
0.771178 1.27948 -1.89741
0.765669 2.03915 -1.80857
1.2514 1.90296 -1.9348
1.25771 1.25921 -1.96262
-0.619079 1.26856 -1.87355
1.0343 0.70093 -2.07211
0.315094 2.78078 -1.62095
0.172025 2.38788 -1.69014
-1.06427 2.21438 -1.70248
1.54303 1.14242 -2.04821
1.22449 1.59358 -1.92833
-1.00683 2.11131 -1.72272
-0.28705 2.40249 -1.66774
-1.3984 2.54254 -1.61819
0.165873 2.23683 -1.71693
-0.456628 2.21804 -1.70661
1.72608 0.936441 -2.14237
-0.400781 1.84823 -1.7746
-0.0847962 2.11544 -1.7292
-1.26175 2.58851 -1.61154
1.31613 1.67147 -1.95234
-0.618089 1.8842 -1.76781
-0.422652 0.978622 -1.94804
0.122803 1.22051 -1.89272
0.615374 2.06719 -1.7828
0.398886 0.750372 -2.03298
0.277546 2.78529 -1.61304
-1.26327 2.82566 -1.5332
0.244072 2.62757 -1.64758
0.682662 2.19526 -1.78099
0.261113 2.77132 -1.61409
0.143352 1.25072 -1.88599
0.834421 3.0611 -1.74497
0.924768 0.909611 -1.99297
0.817423 1.88475 -1.82902
1.39434 1.10924 -2.01298
-0.0537825 0.877415 -1.98629
-0.158314 2.59171 -1.62392
1.10675 1.32249 -1.92765
0.76649 2.49868 -1.775
-0.526109 1.66278 -1.80565
0.926515 2.84282 -1.81779
-0.812876 2.8458 -1.5278
-0.210117 0.899189 -1.9773
-0.955973 2.19983 -1.70776
-1.25311 2.75156 -1.56073
-1.0428 2.39402 -1.66572
-1.07265 2.00491 -1.7378
1.23387 1.56797 -1.93177
0.424179 2.37051 -1.71955
1.14625 0.781956 -2.05268
1.08839 2.4218 -1.89333
-0.170964 1.45904 -1.84334
0.340698 1.42117 -1.85349
1.01688 1.72871 -1.8753
0.812162 1.61121 -1.85364
1.61739 1.36527 -2.05978
0.369039 2.25942 -1.72958
1.95007 0.888748 -2.25752
-0.10183 0.761963 -2.02657
0.948068 0.9982 -1.97057
-0.872407 1.8136 -1.77465
1.20709 2.16507 -1.93019
0.579531 2.02788 -1.78242
-1.05489 2.72033 -1.57423
0.244185 1.06697 -1.93058
-0.291993 1.15021 -1.90767
-0.217548 1.16181 -1.90573
0.587889 1.20566 -1.90256
0.606938 0.710691 -2.05049
-0.85374 1.49514 -1.82323
0.661088 2.47085 -1.74977
-0.832307 2.72278 -1.57392
-0.787477 1.28596 -1.86126
0.246328 2.905 -1.57108
-0.902134 2.59582 -1.61439
0.738757 1.88301 -1.81737
0.741868 2.54715 -1.76361
1.78144 1.20899 -2.13555
-0.463586 1.19359 -1.89434
-0.711364 2.14784 -1.72026
0.335713 2.71247 -1.64174
-0.613542 2.28644 -1.69226
-0.146456 1.16359 -1.90573
-0.45537 2.52101 -1.63638
0.575479 1.91167 -1.79492
1.30992 1.02596 -2.01053
1.12366 2.31412 -1.90371
0.613196 1.7102 -1.82217
-0.171756 0.664549 -2.06445
0.383902 1.79538 -1.79546
-0.751831 2.2439 -1.70103
0.731417 2.99168 -1.70136
1.40615 1.95405 -1.99942
1.45063 1.62759 -1.99769
1.03511 2.17307 -1.86815
0.424731 2.20727 -1.74289
-0.396701 1.06115 -1.92725
1.47164 1.78548 -2.01413
-0.131684 2.71953 -1.58804
0.788495 2.55509 -1.77735
1.02258 2.07805 -1.86492
1.70011 1.19135 -2.10009
0.910464 1.49845 -1.87838
0.775774 0.961036 -1.96979
-0.140078 2.81585 -1.55539
0.609844 1.78056 -1.81337
0.106497 2.0793 -1.74053
0.360405 2.23567 -1.73222
