ply
format ascii 1.0
comment Created by Open3D
element vertex 250
property double x
property double y
property double z
end_header
-2.88378 -0.350467 -1.13018
-1.87493 1.59919 -0.220338
-2.39348 -0.682665 0.188533
-2.8845 0.0880791 -1.40717
-2.90381 -1.054 -0.488036
-2.54243 -0.268287 -0.366938
-2.3152 0.8135 -0.394227
-2.35698 1.7721 -1.32944
-1.7227 1.69624 -0.0598181
-1.47596 2.25701 -1.17394
-2.32794 -0.822458 0.433297
-2.56146 1.26168 -1.2011
-2.83892 -1.13732 -0.262348
-1.45157 2.49396 -2.1966
-2.6893 -0.217842 -0.712669
-2.82257 1.31913 -1.9361
-2.59079 1.94555 -2.15557
-2.72053 -0.298786 -0.738956
-2.20644 0.951874 -0.241756
-2.59235 1.87892 -1.99687
-2.11303 1.72393 -0.853809
-2.38882 1.6614 -1.24621
-2.41597 -0.462443 0.0051714
-1.82143 1.49692 0.151066
-1.23019 2.27535 -1.04966
-2.36782 0.664533 -0.425777
-2.60543 -0.844591 -0.120859
-2.74102 0.721597 -1.28265
-2.40541 0.686215 -0.517618
-1.0709 2.16416 -0.565771
-2.45454 2.01122 -1.91885
-2.13321 2.30985 -2.15122
-1.75282 1.61719 0.0728685
-2.62385 -1.10782 0.0909765
-1.4159 2.0635 -0.562998
-2.13982 -0.580609 0.776126
-3.07505 -0.891071 -1.17263
-1.43882 2.49352 -2.16295
-2.30146 1.42054 -0.828459
-2.854 -0.58324 -0.863816
-2.8531 -0.289916 -1.08069
-1.86274 2.2204 -1.45099
-2.27159 0.388288 -0.0723657
-2.60205 -1.41791 0.517801
-3.00195 -1.09855 -0.627755
-1.3825 2.07821 -0.569839
-2.5157 -1.50453 0.827668
-1.06286 2.21821 -0.752251
-2.4349 0.17688 -0.343919
-2.46586 1.22518 -0.978128
-1.92904 2.13347 -1.32081
-2.36069 -0.993908 0.503057
-2.07536 1.96338 -1.17609
-1.62719 2.22238 -1.21036
-2.05363 1.4034 -0.323425
-1.51257 2.2553 -1.19945
-1.76288 1.57079 0.182408
-2.45287 0.815798 -0.687148
-2.76372 0.134955 -1.06837
-2.76332 -0.994425 -0.284817
-1.6307 2.41813 -1.86095
-1.28918 2.40344 -1.52842
-1.04978 2.07605 -0.16565
-1.19121 2.35723 -1.30062
-2.803 -0.94826 -0.409467
-2.27263 -1.25619 1.04357
-2.50336 1.27888 -1.09498
-2.46771 1.8583 -1.66195
-2.85434 0.775501 -1.64438
-2.27676 -1.2114 0.960094
-2.40798 1.59615 -1.20671
-2.14171 -0.512907 0.724969
-2.89099 0.28378 -1.53292
-2.16771 2.29697 -2.17369
-2.24594 -0.958931 0.753976
-2.78553 -0.0522208 -1.03314
-1.72996 1.98042 -0.738419
-1.23659 2.40377 -1.4984
-2.59135 0.171339 -0.680362
-1.68773 2.28516 -1.44373
-2.08592 2.18745 -1.65566
-2.52661 -0.877394 0.0601075
-2.27154 2.25108 -2.24144
-1.97181 1.79435 -0.732945
-2.8947 0.687834 -1.75612
-2.58859 1.80508 -1.85053
-2.92214 -0.296965 -1.30243
-1.66665 2.43469 -1.98837
-1.78166 2.43032 -2.13965
-2.35001 -1.14579 0.682024
-2.80747 0.228378 -1.23064
-2.74353 0.333369 -1.10755
-2.17457 0.929174 -0.150323
-2.87778 0.329041 -1.50436
-2.35158 -0.799659 0.362613
-1.54864 1.98619 -0.509545
-2.34467 2.19842 -2.21359
-1.74087 1.78899 -0.329651
-2.25127 -0.954104 0.734616
-2.21763 -0.824363 0.714197
-1.46179 2.20338 -1.00794
-2.29469 0.357746 -0.112278
-2.16563 -0.578927 0.689368
-2.00189 1.03539 0.257365
-0.867481 2.13073 -0.253968
-2.48365 -1.1719 0.424383
-1.2458 2.03703 -0.256657
-2.38663 -0.58901 0.14302
-1.65559 1.95192 -0.57104
-2.23614 0.546387 -0.06553
-2.57013 1.9421 -2.07258
-1.44294 1.95806 -0.265005
-3.0943 -1.03189 -0.965311
-2.09746 0.345224 0.43498
-2.45723 -1.25019 0.568923
-2.68933 -1.22826 0.111108
-2.92761 -1.03523 -0.559771
-1.82588 1.47067 0.204274
-2.53838 -0.726727 -0.0795457
-1.07347 2.27092 -0.938982
-2.58907 -1.26447 0.33294
-2.73776 1.70432 -2.16533
-1.95478 1.43805 -0.142181
-2.28616 1.13695 -0.551634
-2.67579 -0.405642 -0.575566
-2.8914 0.356831 -1.57098
-2.73446 -1.09273 -0.125963
-2.8066 1.26497 -1.82305
-2.67063 -0.207776 -0.675926
-2.70072 1.66221 -1.94364
-2.43632 -0.135014 -0.206299
-2.25038 0.521676 -0.0871662
-2.35535 -0.474259 0.143897
-2.23132 -0.115971 0.257168
-2.75903 0.909133 -1.43005
-2.84537 0.364074 -1.40902
-2.54805 0.90011 -0.934538
-2.03472 1.52505 -0.440581
-2.7955 1.45235 -1.98535
-2.79255 -0.412777 -0.838584
-1.30931 1.96763 -0.0410957
-2.76611 -1.09323 -0.182765
-2.74712 1.19211 -1.58318
-2.70802 0.466539 -1.07964
-2.79333 1.38588 -1.89758
-0.809862 2.13174 -0.206288
-2.3278 -0.716401 0.356472
-2.35866 0.711995 -0.431102
-2.85642 -1.35877 0.0090109
-2.75339 1.30775 -1.69456
-2.59444 0.529577 -0.847221
-2.35005 1.99104 -1.66272
-2.7621 -0.0181711 -0.990048
-1.11592 2.09533 -0.338609
-2.61059 1.6209 -1.6475
-1.43153 2.23238 -1.06573
-2.53407 0.995357 -0.961237
-2.18292 0.685523 -0.0102724
-1.89931 1.7445 -0.527526
-2.46065 -1.16223 0.459723
-2.56399 0.983831 -1.0175
-2.91672 -0.356065 -1.23521
-2.28547 0.485345 -0.151681
-1.87728 2.39499 -2.07676
-2.58437 1.56769 -1.52788
-2.47549 1.53455 -1.26956
-2.15781 2.29906 -2.15768
-2.1161 0.339262 0.373952
-2.14762 -0.340198 0.604956
-2.61224 -0.608111 -0.31183
-2.89163 -0.234294 -1.23822
-1.9489 2.32253 -1.86236
-2.81131 0.292965 -1.27181
-2.70962 -1.43162 0.353574
-2.08376 0.967281 0.0565279
-2.04239 0.796245 0.342007
-1.04965 2.23325 -0.795993
-2.70089 1.38358 -1.6202
-2.78239 0.109054 -1.10509
-2.34887 1.30198 -0.810436
-2.8696 -0.141317 -1.22531
-2.69383 -0.134945 -0.766498
-2.35509 0.166112 -0.163641
-2.4948 0.300944 -0.527932
-2.18185 2.19517 -1.82706
-3.2235 -1.15041 -1.13975
-2.32076 2.22626 -2.28304
-2.2002 -0.653839 0.635921
-1.89352 1.92323 -0.844876
-2.88806 -0.580726 -0.955762
-2.99796 -0.640398 -1.2583
-1.69418 1.95969 -0.643224
-2.93892 -0.378952 -1.29973
-2.06915 2.17519 -1.60133
-2.20969 1.64303 -0.909243
-2.11406 -0.403633 0.757045
-2.79022 -0.798785 -0.529264
-2.63515 1.90487 -2.22158
-1.91853 1.40427 0.0104393
-2.65355 -0.826652 -0.229681
-2.22434 2.08552 -3.07969
-1.65452 2.30421 -3.01251
-2.12007 2.23893 -2.91415
-2.10948 2.34314 -2.33659
-2.26294 2.01977 -3.12709
-1.97595 2.39381 -2.40528
-1.9205 2.21249 -3.08021
-1.993 2.35031 -2.72567
-0.791527 1.39255 -3.83962
-2.2077 1.88776 -3.28335
-2.16415 2.32064 -2.36444
-2.3515 2.14124 -2.85037
-1.20076 1.53691 -3.7502
-2.42747 2.15313 -2.61212
-2.06196 2.29694 -2.82744
-1.60729 2.08339 -3.3125
-2.50074 2.09339 -2.57777
-1.01137 1.50659 -3.77319
-1.32449 2.14941 -3.26026
-1.3422 1.65438 -3.67037
-2.37989 2.19861 -2.50086
-1.01921 1.6224 -3.6995
-2.19032 2.03609 -3.16146
-1.83191 2.42419 -2.54256
-1.46419 2.25613 -3.11676
-1.60013 1.88202 -3.48926
-1.68467 2.34977 -2.91374
-2.22543 2.03171 -3.14216
-1.27604 1.4284 -3.8055
-1.83004 2.01265 -3.33759
-2.34326 1.879 -3.19361
-2.043 2.28002 -2.88726
-1.66685 2.46213 -2.4668
-1.73526 2.2603 -3.06757
-1.54174 2.29564 -3.04694
-1.77615 1.69093 -3.58003
-2.106 1.69339 -3.45885
-1.86831 1.84577 -3.45873
-1.5993 1.87168 -3.49711
-1.47875 2.24777 -3.12772
-1.66891 2.16581 -3.21182
-1.25975 2.01942 -3.39517
-1.81467 1.18568 -3.77543
-1.26505 1.27543 -3.88369
-1.27366 1.51751 -3.75682
-1.37357 1.9479 -3.45671
-1.49629 1.44301 -3.76802
-2.50069 2.04466 -2.77639
-1.51273 1.91269 -3.47593
-1.24247 1.96617 -3.4435
