ply
format ascii 1.0
comment Created by Open3D
element vertex 400
property double x
property double y
property double z
end_header
1.45265 -2.43441 1.45991
2.84726 -0.237574 0.742858
1.5666 -1.77218 1.41529
1.54214 -0.203428 1.52693
1.82028 -2.46578 1.14841
1.65045 -2.33074 1.31545
1.20395 -0.811087 1.69616
1.90588 -1.66185 1.17696
2.89405 -0.358942 0.730795
2.98318 0.441906 0.791161
1.17865 -2.58957 1.65072
1.77484 -1.03972 1.27146
2.09585 -0.00784181 1.11455
2.66272 -0.361459 0.789909
2.32966 -0.454458 0.932179
1.00771 -2.968 1.71238
1.30441 -2.41413 1.57628
2.55107 0.398794 0.917938
1.01361 -1.62183 1.78832
2.08457 0.167026 1.15983
1.99173 -1.40663 1.12434
2.17984 -1.12007 1.00964
2.36293 -0.385083 0.917082
1.67348 -1.12582 1.34215
1.09472 -1.5735 1.73847
2.04148 -1.64059 1.08651
1.53429 -0.19135 1.53707
2.73436 -1.44467 0.751209
1.91878 -0.363319 1.1968
2.65266 -1.67449 0.758612
1.48733 -2.70633 1.38017
2.17768 -0.400781 1.02077
1.3539 -0.568478 1.61252
2.52824 -0.291335 0.842935
1.50965 -0.611676 1.48461
1.66311 -0.804497 1.35597
2.99075 -0.577855 0.715246
2.58134 -1.6724 0.786833
1.29378 -1.98642 1.6053
1.30395 -0.730745 1.6304
1.98738 -0.270108 1.15655
2.22689 -2.07951 0.920066
2.55644 0.178467 0.871686
2.25005 -0.663047 0.971218
2.6814 -0.410497 0.782817
1.0818 -0.924959 1.77117
2.3836 -1.74645 0.87351
1.91362 -0.586793 1.18537
2.84889 -1.78185 0.683638
1.88415 -0.738417 1.20033
2.8043 0.528131 0.851208
1.35318 -0.774614 1.58902
2.11755 0.0906582 1.11741
2.9851 0.279371 0.761476
2.51148 0.354239 0.92701
2.10607 -1.45103 1.05087
1.80349 -2.27552 1.20093
1.53564 -2.72728 1.33106
1.45507 -1.27081 1.49634
1.43866 -0.96397 1.51427
2.33227 0.37459 1.03805
2.09957 -2.10874 1.00284
1.52089 -0.631927 1.47392
1.41822 -2.75252 1.42928
2.26553 -2.05941 0.898506
2.47933 0.236167 0.918652
2.58556 -1.80077 0.769078
1.74477 -1.69842 1.28896
2.26035 -0.216721 0.982815
2.4779 -1.67577 0.832682
2.44518 -1.60892 0.854093
1.16084 -0.891032 1.71932
1.54893 -2.12277 1.41508
2.89053 0.499147 0.821064
2.61884 -0.250818 0.808725
1.82831 -2.30241 1.17651
1.25825 -2.28691 1.61937
1.03756 -2.58165 1.7501
2.39967 -1.08663 0.892652
2.3152 -1.92292 0.890474
2.63244 -1.298 0.791415
2.7854 -1.62868 0.720966
2.69896 -0.993103 0.774819
2.25934 -1.45886 0.959756
2.77504 -0.206482 0.761137
1.28443 -1.48379 1.61404
1.60934 -1.91805 1.38053
2.5597 -0.884661 0.823468
1.42209 -1.8535 1.5174
1.6053 -2.44612 1.3343
2.92594 -0.972816 0.72284
2.30775 -0.573449 0.941074
1.42067 -0.563394 1.56023
2.37725 -0.12595 0.924698
2.67143 -1.28034 0.778602
1.40474 -1.9493 1.52799
2.62882 -0.549436 0.798691
1.34531 -2.62222 1.51788
2.36279 -2.17604 0.809439
2.58384 -0.634989 0.814509
2.5932 -1.15193 0.809121
2.5387 -1.00325 0.831565
1.71663 -0.270553 1.36438
1.56 -2.17604 1.40288
1.13565 -2.3067 1.70322
2.39373 -1.31984 0.892567
2.67518 -0.342105 0.786267
2.09835 -1.97054 1.02366
2.23599 -1.65726 0.964069
1.783 -0.191633 1.32385
1.23215 -1.49649 1.64927
2.58937 -0.319336 0.817324
2.38257 0.251673 0.975327
1.60051 -0.482523 1.4276
2.31761 -1.85318 0.898429
1.72574 -2.25827 1.26529
2.3681 -0.320022 0.917089
2.30196 0.157508 1.0054
1.38454 -0.276981 1.6475
2.21522 -2.21879 0.897403
1.4914 -0.849978 1.48065
1.01109 -2.81851 1.73869
2.13486 -0.271373 1.05599
2.97158 -1.85012 0.647385
2.92687 -1.3191 0.714213
1.07554 -0.621038 1.81946
1.80972 -0.767041 1.25158
1.15449 -2.91054 1.61286
2.92997 -1.03421 0.721617
1.00739 -2.93711 1.71936
2.96154 -1.2507 0.712078
2.81389 -1.63819 0.712375
1.61273 -1.96777 1.37602
1.25991 -0.968121 1.6432
1.2662 -2.0786 1.62235
1.89978 -1.03447 1.1859
1.40138 -1.49748 1.53344
2.47611 -0.313425 0.864926
1.11097 -1.84356 1.72795
2.38352 0.349169 0.99811
1.84825 0.0756251 1.33087
1.0305 -2.03716 1.77721
1.03151 -0.863667 1.81208
2.32008 -1.89003 0.89222
2.7623 -0.533272 0.757835
2.07359 0.203067 1.17815
2.51248 0.0996243 0.880822
1.43231 -0.293103 1.60118
2.61478 -0.44704 0.804878
2.39099 -1.93655 0.844448
1.00637 -3.07631 1.68571
1.1961 -1.92333 1.67235
1.04968 -1.67772 1.76627
2.02022 -1.7325 1.0964
1.389 -0.78865 1.56097
2.73302 0.487692 0.863505
1.47249 -0.246992 1.5775
1.00676 -2.63813 1.76502
1.36663 -0.320249 1.65165
1.09234 -2.23929 1.73444
1.38365 -1.61948 1.54576
1.75979 -0.158173 1.34934
1.40107 -0.295366 1.62796
2.32217 -1.90847 0.888423
1.97236 -0.911043 1.13832
1.5005 -2.62711 1.38751
1.30067 -0.481674 1.67048
2.98534 -1.82413 0.650673
1.58687 -1.84853 1.39908
1.69701 -0.154001 1.40335
1.21694 -2.18278 1.65309
1.56252 -2.53014 1.35469
1.4466 -1.27447 1.5023
1.32234 -1.88382 1.587
2.10069 -1.88244 1.03161
1.84148 -1.85546 1.21426
2.16384 -1.51503 1.01381
2.70395 -0.933996 0.773582
1.58486 -1.06481 1.40592
2.15352 -0.374576 1.03708
1.90702 -1.50741 1.17945
1.941 -0.498609 1.1709
1.74314 -0.718378 1.30113
2.50688 -0.771128 0.844837
2.27669 -1.67842 0.938875
2.53143 -0.55143 0.835659
2.93894 0.365468 0.782576
2.65627 0.458134 0.88534
1.13456 -1.52175 1.71328
2.69025 0.484135 0.878559
1.42773 -2.23688 1.49849
1.07466 -1.9163 1.75063
1.04919 -0.836189 1.80337
2.32156 -1.93222 0.885305
2.65123 -1.56477 0.769827
2.46843 -1.48867 0.850649
2.01929 -2.30588 1.02322
1.94792 -1.30387 1.15368
2.61278 0.215597 0.853124
1.08605 -1.69121 1.74372
1.18331 -1.95079 1.68058
2.2284 -1.33287 0.980191
2.48862 -1.55768 0.837193
1.96793 -0.300542 1.16736
2.406 -1.57382 0.87595
2.25412 -2.26035 0.858484
2.71624 -1.73818 0.728278
1.7794 -0.460355 1.29126
1.6293 -1.31914 1.37288
1.9008 -2.36121 1.10583
1.55266 -0.423126 1.47408
2.73499 -1.66169 0.73199
2.58385 -0.255167 0.821785
2.358 0.322837 1.00708
1.17344 -1.06582 1.69829
1.67025 -2.56724 1.25353
2.17017 -0.203201 1.03924
2.91328 -1.85345 0.656527
2.92403 -0.680223 0.72378
1.27377 -1.88343 1.62041
2.74363 -1.11166 0.760564
2.3151 -0.802057 0.935276
1.51294 -0.168595 1.56261
2.12396 -1.82946 1.02106
2.21391 -0.564193 0.99345
1.71202 -1.034 1.31561
1.71563 -2.49939 1.23037
1.89686 -2.40259 1.09932
2.33707 -0.280163 0.935467
1.81764 -0.527912 1.25739
2.28546 -1.45096 0.945451
2.22127 -1.56296 0.977731
1.60629 -0.141648 1.48584
1.51444 -2.58774 1.38395
2.19527 -1.55651 0.993414
2.19187 -2.23682 0.909509
2.8018 -1.84824 0.68397
1.23125 -2.13934 1.64471
1.4252 -0.822125 1.53149
1.69813 -0.940424 1.32682
2.13823 -1.35282 1.0328
2.54412 -0.0967534 0.846951
2.99613 -1.7241 0.666667
1.86491 -1.92588 1.19304
2.91154 -0.415736 0.726991
2.01324 -1.55992 1.10763
1.8021 -1.13861 1.25217
2.10198 -0.302253 1.07496
1.1542 -2.59333 1.66804
2.40472 -1.41057 0.884527
1.08369 -2.06064 1.74387
2.67959 -2.0363 0.682485
1.58089 -0.832017 1.41527
2.19614 -0.776672 1.00075
2.69536 -1.58011 0.753182
1.69822 -0.285367 1.37696
2.37061 -2.00949 0.843161
1.94662 0.106186 1.25499
2.55295 0.356078 0.906744
1.552 -1.83023 1.42474
1.24913 -2.79385 1.56295
2.69637 -0.978459 0.775689
1.10723 -2.76051 1.67923
1.85266 -0.795863 1.22072
2.59903 0.0701733 0.839364
2.79599 -1.55283 0.725746
2.01786 -1.8633 1.0895
2.84496 -1.17086 0.734543
2.27367 -1.67142 0.941117
2.23639 -2.20237 0.886684
1.18475 -0.717218 1.72162
1.41276 -1.49605 1.5255
2.09573 -0.660424 1.06254
2.94699 -1.56716 0.693163
1.89851 -0.00634982 1.2668
2.84998 -1.84019 0.672911
1.00426 -1.58299 1.79412
2.72249 -1.96022 0.68542
2.75432 0.0842306 0.786458
1.34074 -0.978332 1.58466
2.22954 -1.08728 0.981323
1.50798 -2.45162 1.41319
2.57659 -1.72036 0.783481
1.9229 -1.73782 1.16248
2.72145 -0.23536 0.775109
1.1333 -2.47369 1.69437
1.24342 -1.89978 1.64087
1.37524 -1.42121 1.5517
2.58874 -1.46825 0.800162
2.93866 -0.0767352 0.733284
2.8147 -1.62062 0.71415
2.96329 -0.00753776 0.73409
1.98675 -2.25298 1.06027
1.83549 -1.22063 1.22923
2.88226 -0.366819 0.732789
1.42646 -2.62131 1.45146
2.58135 -0.336837 0.819876
2.92296 -1.31501 0.715019
1.33501 -0.854687 1.59615
1.069 -2.63269 1.72368
2.57876 -0.493348 0.817599
1.45 -1.73349 1.49888
2.29302 0.00745291 0.986725
1.04591 -2.25484 1.76364
2.49372 -0.0794152 0.87071
2.15134 -0.953251 1.02639
1.03863 -2.87004 1.71013
1.46774 -1.48464 1.48696
2.18186 -0.252239 1.02765
1.38847 -2.1732 1.53153
2.38796 0.167782 0.955853
2.04164 -2.30156 1.00669
2.08474 -1.606 1.05985
1.14016 -0.991866 1.72564
1.78311 -2.0858 1.24049
1.81177 -1.69423 1.24162
2.51787 -2.10214 0.739641
1.84751 -0.0993061 1.2887
1.89078 0.0297409 1.28184
2.80728 -1.98911 0.650743
1.24118 -2.93202 1.53487
1.21613 -2.62796 1.61793
2.4853 -0.127781 0.870866
1.10526 -1.20677 1.73784
1.45367 -0.887822 1.50663
1.87513 -1.60487 1.19956
2.70149 0.0845912 0.803054
2.98487 -0.149801 0.723575
2.4576 0.391461 0.965604
1.78727 -1.39312 1.26225
1.91623 -1.83562 1.1622
2.88473 -1.58765 0.701917
1.88227 -0.126431 1.25562
2.78294 -1.57461 0.727196
1.53528 -0.308864 1.50875
2.82302 -1.27095 0.736367
2.09154 -1.05372 1.06241
2.60396 -0.6121 0.807177
2.52039 -0.67202 0.839406
2.93838 0.544359 0.823398
1.65037 -0.520735 1.38435
1.30783 -0.672395 1.63426
1.43174 -2.36411 1.48441
1.78259 -2.35201 1.20468
1.67665 -2.11378 1.3189
1.62087 -0.670422 1.39443
1.96086 -0.395782 1.16394
2.2686 -1.3869 0.956567
2.37771 -0.86354 0.903576
2.02766 -1.73386 1.09134
2.16219 -1.31219 1.01894
2.78852 0.302642 0.805748
2.12071 -1.70367 1.0322
1.12577 -2.15621 1.71505
2.03685 -2.0561 1.0558
1.25991 -2.07311 1.62684
1.36875 -0.379257 1.63553
1.51905 -2.68174 1.35835
2.31288 0.0149836 0.975885
1.29235 -1.32928 1.60949
1.33403 -1.00166 1.58842
1.40984 -0.675648 1.55536
1.84409 -1.62294 1.22066
2.00288 0.0542917 1.19651
1.46558 -0.305399 1.56931
1.66033 -1.49689 1.35086
1.95557 0.0264529 1.22786
1.47784 -2.63295 1.40568
1.98354 -0.0690985 1.18699
2.34126 -1.02775 0.921685
1.01792 -1.51156 1.7864
1.3496 -2.64598 1.51025
2.4647 -1.20016 0.861397
1.99962 -2.35376 1.0271
1.0149 -3.03596 1.69033
2.96084 -0.221324 0.723879
2.31771 -0.976189 0.933819
2.2327 -2.04897 0.921813
1.88264 -0.568478 1.20806
1.56223 -2.35996 1.38225
2.49245 -0.415934 0.854425
1.40696 -2.39083 1.50074
1.16444 -2.01829 1.69226
2.84985 -0.367922 0.73911
1.92407 -1.62541 1.16554
2.25425 0.119324 1.02869
2.58732 -0.460093 0.81482
1.2311 -2.48692 1.6235
2.35582 -0.0118582 0.947827
1.50852 -1.93208 1.45368
1.80612 -2.36742 1.18241
2.66038 0.160075 0.826452
1.81067 -0.376612 1.27591
2.8418 -0.702935 0.738644
1.02607 -2.40814 1.7699
1.76689 -0.57229 1.29176
1.6848 -1.94483 1.32389
2.55205 -1.1861 0.824501
2.51902 0.187016 0.890389
1.71265 -0.267032 1.36822
