ply
format ascii 1.0
comment Created by Open3D
element vertex 250
property double x
property double y
property double z
end_header
-2.11504 -2.15287 0.779784
-0.632257 -0.950634 2.19496
-0.772014 -2.35647 0.285244
-2.30698 -1.89244 1.18523
-1.63189 -2.66444 0.137468
-1.27718 -2.12453 0.72508
-1.06363 -1.53767 1.63756
-1.80205 -0.876524 2.53918
-0.415921 -0.847809 2.22637
-1.27588 -0.0125877 2.65003
-0.543184 -2.44362 0.131012
-1.83051 -1.28063 2.14587
-1.41264 -2.72487 0.035664
-2.17737 0.483363 2.85961
-1.64113 -2.09976 0.827891
-2.59347 -1.20192 2.29887
-2.62255 -0.698621 2.7889
-1.68832 -2.14497 0.76506
-0.864048 -1.45426 1.72378
-2.48624 -0.78424 2.72795
-1.28342 -0.867345 2.40132
-1.75261 -0.974684 2.44909
-0.91712 -2.22764 0.49731
-0.285188 -1.08326 2.08
-1.07148 0.156111 2.57293
-1.1332 -1.62317 1.52007
-1.15651 -2.47623 0.216756
-2.04844 -1.59363 1.71561
-1.22816 -1.61244 1.55449
-0.584393 0.0675826 2.40924
-2.34606 -0.649691 2.79744
-2.4034 -0.180915 2.95037
-0.315563 -0.95225 2.16487
-1.00586 -2.66609 -0.0193929
-0.718544 -0.263533 2.44827
-0.12452 -2.32873 0.28246
-2.30106 -2.49101 0.353528
-2.14183 0.481211 2.85433
-1.37105 -1.14515 2.19314
-1.89252 -2.31168 0.553335
-2.04961 -2.12422 0.823987
-1.67395 -0.249651 2.76422
-0.813122 -1.77395 1.22803
-0.649226 -2.92045 -0.314218
-1.8022 -2.71049 0.13387
-0.710904 -0.227214 2.44908
-0.345101 -2.99595 -0.427286
-0.745915 0.164927 2.4561
-1.1527 -1.88417 1.09521
-1.59606 -1.29726 2.07556
-1.58985 -0.386792 2.70928
-0.515422 -2.55889 -0.0148534
-1.53279 -0.627197 2.60813
-1.36807 -0.139976 2.67591
-0.819351 -1.13294 2.08247
-1.31264 -0.0346783 2.66246
-0.224713 -1.01916 2.12585
-1.38259 -1.54226 1.69237
-1.9444 -1.90242 1.18231
-1.38575 -2.60123 0.138749
-1.94171 0.175205 2.8581
-1.5159 0.334265 2.71383
-0.220162 -0.0986536 2.31975
-1.27756 0.314367 2.63365
-1.50818 -2.57107 0.196582
-0.0233301 -2.7833 -0.290872
-1.70942 -1.26557 2.13953
-2.13576 -0.813314 2.6612
-2.4148 -1.53288 1.80878
-0.0953487 -2.73904 -0.247911
-1.73245 -1.02923 2.39614
-0.16254 -2.28684 0.345733
-2.3968 -1.78066 1.36851
-2.43824 -0.206318 2.95167
-0.237907 -2.54459 -0.0264537
-1.94698 -2.0007 1.01773
-1.00382 -0.493845 2.49169
-1.46951 0.367776 2.69402
-1.51966 -1.89092 1.14996
-1.59588 -0.080154 2.75708
-1.94677 -0.373467 2.81919
-0.966251 -2.4898 0.156286
-2.54426 -0.285242 2.94901
-1.11152 -0.768162 2.41234
-2.54514 -1.55555 1.74323
-2.36052 -0.863145 2.65829
-2.27991 -2.10078 0.843895
-2.06972 0.199132 2.88716
-2.25077 0.157316 2.92713
-0.368545 -2.67196 -0.159265
-2.09611 -1.84463 1.28536
-1.94441 -1.80004 1.3579
-0.771632 -1.47007 1.69062
-2.35911 -1.76431 1.40527
-0.613506 -2.42869 0.161122
-0.727415 -0.424628 2.42764
-2.5521 -0.376934 2.92834
-0.658057 -0.727269 2.31901
-0.256972 -2.54003 -0.0199547
-0.244943 -2.45763 0.0870379
-1.12536 -0.0829802 2.59506
-0.862635 -1.78919 1.20865
-0.213554 -2.31697 0.293891
-0.318371 -1.44114 1.72267
-0.229299 0.110074 2.30051
-0.657643 -2.69666 -0.132247
-0.379261 -0.244939 2.35871
-0.797925 -2.30009 0.369148
-0.827062 -0.504505 2.4369
-0.771119 -1.69041 1.36053
-2.53908 -0.713965 2.77781
-0.468238 -0.437937 2.3612
-2.13695 -2.63657 0.230795
-0.289137 -1.8347 1.12161
-0.526234 -2.75711 -0.214685
-1.02805 -2.77226 -0.105599
-1.70383 -2.65067 0.163924
-0.241447 -1.1167 2.05746
-1.07737 -2.39314 0.299988
-0.914467 0.245959 2.50885
-0.792954 -2.78437 -0.177421
-2.71886 -0.905616 2.62228
-0.611882 -1.10568 2.07665
-1.15142 -1.33828 1.92528
-1.53719 -2.20708 0.649214
-2.4214 -1.74062 1.43616
-1.24318 -2.67214 0.0368823
-2.49131 -1.2507 2.24272
-1.59911 -2.09432 0.830044
-2.50712 -0.973731 2.56921
-1.07174 -2.04831 0.807602
-0.799763 -1.70302 1.34315
-0.769251 -2.23316 0.463194
-0.568282 -2.04397 0.746747
-2.16352 -1.48629 1.89576
-2.25444 -1.76074 1.42524
-1.63245 -1.49903 1.80669
-0.903089 -1.02896 2.18761
-2.60989 -1.11286 2.41159
-1.82251 -2.20861 0.687305
-0.212727 -0.406179 2.31891
-1.30692 -2.67759 0.0485342
-2.25934 -1.31748 2.15265
-1.88656 -1.73333 1.46734
-2.53777 -1.1681 2.34934
-0.164729 0.141366 2.27939
-0.59858 -2.37661 0.228943
-1.12793 -1.59654 1.56042
-1.20056 -2.92195 -0.162236
-2.34752 -1.23933 2.26188
-1.62245 -1.70304 1.48211
-2.07544 -0.665657 2.7388
-1.8939 -1.98515 1.04022
-0.400515 -0.0821014 2.36288
-2.2077 -1.02473 2.49654
-1.16381 -0.0247858 2.61027
-1.63823 -1.4432 1.88934
-0.680877 -1.61694 1.46871
-0.903403 -0.802518 2.33854
-0.615446 -2.68713 -0.132116
-1.70247 -1.45128 1.89014
-2.22455 -2.14277 0.787221
-0.877095 -1.72113 1.32301
-2.23166 0.0391411 2.93109
-2.09571 -1.06694 2.43736
-1.82341 -1.08458 2.36507
-2.41965 -0.203254 2.94982
-0.352985 -1.82936 1.12323
-0.250212 -2.18489 0.507556
-1.30072 -2.32535 0.437839
-2.20062 -2.07715 0.890121
-2.06951 -0.129659 2.89155
-2.12604 -1.80932 1.34651
-0.840993 -2.95427 -0.285718
-0.542841 -1.45825 1.69107
-0.289513 -1.59265 1.51722
-0.779457 0.198255 2.46494
-2.24915 -1.19616 2.31185
-1.98872 -1.91346 1.16553
-1.38853 -1.23443 2.10175
-2.16729 -2.03041 0.967586
-1.68033 -2.05371 0.90621
-0.959508 -1.88884 1.05472
-1.32572 -1.82102 1.23276
-2.13791 -0.387026 2.86303
-2.36114 -2.722 0.170741
-2.60373 -0.320107 2.94491
-0.286126 -2.35251 0.237913
-1.16837 -0.612935 2.50145
-1.98914 -2.30468 0.568691
-2.31624 -2.3038 0.555619
-0.906257 -0.507072 2.45885
-2.29535 -2.14512 0.774568
-1.89244 -0.384286 2.80144
-1.38066 -0.957234 2.36358
-0.107126 -2.23688 0.436108
-1.59245 -2.46148 0.329792
-2.70517 -0.725602 2.7683
-0.463009 -1.14508 2.03156
-1.27143 -2.46931 0.251741
-3.32626 0.0172983 2.77799
-3.03072 0.555274 2.76197
-3.114 0.0971824 2.87981
-2.5614 -0.0779566 2.97204
-3.39334 -0.0207593 2.73202
-2.57023 0.0802262 2.96776
-3.20073 0.321728 2.77902
-2.87863 0.172895 2.93409
-3.62326 1.28609 1.58946
-3.53751 0.0395203 2.58891
-2.60975 -0.121917 2.97218
-3.15121 -0.159299 2.87813
-3.66419 0.953607 1.87943
-2.9562 -0.311116 2.91818
-3.00484 0.134108 2.91118
-3.32351 0.63232 2.53988
-2.95913 -0.407921 2.89104
-3.62291 1.11334 1.77894
-3.16559 0.877058 2.49265
-3.62324 0.843862 2.04208
-2.82993 -0.296998 2.942
-3.54065 1.11939 1.88893
-3.39703 0.0601468 2.7193
-2.64168 0.266441 2.9407
-3.06677 0.740635 2.64471
-3.51377 0.634881 2.3511
-2.94345 0.507848 2.8156
-3.39225 0.0212443 2.72869
-3.75779 0.872149 1.80799
-3.4358 0.426786 2.55977
-3.5038 -0.11363 2.63269
-3.05589 0.167205 2.88828
-2.50778 0.391753 2.91259
-3.11656 0.491909 2.7523
-3.02391 0.661683 2.7109
-3.68785 0.451817 2.24192
-3.69215 0.124767 2.37042
-3.58569 0.381474 2.42024
-3.52225 0.634936 2.34123
-3.08327 0.729445 2.64256
-3.24021 0.570337 2.63961
-3.28638 0.937986 2.34779
-3.95599 0.315081 1.78987
-3.84855 0.857364 1.66246
-3.69892 0.887052 1.88941
-3.39395 0.839095 2.32527
-3.79889 0.674982 1.90577
-3.14975 -0.349093 2.84599
-3.46607 0.71522 2.34599
-3.33272 0.952405 2.29198
