ply
format ascii 1.0
comment Created by Open3D
element vertex 400
property double x
property double y
property double z
end_header
0.492109 1.79316 2.59042
2.50741 0.353416 1.51762
0.880924 1.5682 2.08869
1.60504 1.28645 0.721092
0.713684 1.44902 2.84663
0.672211 1.60001 2.622
1.08092 1.64986 1.04588
1.16137 1.26283 2.19906
2.48885 0.36536 1.64638
2.94609 0.209872 0.998537
0.235009 2.0547 2.55792
1.35752 1.21693 1.58868
2.06397 0.761773 0.891397
2.30503 0.456446 1.5242
2.0138 0.664638 1.41622
-0.0684652 2.23335 2.78643
0.403939 1.92117 2.48195
2.58925 0.40527 0.800714
0.570903 1.96863 1.62923
2.1456 0.763048 0.729866
1.33815 1.13609 2.03185
1.60103 0.927116 1.8981
2.07013 0.627973 1.37585
1.24932 1.32096 1.60113
0.649761 1.89696 1.63584
1.26422 1.15109 2.26195
1.6064 1.29429 0.705373
1.86136 0.679717 2.49027
1.77091 0.955296 1.09423
1.68842 0.756221 2.6445
0.377475 1.77973 2.85154
1.93076 0.758269 1.28144
1.2989 1.4872 0.926028
2.23555 0.50936 1.38935
1.38012 1.35277 1.05951
1.3908 1.25537 1.31966
2.46743 0.391045 1.88386
1.63555 0.793155 2.60292
0.59763 1.84358 2.10731
1.18656 1.55219 1.03694
1.862 0.883425 1.05487
1.18023 1.07436 2.75368
2.48156 0.415298 0.998234
1.86026 0.765809 1.54874
2.29678 0.459181 1.57644
0.943361 1.76801 1.07102
1.45459 0.923584 2.55456
1.66149 1.00098 1.28407
1.7881 0.682566 2.84523
1.57077 1.05752 1.39657
2.84783 0.271984 0.826705
1.19818 1.51634 1.10506
2.12823 0.736704 0.817753
2.86601 0.221814 1.14258
2.53736 0.43089 0.81762
1.39709 1.06013 2.13767
0.799452 1.45418 2.66815
0.396856 1.7309 2.90077
1.03517 1.53677 1.59311
1.1659 1.47962 1.32037
2.42146 0.558328 0.694383
1.07889 1.17954 2.70285
1.37778 1.34595 1.08398
0.309652 1.84841 2.84922
1.21701 1.04304 2.75899
2.45386 0.457117 0.903551
1.57604 0.807637 2.71721
1.03514 1.40277 2.13331
2.07597 0.663818 1.17123
1.55719 0.853027 2.54736
1.56517 0.861599 2.47081
1.01337 1.69833 1.08917
0.705533 1.65824 2.37913
2.90065 0.237751 0.898975
2.32285 0.45322 1.40507
0.802241 1.4339 2.70709
0.433465 1.93737 2.34397
0.14305 2.1685 2.46606
1.77471 0.774596 1.9966
1.31979 0.993955 2.66851
1.85146 0.696457 2.30823
1.81325 0.689299 2.67728
2.04346 0.594607 2.08368
1.50155 0.952431 2.23433
2.46454 0.373715 1.4523
0.821588 1.72766 1.67234
0.842038 1.56515 2.23965
1.98632 0.634453 1.91436
0.745931 1.70743 2.07089
0.585649 1.65351 2.69514
2.23348 0.506545 2.18746
1.94293 0.706109 1.50553
1.34514 1.4261 0.962732
2.20271 0.568382 1.16071
1.88961 0.674068 2.31453
0.689981 1.74405 2.14243
2.19236 0.51681 1.66642
0.329128 1.91131 2.68857
1.22445 0.972706 2.92022
2.11881 0.559925 1.71463
1.88916 0.682632 2.16134
1.91621 0.674925 2.0039
1.68266 1.1221 0.889438
0.687579 1.65826 2.43192
0.340732 2.04052 2.28729
1.66301 0.833689 2.19271
2.3236 0.446297 1.51445
1.14622 1.16509 2.58123
1.39201 1.00958 2.39137
1.76525 1.05386 0.861195
0.779966 1.77221 1.65188
2.26853 0.482896 1.44756
2.39252 0.521654 0.833635
1.50246 1.25261 1.00305
1.35571 0.983781 2.60902
0.757065 1.52286 2.60512
2.10429 0.610958 1.3229
2.28819 0.585784 0.869301
1.46704 1.44331 0.687418
1.10094 1.0892 2.87004
1.25462 1.41122 1.25437
0.00933035 2.22067 2.65667
1.96217 0.765899 1.14442
1.85255 0.646967 2.97016
2.07382 0.584723 2.48476
1.08901 1.73916 0.801406
1.50697 1.12463 1.37628
0.058205 2.10224 2.82535
2.20854 0.520134 2.24206
-0.0528719 2.23236 2.75888
2.13415 0.560501 2.44402
1.83107 0.679281 2.7009
0.821076 1.57276 2.28444
1.04366 1.63023 1.21566
0.536213 1.88698 2.16971
1.44518 1.11544 1.65919
0.895006 1.63681 1.7543
2.18645 0.543565 1.37891
0.537555 1.95203 1.87601
2.4436 0.518947 0.747556
1.94487 0.984206 0.664674
0.39269 2.05936 1.99381
0.938681 1.79921 0.987568
1.33942 0.98669 2.64262
2.30347 0.454117 1.72534
2.15728 0.773181 0.69093
2.41028 0.45019 1.04221
1.48887 1.39602 0.731847
2.22873 0.499189 1.57109
1.36674 0.942211 2.72477
-0.125783 2.23511 2.88211
0.559855 1.90629 1.99481
0.570631 1.95622 1.6982
1.20653 1.18664 2.32832
1.21533 1.48776 1.13906
2.77158 0.304302 0.823782
1.53832 1.35594 0.716047
0.0946719 2.20141 2.49668
1.43302 1.46073 0.714786
0.342388 2.0599 2.20352
0.827183 1.68169 1.84777
1.76711 1.07329 0.817298
1.46787 1.4268 0.714235
1.33183 0.987359 2.65996
1.55165 1.02841 1.5971
0.426764 1.76503 2.78944
1.30763 1.52876 0.816834
1.87699 0.641603 2.95437
0.859272 1.56881 2.16637
1.72893 1.13313 0.774438
0.454231 1.94966 2.2295
0.515822 1.70029 2.74248
1.02776 1.54463 1.59112
0.664333 1.79623 2.0367
1.19048 1.15033 2.50603
1.02723 1.35637 2.32665
1.40787 1.03219 2.22661
2.07443 0.577915 2.0359
1.21751 1.37972 1.49541
1.92619 0.770863 1.2446
1.23356 1.22644 2.06744
1.72155 0.961074 1.22462
1.48477 1.16964 1.2942
1.99848 0.634257 1.78792
1.41078 0.984796 2.43347
2.11756 0.566953 1.61401
2.87124 0.227244 1.04292
2.69802 0.34383 0.807438
0.701124 1.85407 1.61527
2.73721 0.325863 0.803228
0.570774 1.78434 2.40371
0.478982 1.99723 1.91662
0.964154 1.78141 0.97423
1.31967 0.990401 2.68038
1.74016 0.739736 2.54849
1.63912 0.824837 2.3803
0.925342 1.26008 2.82799
1.35507 1.1449 1.91793
2.54198 0.379999 0.997429
0.589868 1.93268 1.7312
0.538442 1.9229 2.01065
1.53784 0.945023 2.10833
1.62144 0.826253 2.45127
1.83419 0.904223 1.06954
1.55323 0.879482 2.41806
1.10541 1.05664 2.93067
1.70599 0.733801 2.7351
1.6312 1.09038 1.09354
1.13093 1.40517 1.73955
0.819565 1.37034 2.80388
1.50039 1.28926 0.921616
1.75789 0.715486 2.67864
2.29426 0.471932 1.38938
2.41202 0.537849 0.755959
0.938971 1.72005 1.24775
0.565529 1.59697 2.84282
2.01928 0.727652 1.10633
1.80355 0.665089 2.94251
2.36583 0.434576 1.93663
0.631406 1.83523 2.00719
2.02383 0.60406 2.20929
1.84325 0.756635 1.70518
1.60496 1.31617 0.671536
1.23192 1.12358 2.47399
1.88016 0.767666 1.44304
1.31755 1.26696 1.54592
0.629487 1.5512 2.81099
0.795662 1.37502 2.83817
2.10062 0.623126 1.27067
1.62449 1.06925 1.17528
1.52388 0.93294 2.24275
1.42597 1.00124 2.30152
1.67777 1.22229 0.706452
0.455768 1.74974 2.76332
1.41064 1.01844 2.28072
1.07579 1.10871 2.87199
1.71764 0.706377 2.8783
0.484206 1.92869 2.20081
1.22356 1.46262 1.19005
1.35127 1.25632 1.45746
1.46491 1.01357 2.07257
2.33905 0.462233 1.23061
1.93592 0.630325 2.87205
1.00973 1.35023 2.40158
2.47687 0.373357 1.70416
1.28226 1.15526 2.17589
1.33076 1.2192 1.68954
1.92473 0.796592 1.15155
0.216753 2.07579 2.54637
1.62891 0.847067 2.27682
0.419022 2.02553 2.04533
1.52699 0.769869 2.97794
1.32287 1.33105 1.29336
1.76969 0.830379 1.61444
1.76665 0.721178 2.58609
1.66332 1.14054 0.891035
1.31568 0.9622 2.77704
2.02383 0.889541 0.698885
2.56853 0.404961 0.839754
0.844287 1.5939 2.12955
0.179848 2.01144 2.78038
2.04816 0.592158 2.06975
0.10304 2.13518 2.66394
1.52273 1.09601 1.42687
2.46033 0.405199 1.1167
1.85815 0.673362 2.61714
1.143 1.21308 2.4398
2.07675 0.579115 2.3143
1.41196 0.985632 2.42565
1.12383 1.07173 2.86818
1.11381 1.65358 0.952434
0.903384 1.62718 1.75994
1.75257 0.875159 1.45597
1.97234 0.623644 2.70964
1.93428 0.936016 0.769157
1.75968 0.686725 2.89714
0.582123 1.96584 1.59056
1.59912 0.747376 2.93402
2.58608 0.328306 1.19009
1.09336 1.56493 1.27336
1.65136 0.884541 1.89911
0.519788 1.74464 2.63962
1.60874 0.802631 2.64197
1.13755 1.26547 2.27453
2.4091 0.402155 1.44811
0.260186 2.07415 2.42994
0.603139 1.86334 2.00298
0.91212 1.63905 1.67346
1.73852 0.753791 2.43042
2.65655 0.290658 1.42744
1.84024 0.676469 2.68605
2.7094 0.270523 1.38057
0.931014 1.28708 2.76114
1.31604 1.21286 1.7796
2.47568 0.370965 1.64691
0.382206 1.83563 2.7381
2.25432 0.490888 1.45812
2.07256 0.585046 2.4792
1.14786 1.54585 1.16328
0.139947 2.15137 2.52922
2.18 0.528216 1.59074
0.819985 1.65561 1.98512
2.2073 0.606733 0.995646
0.302947 2.09854 2.1893
2.3099 0.488019 1.18713
1.65714 0.905625 1.73901
0.00214392 2.20218 2.7186
0.945895 1.57939 1.78333
2.00395 0.727107 1.15573
0.574631 1.8058 2.32489
2.35391 0.523199 0.910787
0.942263 1.23991 2.8379
1.31028 1.11058 2.25797
0.95121 1.73262 1.16398
0.878671 1.4476 2.49023
1.0824 1.34659 2.17017
1.37315 0.864716 2.9449
1.85373 0.98769 0.819792
1.94794 0.942527 0.732283
1.64961 0.708992 3.00615
0.102887 2.02028 2.89845
0.241255 2.02743 2.61423
2.28064 0.501493 1.22418
0.826235 1.80312 1.32817
1.21161 1.45107 1.264
1.16682 1.27472 2.13174
2.5453 0.351837 1.16094
2.66016 0.292865 1.51433
2.51803 0.466413 0.753257
1.20429 1.29465 1.89789
1.08708 1.29063 2.35472
1.91202 0.646263 2.69472
1.86273 0.957722 0.865169
1.83742 0.682103 2.62899
1.54645 1.29642 0.81032
2.01273 0.609098 2.3885
1.56918 0.973974 1.78959
2.14462 0.544238 1.70623
2.05395 0.602304 1.71087
2.96274 0.221674 0.883967
1.51674 1.21347 1.06693
1.21751 1.54073 0.988508
0.51252 1.80209 2.51637
0.747583 1.47995 2.72244
0.794615 1.54523 2.4494
1.42565 1.26485 1.17847
1.78377 0.925799 1.1478
1.54155 0.930032 2.17801
1.86067 0.732497 1.79361
1.21099 1.18105 2.33395
1.50047 0.986638 2.0519
2.71993 0.287157 1.01794
1.28943 1.10327 2.36336
0.404048 2.01567 2.15216
1.06265 1.22624 2.6188
0.534478 1.89083 2.16122
1.40382 1.45974 0.768573
0.410335 1.74806 2.84961
2.22499 0.591567 1.00074
0.897841 1.68351 1.54508
1.0779 1.57533 1.28937
1.28337 1.45109 1.05384
1.13733 1.30397 2.12855
2.03351 0.838299 0.779874
1.50368 1.36372 0.763645
1.07066 1.42399 1.91001
1.98824 0.882189 0.775391
0.409297 1.7872 2.78042
1.95822 0.86287 0.876918
1.75902 0.79622 1.91289
0.624504 1.93859 1.53755
0.320024 1.90932 2.71211
1.7705 0.763542 2.1306
0.887638 1.27865 2.85845
-0.0989018 2.22819 2.85126
2.60704 0.314556 1.56332
1.76552 0.798391 1.85533
1.19958 1.06754 2.73026
1.64909 1.02265 1.24963
0.600253 1.68416 2.59304
2.15092 0.556749 1.47612
0.483235 1.82803 2.52441
0.494401 1.95372 2.05712
2.4491 0.382037 1.63073
1.19069 1.24012 2.17872
2.23584 0.62461 0.874627
2.20181 0.515989 1.56705
0.319898 1.9953 2.50051
2.24235 0.565134 1.04923
0.767855 1.65343 2.19051
0.755058 1.45905 2.75062
2.55056 0.361381 1.07253
1.69233 1.05017 1.03994
2.28897 0.466523 1.91272
0.217505 2.14576 2.30931
1.56948 1.12067 1.18275
0.880044 1.50658 2.30854
1.84226 0.711921 2.16768
2.4582 0.436541 0.969488
1.68183 1.12548 0.883879
