ply
format ascii 1.0
comment Created by Open3D
element vertex 250
property double x
property double y
property double z
end_header
2.31864 -2.06853 0.247768
2.00656 -0.381379 -1.39627
1.00938 -2.25815 -0.335011
2.70049 -1.72944 0.156939
1.58964 -2.68194 0.247889
1.65157 -1.96945 -0.253245
2.02674 -1.13873 -0.879172
3.1011 -0.338437 -0.855418
1.85418 -0.252063 -1.53198
2.68943 0.572923 -1.04375
0.746021 -2.3596 -0.399026
2.90735 -0.834584 -0.668056
1.36495 -2.74463 0.16029
3.4511 1.01096 -0.468818
1.98913 -1.95561 -0.0814745
3.57137 -0.796855 -0.256521
3.8612 -0.185557 -0.447834
1.98816 -2.02077 -0.0184588
1.92475 -1.0149 -1.04795
3.72801 -0.269883 -0.516947
2.62112 -0.313251 -1.09426
3.01534 -0.451647 -0.850567
1.2434 -2.09249 -0.355308
1.68489 -0.503483 -1.5776
2.46829 0.734688 -1.07711
2.01102 -1.25957 -0.773784
1.2654 -2.43113 -0.0678096
2.82213 -1.27316 -0.306148
2.10361 -1.24982 -0.733178
2.00521 0.656102 -1.30353
3.65433 -0.107785 -0.621258
3.7487 0.376328 -0.565084
1.74955 -0.358274 -1.58232
1.01781 -2.66114 -0.0506173
2.16561 0.33586 -1.33309
0.519064 -2.16531 -0.748534
2.2147 -2.52678 0.579193
3.42122 1.01115 -0.488879
2.57961 -0.644548 -0.964972
2.02025 -2.25877 0.219544
2.29547 -2.02238 0.181515
3.08713 0.335706 -0.928592
1.59579 -1.44976 -0.817179
0.584069 -2.94744 -0.143955
1.71979 -2.74463 0.349229
2.15664 0.371632 -1.32882
0.289928 -3.0188 -0.283113
2.14688 0.745226 -1.2048
1.77512 -1.62636 -0.531245
2.68731 -0.845253 -0.776001
3.00236 0.198291 -0.981799
0.641844 -2.50652 -0.345212
2.91838 -0.0532647 -1.0126
2.78867 0.448457 -1.0363
2.09227 -0.605678 -1.24383
2.72741 0.551338 -1.0345
1.66285 -0.423467 -1.63218
2.30224 -1.16133 -0.710799
2.42769 -1.70224 -0.0805723
1.39932 -2.59561 0.103286
3.30528 0.740015 -0.705088
2.87521 0.897309 -0.838212
1.69079 0.5105 -1.52318
2.64614 0.881248 -0.942597
1.5258 -2.56377 0.150533
0.115697 -2.74504 -0.532237
2.81083 -0.809352 -0.738605
3.42456 -0.279478 -0.706581
3.15148 -1.22774 -0.116247
0.193192 -2.69851 -0.503589
2.97127 -0.516088 -0.841056
0.584576 -2.11203 -0.757101
2.87602 -1.58216 0.116256
3.77832 0.34876 -0.550117
0.42465 -2.46724 -0.514436
2.33228 -1.8411 0.0108973
2.43178 0.0976364 -1.23975
2.824 0.928825 -0.845434
2.08681 -1.656 -0.332059
3.00636 0.504086 -0.928682
3.34047 0.203825 -0.822742
1.08461 -2.44078 -0.153013
3.86427 0.261522 -0.500329
2.48912 -0.19754 -1.18751
3.20876 -1.28068 0.00911679
3.59638 -0.351234 -0.571175
2.47878 -2.01841 0.32423
3.41779 0.757524 -0.635537
3.58403 0.709569 -0.556836
0.449055 -2.63861 -0.369647
2.60281 -1.63475 -0.0386925
2.5318 -1.55674 -0.177021
1.8354 -1.02944 -1.08915
2.87007 -1.55267 0.0700626
0.816886 -2.34444 -0.370337
2.17547 0.175175 -1.3563
3.86614 0.167358 -0.505408
2.08382 -0.136698 -1.40669
0.442721 -2.46309 -0.505342
0.495064 -2.35403 -0.566559
2.54792 0.506263 -1.12226
1.62184 -1.47471 -0.775254
0.592089 -2.16018 -0.695269
1.5134 -0.946147 -1.40009
1.66345 0.704121 -1.44712
0.686086 -2.68488 -0.206571
1.85071 0.364557 -1.48638
1.07778 -2.18417 -0.362157
2.26452 0.0909113 -1.31936
1.6422 -1.3296 -0.915702
3.79293 -0.194601 -0.498675
1.93906 0.171297 -1.48223
2.02651 -2.68231 0.519382
1.13957 -1.48244 -1.10067
0.539933 -2.75143 -0.250484
0.989126 -2.78838 -0.00389603
1.65945 -2.66905 0.279906
1.64082 -0.537058 -1.59929
1.25182 -2.32088 -0.155877
2.29937 0.819603 -1.11007
0.767141 -2.79507 -0.109968
3.84601 -0.438734 -0.323115
1.93004 -0.559677 -1.36787
2.2599 -0.879136 -0.971316
1.80556 -2.09592 -0.0520772
2.93451 -1.52808 0.0953312
1.23319 -2.67628 0.0629893
3.46313 -0.848161 -0.296749
1.95846 -1.94547 -0.108978
3.65958 -0.496363 -0.442339
1.5435 -1.8529 -0.425185
1.65363 -1.34934 -0.888114
1.11079 -2.09169 -0.429278
1.12571 -1.81307 -0.709875
3.01502 -1.13359 -0.329307
2.80424 -1.53301 -0.0114667
2.55985 -1.11489 -0.616705
2.213 -0.486376 -1.23534
3.6481 -0.68282 -0.301395
2.0446 -2.11662 0.10697
1.71651 0.216706 -1.61066
1.28917 -2.68495 0.0949158
3.23722 -0.912429 -0.40267
2.553 -1.45728 -0.274146
3.55907 -0.745063 -0.319446
1.59799 0.735043 -1.46591
0.844604 -2.2747 -0.413951
2.03067 -1.22261 -0.798547
1.09701 -2.96484 0.108346
3.36662 -0.817204 -0.401161
2.36143 -1.39695 -0.448937
3.41472 -0.110909 -0.760904
2.30555 -1.81464 -0.0354777
1.85251 0.519336 -1.43137
3.39284 -0.533831 -0.600361
2.58067 0.562096 -1.09216
2.61239 -1.03969 -0.656265
1.63758 -1.22066 -1.03127
2.28838 -0.228841 -1.28058
0.653537 -2.67136 -0.231653
2.66193 -1.05386 -0.61705
2.40458 -2.0682 0.316777
1.70035 -1.38013 -0.828257
3.58452 0.599514 -0.6041
3.27454 -0.578653 -0.643097
3.02493 -0.586897 -0.77464
3.76284 0.353116 -0.560125
1.18796 -1.48351 -1.05867
0.745488 -1.97974 -0.786665
1.50237 -2.24183 -0.0891016
2.44706 -1.97507 0.246142
3.45456 0.444045 -0.727745
2.66154 -1.58751 -0.0528208
0.750015 -2.99195 -0.0479812
1.66288 -0.994311 -1.23574
1.37323 -1.14376 -1.31467
2.17436 0.776044 -1.18012
3.32102 -0.75218 -0.489072
2.4511 -1.72194 -0.0427371
2.54226 -0.756535 -0.913098
2.46783 -1.90592 0.182238
2.06492 -1.8944 -0.0987915
1.60426 -1.62178 -0.630089
1.9882 -1.54661 -0.498386
3.51388 0.182918 -0.732542
2.16427 -2.80354 0.685191
3.90981 0.220886 -0.468019
0.613629 -2.21686 -0.617894
2.5739 -0.0307461 -1.17138
2.10203 -2.25792 0.2737
2.33872 -2.29449 0.496869
2.33852 0.0861924 -1.28384
2.44966 -2.0812 0.371346
3.28925 0.194293 -0.848607
2.6787 -0.419567 -1.02837
0.596882 -2.03402 -0.843687
1.66468 -2.43156 0.141048
3.9125 -0.225513 -0.386588
1.79302 -0.594175 -1.44391
1.37374 -2.42694 -0.0155992
4.30772 0.423829 0.213333
4.01988 0.964998 0.177163
4.20677 0.54982 0.0242819
3.87071 0.464375 -0.449331
4.33193 0.368018 0.279361
3.85814 0.613698 -0.397729
4.18272 0.728478 0.212975
4.05785 0.661347 -0.147378
3.62263 1.28583 1.59111
4.34033 0.372059 0.491044
3.9116 0.41733 -0.429739
4.26013 0.300032 -0.0196255
3.87719 1.04183 1.32284
4.15576 0.185759 -0.216423
4.14156 0.604952 -0.0592149
4.08641 0.948325 0.546323
4.15025 0.0854573 -0.221511
3.76404 1.17179 1.41015
3.91177 1.18614 0.54278
3.9641 0.98505 1.15137
4.07516 0.218791 -0.311932
3.77357 1.21587 1.28026
4.31801 0.44163 0.312657
3.87478 0.777205 -0.28153
3.95113 1.10695 0.333785
4.10552 0.87999 0.8048
3.99437 0.943156 0.069396
4.32459 0.407434 0.292363
3.90916 0.934846 1.41246
4.20491 0.74536 0.550001
4.35951 0.240815 0.396626
4.16146 0.625149 -0.000724473
3.74301 0.903402 -0.315219
4.08451 0.892846 0.222933
3.97039 1.05373 0.237619
4.1837 0.657207 0.946187
4.30475 0.378512 0.769636
4.23086 0.648714 0.73432
4.10542 0.876494 0.817331
3.96325 1.09395 0.343057
4.0955 0.924612 0.404614
3.90142 1.19274 0.740611
4.10365 0.376246 1.404
3.88368 0.871916 1.57065
3.91665 0.977238 1.32046
3.97763 1.08086 0.800048
4.02428 0.768341 1.31681
4.25769 0.109833 -0.0492119
4.05808 0.960439 0.798989
3.89823 1.18664 0.81425
