ply
format ascii 1.0
comment Created by Open3D
element vertex 400
property double x
property double y
property double z
end_header
-0.919981 1.61593 2.59042
1.5231 2.02291 1.51762
-0.48598 1.73179 2.08869
0.225277 2.0446 0.721092
-0.519964 1.52927 2.84663
-0.656054 1.6067 2.622
-0.402301 1.93096 1.04588
-0.0717431 1.71416 2.19906
1.50153 2.01823 1.64638
1.9348 2.2316 0.998537
-1.28672 1.61907 2.55792
0.0994121 1.82041 1.58868
0.920794 1.9981 0.891397
1.30714 1.95266 1.5242
0.954 1.89394 1.41622
-1.62763 1.53081 2.78643
-1.07284 1.6441 2.48195
1.54431 2.11745 0.800714
-0.988344 1.79572 1.62923
0.97761 2.05672 0.729866
0.142878 1.74955 2.03185
0.476526 1.78767 1.8981
1.01976 1.90785 1.37585
-0.0506571 1.81747 1.60113
-0.881904 1.8008 1.63584
0.079995 1.70788 2.26195
0.220695 2.0511 0.705373
0.835546 1.79681 2.49027
0.576723 1.92772 1.09423
0.659165 1.72862 2.6445
-0.991548 1.52538 2.85154
0.829076 1.90143 1.28144
-0.133148 1.97007 0.926028
1.2206 1.94094 1.38935
0.0193394 1.93244 1.05951
0.0957635 1.87113 1.31966
1.46823 2.02125 1.88386
0.595667 1.71736 2.60292
-0.88102 1.7262 2.10731
-0.258539 1.93659 1.03694
0.691961 1.94131 1.05487
0.0748614 1.59423 2.75368
1.46107 2.04839 0.998234
0.773893 1.85691 1.54874
1.29938 1.94876 1.57644
-0.583116 1.91723 1.07102
0.375481 1.68163 2.55456
0.467051 1.88266 1.28407
0.781728 1.74702 2.84523
0.362923 1.85848 1.39657
1.8214 2.20604 0.826705
-0.224973 1.91946 1.10506
0.98396 2.02582 0.817753
1.86973 2.18342 1.14258
1.4895 2.09887 0.81762
0.238267 1.73751 2.13767
-0.462964 1.59356 2.66815
-0.943309 1.50455 2.90077
-0.354685 1.81863 1.59311
-0.221834 1.87067 1.32037
1.31743 2.10703 0.694383
-0.0711703 1.59694 2.70285
0.0225072 1.92597 1.08398
-1.08807 1.52598 2.84922
0.123015 1.5981 2.75899
1.41191 2.05837 0.903551
0.543341 1.68551 2.71721
-0.259954 1.72386 2.13331
0.998541 1.93732 1.17123
0.497916 1.70428 2.54736
0.497499 1.71598 2.47081
-0.48434 1.91747 1.08917
-0.673668 1.67144 2.37913
1.88295 2.21919 0.898975
1.32203 1.96298 1.40507
-0.446651 1.58119 2.70709
-1.06342 1.67644 2.34397
-1.43221 1.63451 2.46606
0.707185 1.80263 1.9966
0.230397 1.63606 2.66851
0.816708 1.80165 2.30823
0.794753 1.76957 2.67728
1.02449 1.86539 2.08368
0.388286 1.73523 2.23433
1.47844 2.00695 1.4523
-0.640688 1.80259 1.67234
-0.511316 1.70214 2.23965
0.955916 1.85317 1.91436
-0.679883 1.73479 2.07089
-0.755091 1.58332 2.69514
1.22112 1.93749 2.18746
0.874564 1.87315 1.50553
-0.0572474 1.95957 0.962732
1.15565 1.95946 1.16071
0.859517 1.81279 2.31453
-0.74534 1.72112 2.14243
1.18479 1.91567 1.66642
-1.11877 1.58423 2.68857
0.178007 1.55362 2.92022
1.1023 1.89416 1.71463
0.853146 1.81853 2.16134
0.877725 1.83221 2.0039
0.396376 1.98326 0.889438
-0.686374 1.65876 2.43192
-1.20193 1.6838 2.28729
0.586418 1.76543 2.19271
1.32745 1.95861 1.51445
-0.0133431 1.63434 2.58123
0.270419 1.69818 2.39137
0.503029 1.99341 0.861195
-0.70162 1.80466 1.65188
1.26263 1.94555 1.44756
1.3229 2.06063 0.833635
0.176671 1.94812 1.00305
0.262994 1.65427 2.60902
-0.541495 1.61215 2.60512
1.05594 1.91997 1.3229
1.20379 2.03221 0.869301
0.0167796 2.05793 0.687418
0.00830143 1.54866 2.87004
-0.110733 1.88503 1.25437
-1.56365 1.57685 2.65667
0.845891 1.92903 1.14442
0.852474 1.76742 2.97016
1.05295 1.87988 2.48476
-0.459725 1.99982 0.801406
0.270355 1.86082 1.37628
-1.44535 1.52767 2.82535
1.19389 1.92947 2.24206
-1.6159 1.54113 2.75888
1.11274 1.90541 2.44402
0.814439 1.77509 2.7009
-0.531518 1.6927 2.28444
-0.414768 1.89073 1.21566
-0.955139 1.71346 2.16971
0.233161 1.81063 1.65919
-0.524532 1.79026 1.7543
1.1617 1.93042 1.37891
-1.00018 1.7604 1.87601
1.36093 2.09483 0.747556
0.679289 2.07117 0.664674
-1.17851 1.73386 1.99381
-0.608487 1.93598 0.987568
0.249418 1.64481 2.64262
1.30769 1.94991 1.72534
0.978706 2.07215 0.69093
1.38599 2.02266 1.04221
0.0656549 2.03992 0.731847
1.22297 1.92893 1.57109
0.300188 1.63268 2.72477
-1.6694 1.49152 2.88211
-0.95207 1.74382 1.99481
-0.97976 1.78675 1.6982
0.0140644 1.69223 2.32832
-0.192637 1.91137 1.13906
1.74463 2.17498 0.823782
0.128962 2.04655 0.716047
-1.48969 1.62358 2.49668
-0.0195939 2.04618 0.714786
-1.21446 1.69867 2.20352
-0.60423 1.77404 1.84777
0.490605 2.00846 0.817298
0.0290409 2.04683 0.714235
0.243577 1.63991 2.65996
0.369987 1.82438 1.5971
-0.9463 1.54983 2.78944
-0.156363 2.00564 0.816834
0.873553 1.78092 2.95437
-0.501721 1.71691 2.16637
0.421294 2.02378 0.774438
-1.05743 1.69981 2.2295
-0.837547 1.56703 2.74248
-0.365482 1.81895 1.59112
-0.800374 1.73988 2.0367
0.0283903 1.6552 2.50603
-0.232737 1.68545 2.32665
0.265646 1.72539 2.22661
1.05819 1.87549 2.0359
-0.1147 1.83652 1.49541
0.816942 1.90711 1.2446
0.0050346 1.73948 2.06744
0.537741 1.8969 1.22462
0.222831 1.87695 1.2942
0.964649 1.86162 1.78792
0.301213 1.69393 2.43347
1.09645 1.89824 1.61401
1.86959 2.19096 1.04292
1.66466 2.15091 0.807438
-0.815259 1.8068 1.61527
1.70508 2.16592 0.803228
-0.858124 1.66532 2.40371
-1.07356 1.75095 1.91662
-0.57789 1.94141 0.97423
0.232829 1.63347 2.68038
0.707404 1.75355 2.54849
0.575783 1.74228 2.3803
-0.236697 1.54533 2.82799
0.148613 1.76774 1.91793
1.52875 2.06615 0.997429
-0.94951 1.78371 1.7312
-0.978961 1.74043 2.01065
0.419187 1.75565 2.10833
0.562284 1.73078 2.45127
0.657588 1.93635 1.06954
0.476413 1.72019 2.41806
0.0344856 1.5288 2.93067
0.687442 1.72519 2.7351
0.382417 1.92444 1.09354
-0.193917 1.79329 1.73955
-0.389453 1.54849 2.80388
0.149291 1.97257 0.921616
0.737088 1.74894 2.67864
1.28858 1.95599 1.38938
1.32524 2.08587 0.755959
-0.552307 1.88021 1.24775
-0.729338 1.52912 2.84282
0.91332 1.94238 1.10633
0.805013 1.74559 2.94251
1.3656 1.98018 1.93663
-0.851229 1.74417 2.00719
1.00393 1.8582 2.20929
0.768356 1.8384 1.70518
0.204205 2.06555 0.671536
0.0766079 1.66559 2.47399
0.786649 1.87229 1.44304
0.0357725 1.82753 1.54592
-0.651747 1.54198 2.81099
-0.409669 1.53491 2.83817
1.04474 1.92598 1.27067
0.392614 1.90476 1.17528
0.417858 1.73723 2.24275
0.300329 1.71629 2.30152
0.322073 2.05065 0.706452
-0.914975 1.55953 2.76332
0.277327 1.71762 2.28072
-0.023278 1.54467 2.87199
0.715069 1.71404 2.8783
-1.0214 1.70617 2.20081
-0.169041 1.89941 1.19005
0.0671398 1.84385 1.45746
0.319146 1.75255 2.07257
1.32711 1.98081 1.23061
0.923199 1.81461 2.87205
-0.24077 1.66874 2.40158
1.48741 2.01541 1.70416
0.0898026 1.72359 2.17589
0.0788848 1.8031 1.68954
0.797715 1.92427 1.15155
-1.31454 1.62107 2.54637
0.552844 1.75078 2.27682
-1.13597 1.72856 2.04533
0.535365 1.62412 2.97794
-0.00578413 1.8766 1.29336
0.664192 1.83853 1.61444
0.739259 1.75916 2.58609
0.369661 1.98262 0.891035
0.249948 1.6107 2.77704
0.802064 2.06007 0.698885
1.52988 2.10258 0.839754
-0.530054 1.72406 2.12955
-1.29513 1.54947 2.78038
1.02955 1.86699 2.06975
-1.43694 1.58266 2.66394
0.301737 1.85173 1.42687
1.4532 2.02623 1.1167
0.837773 1.79005 2.61714
-0.049554 1.666 2.4398
1.05899 1.87798 2.3143
0.301461 1.69536 2.42565
0.0368403 1.5525 2.86818
-0.381675 1.95684 0.952434
-0.511804 1.78938 1.75994
0.620423 1.85808 1.45597
0.953675 1.83564 2.70964
0.705876 2.0296 0.769157
0.75869 1.72987 2.89714
-0.978438 1.80168 1.59056
0.602271 1.65922 2.93402
1.59648 2.06078 1.19009
-0.33345 1.87969 1.27336
0.542224 1.79315 1.89911
-0.8661 1.60119 2.63962
0.570006 1.7051 2.64197
-0.0904531 1.69919 2.27453
1.41912 1.98785 1.44811
-1.28266 1.65062 2.42994
-0.891096 1.74406 2.00298
-0.514017 1.80395 1.67346
0.696309 1.76233 2.43042
1.67294 2.08399 1.42744
0.82291 1.77958 2.68605
1.72455 2.10713 1.38057
-0.25178 1.56843 2.76114
0.0729593 1.7882 1.7796
1.48826 2.01289 1.64691
-1.02772 1.56824 2.7381
1.24693 1.94115 1.45812
1.05183 1.87921 2.4792
-0.281421 1.90473 1.16328
-1.42229 1.6202 2.52922
1.16798 1.915 1.59074
-0.59088 1.75051 1.98512
1.13177 1.98982 0.995646
-1.26967 1.69811 2.1893
1.28826 1.97843 1.18713
0.531405 1.81215 1.73901
-1.55566 1.5587 2.7186
-0.447952 1.78565 1.78333
0.902862 1.93115 1.15573
-0.870569 1.68322 2.32489
1.29451 2.03442 0.910787
-0.21047 1.54303 2.8379
0.141209 1.71181 2.25797
-0.55254 1.89775 1.16398
-0.402294 1.64492 2.49023
-0.186811 1.71756 2.17017
0.359514 1.58241 2.9449
0.612383 2.00919 0.819792
0.710932 2.04387 0.732283
0.665119 1.66779 3.00615
-1.3558 1.5013 2.89845
-1.26301 1.6042 2.61423
1.25805 1.96727 1.22418
-0.690766 1.85924 1.32817
-0.169324 1.8828 1.264
-0.0762968 1.72642 2.13174
1.55101 2.04858 1.16094
1.67393 2.08811 1.51433
1.45071 2.11032 0.753257
-0.0638942 1.76701 1.89789
-0.143932 1.68129 2.35472
0.895027 1.80898 2.69472
0.639939 1.99436 0.865169
0.816935 1.78157 2.62899
0.176798 2.01021 0.81032
0.992516 1.85391 2.3885
0.420877 1.79828 1.78959
1.13164 1.90131 1.70623
1.02647 1.87826 1.71087
1.93823 2.25172 0.883967
0.214444 1.93054 1.06693
-0.228551 1.95037 0.988508
-0.911864 1.63668 2.51637
-0.517864 1.57511 2.72244
-0.530768 1.65452 2.4494
0.113703 1.90247 1.17847
0.606676 1.91595 1.1478
0.43241 1.74767 2.17801
0.797737 1.83364 1.79361
0.0211708 1.69143 2.33395
0.363333 1.75865 2.0519
1.72023 2.12633 1.01794
0.131635 1.6919 2.36336
-1.13959 1.711 2.15216
-0.115676 1.61849 2.6188
-0.959084 1.71495 2.16122
-0.0395414 2.02485 0.768573
-0.945918 1.52622 2.84961
1.155 1.9916 1.00074
-0.555553 1.82529 1.54508
-0.351736 1.87612 1.28937
-0.118596 1.93356 1.05384
-0.117832 1.72627 2.12855
0.845141 2.03068 0.779874
0.0989667 2.02756 0.763645
-0.249842 1.76398 1.91001
0.782095 2.0297 0.775391
-0.974322 1.55316 2.78042
0.774529 1.99481 0.876918
0.680802 1.80683 1.91289
-0.929202 1.81238 1.53755
-1.1238 1.57639 2.71211
0.712028 1.79184 2.1306
-0.276486 1.5318 2.85845
-1.6455 1.50563 2.85126
1.62103 2.06588 1.56332
0.683864 1.81296 1.85533
0.0933664 1.6031 2.73026
0.44296 1.88921 1.24963
-0.76644 1.61533 2.59304
1.12725 1.91461 1.47612
-0.950917 1.63431 2.52441
-1.0319 1.73108 2.05712
1.46163 2.00191 1.63073
-0.0349523 1.71885 2.17872
1.13931 2.02264 0.874627
1.19205 1.92177 1.56705
-1.18469 1.63709 2.50051
1.18597 1.98519 1.04923
-0.6262 1.71211 2.19051
-0.497796 1.56561 2.75062
1.54798 2.05905 1.07253
0.454076 1.93924 1.03994
1.28867 1.94843 1.91272
-1.36348 1.67108 2.30931
0.317357 1.90222 1.18275
-0.443031 1.6876 2.30854
0.799271 1.80608 2.16768
1.42953 2.04689 0.969488
0.393399 1.98507 0.883879
