ply
format ascii 1.0
comment Created by Open3D
element vertex 400
property double x
property double y
property double z
end_header
2.7537 -1.45265 0.68907
0.69327 -2.84726 -0.35729
2.25388 -1.5666 0.25236
1.22355 -1.54214 -0.93586
2.55562 -1.82028 0.93152
2.57825 -1.65045 0.71792
1.77289 -1.20395 -0.62584
2.00734 -1.90588 0.34287
0.77056 -2.89405 -0.26294
0.24696 -2.98318 -0.87191
2.99834 -1.17865 0.66387
1.63425 -1.77484 -0.16386
0.79365 -2.09585 -0.78256
0.81414 -2.66272 -0.30296
0.9805 -2.32966 -0.3378
3.30953 -1.00771 0.88786
2.82164 -1.30441 0.59245
0.36709 -2.55107 -0.93107
2.41134 -1.01361 -0.11773
0.70202 -2.08457 -0.93823
1.78967 -1.99173 0.19961
1.50593 -2.17984 0.07809
0.92077 -2.36293 -0.37618
1.74512 -1.67348 -0.15297
2.34192 -1.09472 -0.11665
1.92835 -2.04148 0.39179
1.22218 -1.53429 -0.95157
1.55272 -2.73436 0.49035
1.10317 -1.91878 -0.58936
1.72046 -2.65266 0.64762
2.88959 -1.48733 0.93774
1.00519 -2.17768 -0.4384
1.5422 -1.3539 -0.73825
0.80205 -2.52824 -0.39004
1.4823 -1.50965 -0.61726
1.52768 -1.66311 -0.38995
0.91436 -2.99075 -0.09715
1.73894 -2.58134 0.62619
2.53973 -1.29378 0.26949
1.66958 -1.30395 -0.63615
1.0088 -1.98738 -0.62681
2.12102 -2.22689 0.81985
0.49018 -2.55644 -0.74257
1.1556 -2.25005 -0.21791
0.8438 -2.6814 -0.26327
1.90645 -1.0818 -0.59836
1.85259 -2.3836 0.61726
1.25311 -1.91362 -0.42326
1.74336 -2.84889 0.77655
1.3709 -1.88415 -0.32662
0.22845 -2.8043 -0.97534
1.67134 -1.35318 -0.57587
0.72602 -2.11755 -0.85423
0.3409 -2.9851 -0.73599
0.40501 -2.51148 -0.90598
1.76911 -2.10607 0.28295
2.45822 -1.80349 0.75985
2.86968 -1.53564 0.98728
1.95667 -1.45507 -0.15947
1.75238 -1.43866 -0.38912
0.46914 -2.33227 -0.99889
2.20022 -2.09957 0.78199
1.48906 -1.52089 -0.59538
2.95698 -1.41822 0.93567
2.09156 -2.26553 0.82088
0.48259 -2.47933 -0.81658
1.81716 -2.58556 0.72952
2.1124 -1.74477 0.28953
0.8482 -2.26035 -0.54171
1.77374 -2.4779 0.59615
1.74161 -2.44518 0.53374
1.8458 -1.16084 -0.58569
2.50164 -1.54893 0.50041
0.22763 -2.89053 -0.93353
0.74921 -2.61884 -0.3945
2.45997 -1.82831 0.79613
2.76216 -1.25825 0.47202
3.06301 -1.03756 0.58799
1.39956 -2.39967 0.13716
1.98937 -2.3152 0.73005
1.47744 -2.63244 0.35821
1.66145 -2.7854 0.64185
1.25011 -2.69896 0.15435
1.71022 -2.25934 0.35292
0.68421 -2.77504 -0.3922
2.1905 -1.28443 -0.0921
2.33245 -1.60934 0.38008
1.20783 -2.5597 0.04327
2.38359 -1.42209 0.23766
2.67316 -1.6053 0.78617
1.19901 -2.92594 0.17676
1.07093 -2.30775 -0.25995
1.50163 -1.42067 -0.70487
0.74292 -2.37725 -0.5648
1.45589 -2.67143 0.35478
2.45881 -1.40474 0.29791
0.95327 -2.62882 -0.17625
2.92749 -1.34531 0.78089
2.11105 -2.36279 0.96633
1.02495 -2.58384 -0.12694
1.38667 -2.5932 0.2424
1.29741 -2.5387 0.1214
1.15607 -1.71663 -0.77345
2.53068 -1.56 0.54671
2.83544 -1.13565 0.42673
1.56441 -2.39373 0.30213
0.79788 -2.67518 -0.31407
2.11722 -2.09835 0.66955
1.85356 -2.23599 0.49016
1.07161 -1.783 -0.8006
2.22439 -1.23215 -0.10803
0.80374 -2.58937 -0.35213
0.5117 -2.38257 -0.86762
1.35066 -1.60051 -0.66827
1.94568 -2.31761 0.67511
2.49153 -1.72574 0.70214
0.87477 -2.3681 -0.42219
0.59955 -2.30196 -0.8223
1.36081 -1.38454 -0.9691
2.20348 -2.21522 0.93436
1.648 -1.4914 -0.44595
3.22243 -1.01109 0.76355
0.93859 -2.13486 -0.55481
1.766 -2.97158 0.85046
1.43777 -2.92687 0.42772
1.72569 -1.07554 -0.84741
1.42738 -1.80972 -0.34262
3.19853 -1.15449 0.9176
1.24156 -2.92997 0.22104
3.29262 -1.00739 0.86108
1.38789 -2.96154 0.38086
1.6621 -2.81389 0.65465
2.36441 -1.61273 0.41843
1.84648 -1.25991 -0.47735
2.61697 -1.2662 0.32262
1.57004 -1.89978 -0.10708
2.14318 -1.40138 -0.02543
0.83322 -2.47611 -0.38997
2.52544 -1.11097 0.08175
0.45887 -2.38352 -0.95267
0.88759 -1.84825 -0.99454
2.69717 -1.0305 0.18381
1.89204 -1.03151 -0.67063
1.96735 -2.32008 0.70556
0.91295 -2.7623 -0.15879
0.68949 -2.07359 -0.97667
0.55239 -2.51248 -0.69328
1.33946 -1.43231 -0.92495
0.88524 -2.61478 -0.25303
1.96646 -2.39099 0.77223
3.36726 -1.00637 0.9833
2.54253 -1.1961 0.17747
2.43527 -1.04968 -0.06262
2.00033 -2.02022 0.44979
1.66143 -1.389 -0.54611
0.26574 -2.73302 -0.95544
1.29011 -1.47249 -0.94081
3.1135 -1.00676 0.61738
1.39434 -1.36663 -0.94144
2.80985 -1.09234 0.35698
2.23816 -1.38365 0.05213
1.06597 -1.75979 -0.84228
1.36 -1.40107 -0.94229
1.9777 -2.32217 0.72128
1.44912 -1.97236 -0.16071
2.83877 -1.5005 0.87653
1.5218 -1.30067 -0.84061
1.74995 -2.98534 0.82976
2.29641 -1.58687 0.31781
1.10121 -1.69701 -0.88342
2.71237 -1.21694 0.37455
2.74699 -1.56252 0.83117
1.96347 -1.4466 -0.1611
2.45424 -1.32234 0.20988
2.06054 -2.10069 0.60163
2.17062 -1.84148 0.45339
1.78816 -2.16384 0.35442
1.20744 -2.70395 0.11343
1.74707 -1.58486 -0.2412
0.99819 -2.15352 -0.46846
1.8999 -1.90702 0.2319
1.18052 -1.941 -0.47538
1.42801 -1.74314 -0.41207
1.14266 -2.50688 -0.05212
1.85071 -2.27669 0.52294
0.98082 -2.53143 -0.20098
0.29494 -2.93894 -0.81179
0.30208 -2.65627 -0.94998
2.28751 -1.13456 -0.13543
0.2789 -2.69025 -0.96357
2.6413 -1.42773 0.52212
2.59291 -1.07466 0.11715
1.86645 -1.04919 -0.6839
1.99229 -2.32156 0.74028
1.65081 -2.65123 0.56211
1.65415 -2.46843 0.45115
2.35403 -2.01929 0.90698
1.73775 -1.94792 0.1062
0.4508 -2.61278 -0.7557
2.42886 -1.08605 -0.03713
2.56777 -1.18331 0.19107
1.63558 -2.2284 0.24938
1.69343 -2.48862 0.50946
1.03796 -1.96793 -0.61293
1.73225 -2.406 0.49347
2.20535 -2.25412 0.99127
1.74405 -2.71624 0.71411
1.23858 -1.7794 -0.58754
1.90354 -1.6293 -0.038
2.45157 -1.9008 0.88769
1.34153 -1.55266 -0.74314
1.69259 -2.73499 0.6574
0.76152 -2.58385 -0.40066
0.48383 -2.358 -0.94039
1.95452 -1.17344 -0.44722
2.70169 -1.67025 0.92893
0.87854 -2.17017 -0.59117
1.77482 -2.91328 0.84635
0.99278 -2.92403 -0.0308
2.47759 -1.27377 0.18598
1.32386 -2.74363 0.24826
1.22848 -2.3151 -0.0942
1.22415 -1.51294 -0.98572
2.01562 -2.12396 0.57163
1.10142 -2.21391 -0.30353
1.66143 -1.71202 -0.19913
2.63734 -1.71563 0.89733
2.47622 -1.89686 0.92155
0.85958 -2.33707 -0.46337
1.2624 -1.81764 -0.51582
1.69452 -2.28546 0.35745
1.79654 -2.22127 0.41382
1.15081 -1.60629 -0.95049
2.80841 -1.51444 0.85121
1.80307 -2.19527 0.39817
2.22479 -2.19187 0.93855
1.79054 -2.8018 0.82326
2.67573 -1.23125 0.34976
1.66426 -1.4252 -0.5016
1.60318 -1.69813 -0.27322
1.68689 -2.13823 0.22629
0.6673 -2.54412 -0.53047
1.69053 -2.99613 0.74772
2.20541 -1.86491 0.51819
0.80803 -2.91154 -0.22009
1.88624 -2.01324 0.31982
1.69054 -1.8021 -0.0803
0.97384 -2.10198 -0.54639
3.01324 -1.1542 0.65428
1.62288 -2.40472 0.37197
2.6902 -1.08369 0.22399
1.92247 -2.67959 0.95729
1.58907 -1.58089 -0.41242
1.25683 -2.19614 -0.15845
1.64989 -2.69536 0.58473
1.17544 -1.69822 -0.77187
2.01713 -2.37061 0.82472
0.81233 -1.94662 -0.9625
0.38938 -2.55295 -0.89295
2.30161 -1.552 0.28673
3.08072 -1.24913 0.87038
1.24037 -2.69637 0.14338
3.13937 -1.10723 0.76458
1.42594 -1.85266 -0.30042
0.5439 -2.59903 -0.64314
1.6112 -2.79599 0.58484
2.08794 -2.01786 0.54716
1.34732 -2.84496 0.30852
1.84734 -2.27367 0.5164
2.18429 -2.23639 0.93033
1.72452 -1.18475 -0.71022
2.13656 -1.41276 -0.02082
1.21832 -2.09573 -0.28434
1.59829 -2.94699 0.61801
0.90025 -1.89851 -0.89127
1.77703 -2.84998 0.82539
2.38798 -1.00426 -0.14929
1.87075 -2.72249 0.90142
0.49655 -2.75432 -0.61567
1.81231 -1.34074 -0.42874
1.46272 -2.22954 0.07492
2.73283 -1.50798 0.73428
1.77048 -2.57659 0.66247
2.05082 -1.9229 0.40683
0.71451 -2.72145 -0.38166
2.94726 -1.1333 0.55106
2.50362 -1.24342 0.18308
2.10217 -1.37524 -0.09227
1.60401 -2.58874 0.47241
0.57277 -2.93866 -0.46425
1.65093 -2.8147 0.64097
0.52441 -2.96329 -0.51375
2.34282 -1.98675 0.84337
1.73231 -1.83549 -0.00608
0.77754 -2.88226 -0.25878
2.87988 -1.42646 0.82721
0.81792 -2.58135 -0.34156
1.43545 -2.92296 0.42426
1.733 -1.33501 -0.52429
3.08042 -1.069 0.64277
0.92698 -2.57876 -0.22928
2.28563 -1.45 0.16589
0.69245 -2.29302 -0.70299
2.8415 -1.04591 0.34733
0.67184 -2.49372 -0.55953
1.39982 -2.15134 -0.05172
3.23867 -1.03863 0.82018
2.10124 -1.46774 -0.00164
0.90502 -2.18186 -0.5483
2.61964 -1.38847 0.45373
0.55725 -2.38796 -0.79453
2.33929 -2.04164 0.91561
1.88504 -2.08474 0.38619
1.92157 -1.14016 -0.51886
2.35204 -1.78311 0.59772
2.07596 -1.81177 0.32005
2.00944 -2.51787 0.96343
0.98147 -1.84751 -0.84103
0.88537 -1.89078 -0.92743
1.86666 -2.80728 0.94637
3.15857 -1.24118 0.98793
3.0023 -1.21613 0.7142
0.70615 -2.4853 -0.52544
2.08215 -1.10526 -0.37552
1.69313 -1.45367 -0.43756
1.98303 -1.87513 0.2866
0.50803 -2.70149 -0.62766
0.61757 -2.98487 -0.40572
0.40598 -2.4576 -0.95959
1.87763 -1.78727 0.09254
2.11978 -1.91623 0.47618
1.61897 -2.88473 0.62631
0.97726 -1.88227 -0.79846
1.62762 -2.78294 0.59921
1.28525 -1.53528 -0.84845
1.41939 -2.82302 0.37801
1.49633 -2.09154 -0.00615
1.00358 -2.60396 -0.13794
1.06874 -2.52039 -0.11836
0.19731 -2.93838 -0.96715
1.3471 -1.65037 -0.61067
1.63105 -1.30783 -0.68014
2.72131 -1.43174 0.62204
2.51496 -1.78259 0.81129
2.42727 -1.67665 0.56206
1.46007 -1.62087 -0.51195
1.10289 -1.96086 -0.54317
1.65708 -2.2686 0.30429
1.24954 -2.37771 -0.02831
1.99772 -2.02766 0.45433
1.64836 -2.16219 0.20736
0.35575 -2.78852 -0.78375
1.93455 -2.12071 0.4748
2.73739 -1.12577 0.31195
2.20044 -2.03685 0.70732
2.61626 -1.25991 0.31556
1.42467 -1.36875 -0.88832
2.85678 -1.51905 0.93578
0.67946 -2.31288 -0.70065
2.07802 -1.29235 -0.19814
1.83146 -1.33403 -0.4149
1.57756 -1.40984 -0.62205
2.01073 -1.84409 0.28446
0.80767 -2.00288 -0.88445
1.32562 -1.46558 -0.89372
2.01366 -1.66033 0.10326
0.84952 -1.95557 -0.88693
2.85574 -1.47784 0.86781
0.88819 -1.98354 -0.79047
1.37846 -2.34126 0.075
2.33201 -1.01792 -0.19434
2.9389 -1.3496 0.80308
1.45774 -2.4647 0.23954
2.39063 -1.99962 0.93809
3.34199 -1.0149 0.9515
0.66836 -2.96084 -0.35536
1.35058 -2.31771 0.02996
2.10066 -2.2327 0.79702
1.2562 -1.88264 -0.45225
2.64614 -1.56223 0.69135
0.89828 -2.49245 -0.31006
2.75176 -1.40696 0.62939
2.62376 -1.16444 0.23054
0.78279 -2.84985 -0.26247
1.9735 -1.92407 0.32518
0.64302 -2.25425 -0.81177
0.9015 -2.58732 -0.25083
2.9065 -1.2311 0.61053
0.6786 -2.35582 -0.66183
2.3941 -1.50852 0.33828
2.51011 -1.80612 0.83793
0.4712 -2.66038 -0.69758
1.16851 -1.81067 -0.6359
1.01935 -2.8418 -0.02525
2.95432 -1.02607 0.4513
1.31808 -1.76689 -0.50874
2.31134 -1.6848 0.43907
1.42171 -2.55205 0.25569
0.49736 -2.51902 -0.76184
1.1563 -1.71265 -0.77866
