ply
format ascii 1.0
comment Created by Open3D
element vertex 400
property double x
property double y
property double z
end_header
0.46626 0.0555927 2.85637
-0.48218 1.42032 2.34019
-0.08911 1.32097 2.67832
0.80706 0.364987 3.11559
-0.38027 1.55465 2.49756
-0.04899 -0.66275 2.48772
-0.35384 1.48453 2.48665
-0.46041 0.543857 2.21725
-0.75434 0.829323 2.05258
0.17648 -0.051442 2.65133
-0.30012 -0.266367 2.31568
0.38198 0.245331 2.81247
-0.90157 1.95301 2.27443
0.19272 0.904623 2.7854
-0.38494 1.57647 2.50546
-0.21283 1.53463 2.67013
0.80447 0.296398 3.09961
0.78584 -0.491291 3.02644
-0.34277 1.32791 2.42964
-0.96531 1.59718 2.06085
0.48479 0.00318905 2.86564
-0.63229 -0.0245083 2.10692
0.05413 0.967435 2.67742
-0.58578 0.338082 2.13467
-0.32016 0.517772 2.31167
0.21093 0.522227 2.71562
-0.72483 1.49419 2.17643
-0.36489 1.26407 2.38868
-0.92638 0.212938 1.95963
-0.58607 0.86634 2.15482
0.15776 0.44779 2.66494
0.85193 0.689061 3.25471
-0.5917 0.43574 2.13226
0.55085 0.377645 2.9497
0.9218 -0.669885 3.0886
0.06149 -0.333903 2.56839
-0.90606 0.966226 1.98432
-0.57142 1.10196 2.19253
-0.45707 0.0905592 2.2129
0.03669 -0.769212 2.54726
-0.54114 0.146661 2.16071
-0.13885 1.29942 2.61536
-0.29311 1.44305 2.52697
0.52435 0.0581312 2.89506
0.74279 -1.20058 3.00006
-0.16454 -0.0761554 2.40917
-0.04973 0.772981 2.54277
-0.04948 1.3245 2.72353
0.25244 -0.00531744 2.70611
-0.4935 -0.332298 2.18793
-0.84144 1.11014 2.02927
0.01695 0.675499 2.58203
0.0031 0.491673 2.54972
0.50545 0.195282 2.89404
0.44826 0.931189 3.03718
0.32624 1.05507 2.98071
0.56106 0.736862 3.05207
-0.04083 -0.898846 2.48552
0.51283 -0.0894844 2.87947
0.13327 -0.191633 2.61926
0.5824 -0.798946 2.91382
0.79165 0.61857 3.18227
0.11 0.208611 2.61142
0.41333 0.278112 2.83822
0.14888 -0.352648 2.62983
0.50096 0.722734 2.99703
-0.48791 0.0654498 2.19346
0.67642 -0.739174 2.96758
-0.57674 0.29188 2.13973
0.67045 -0.65488 2.96432
0.03319 0.624948 2.58803
-0.132 -0.74131 2.42545
-0.67236 1.26478 2.15343
-0.93181 1.10684 1.98423
0.18161 -0.646055 2.65223
0.39078 0.880214 2.95972
-0.50643 -0.636156 2.16847
-0.65121 -0.356841 2.09154
-0.48099 0.657256 2.20883
-0.8066 0.934633 2.03141
0.0149 -0.54059 2.53498
-0.4326 0.853181 2.25718
0.61398 -0.0584919 2.94441
-0.23172 -0.0308157 2.3626
-0.06826 -1.02745 2.45628
-0.37339 0.262033 2.26822
-0.45751 1.67741 2.49309
-0.75529 1.43064 2.13745
-0.81942 -0.546629 1.9888
0.02426 1.10314 2.69576
-0.11451 0.164148 2.44659
-0.90766 1.79138 2.17171
-0.94608 1.16081 1.98343
0.48449 -0.575486 2.85428
-0.44403 1.52698 2.4198
-0.99724 0.826749 1.9376
0.61686 -0.378366 2.93555
0.95399 0.745107 3.35442
0.24571 -0.463537 2.69693
0.21909 -0.392352 2.67863
0.04176 -0.780158 2.55065
-0.2143 0.458417 2.38446
0.57897 -0.618351 2.91185
-0.39728 -0.484644 2.24735
0.60463 -1.0115 2.92569
0.9247 -0.719354 3.08966
-0.22189 0.451735 2.37864
-0.88612 0.708768 1.98146
0.96998 -1.13175 3.10759
-0.84287 1.05794 2.02301
-0.60643 0.859347 2.14135
0.6326 -1.17735 2.93898
-0.0717 -0.340818 2.47424
-0.1022 0.979039 2.54009
0.8653 -0.417674 3.06648
0.77781 -1.48033 3.00734
-0.80888 1.14683 2.05123
0.07001 -0.590017 2.57385
-0.29848 0.249001 2.31872
-0.04148 0.827294 2.55932
-0.68674 1.42357 2.18191
0.87721 0.755105 3.30759
0.44565 -0.198944 2.83263
0.57048 -0.403206 2.90774
0.2034 0.134138 2.6762
-0.30661 0.180517 2.31235
-0.75565 0.830518 2.05193
-0.16475 -0.744187 2.40155
0.7901 0.602561 3.17507
0.1954 -0.308744 2.66232
-0.46141 0.266332 2.21082
-0.63517 1.31981 2.1911
0.63194 -0.626808 2.94267
0.97187 -1.49649 3.09919
-0.60017 0.434079 2.1272
0.6843 -0.5811 2.97213
-0.77222 -0.479609 2.01847
-0.28877 -0.574984 2.31906
0.77959 0.156285 3.06232
0.68286 -1.14809 2.96845
0.236 -1.11917 2.67829
-0.80182 0.0745291 2.0167
0.84099 -0.412293 3.05505
-0.23939 -0.522248 2.35483
0.76083 -1.33121 3.00573
-0.87354 1.53141 2.09222
0.18673 1.09954 2.85858
-0.91479 1.79975 2.17128
0.90672 0.472814 3.20345
-0.01663 -0.401191 2.51312
0.40814 -0.542648 2.80559
0.49903 0.273078 2.89825
0.64189 -0.180857 2.95528
-0.81666 0.048557 2.00936
-0.96372 0.708196 1.94757
0.77602 0.708175 3.20941
-0.08831 1.18223 2.61608
0.37138 -1.26983 2.76584
-0.78598 -0.0229315 2.0242
-0.23104 0.884612 2.41353
0.44985 0.509067 2.89974
-0.97284 -0.0255902 1.9393
-0.33162 0.0721461 2.29485
0.0467 0.642951 2.60138
0.70636 -0.340302 2.98709
-0.54517 1.75621 2.45585
0.07866 0.987559 2.70655
-0.51839 -0.668513 2.15849
0.95528 -0.498899 3.10463
0.71603 0.925716 3.28692
0.06546 1.06223 2.72032
0.52353 -0.460051 2.87877
0.09789 1.16549 2.7983
-0.85661 0.121481 1.99058
0.19619 1.16156 2.90202
0.02062 1.35781 2.82503
0.29734 -1.13278 2.72166
-0.05682 -0.494112 2.48426
-0.63699 -0.177604 2.10328
-0.41634 -0.108979 2.23894
-0.57358 1.69554 2.38779
0.09436 1.05903 2.74733
-0.25135 1.30237 2.50517
0.18459 1.05769 2.83656
0.90613 -0.739238 3.08159
-0.41027 0.0542422 2.24292
-0.15001 1.08605 2.52602
0.64716 -1.26219 2.9448
0.91414 -0.276359 3.09373
-0.73009 1.54941 2.19123
0.45538 1.00865 3.0872
-0.52209 1.56521 2.3658
-0.51241 -0.552222 2.16913
-0.18922 -0.413523 2.39133
0.40983 0.394997 2.85024
0.97508 0.667488 3.3238
-0.80691 0.889689 2.0282
-0.2772 1.44144 2.54247
-0.753 1.36363 2.12234
0.93943 -1.43778 3.08803
-0.18758 0.358538 2.39946
0.0699 -0.868157 2.56847
0.2648 -0.413403 2.71002
-0.86295 1.6093 2.12356
0.71489 -1.10075 2.9869
-0.69714 -0.0956786 2.07033
0.52695 0.432396 2.94237
0.7558 0.833856 3.26072
0.96444 -0.356912 3.11228
-0.10025 0.882165 2.52048
-0.05806 -0.963186 2.46881
0.00416 0.756081 2.58448
0.75885 0.911949 3.31562
-0.21704 1.29226 2.53418
-0.59107 -0.0800445 2.1307
0.88728 -0.198994 3.0853
-0.00899 0.74797 2.57219
-0.47442 0.359734 2.20357
0.02205 -0.56809 2.53987
-0.18587 1.52133 2.69266
-0.74504 0.60937 2.04897
-0.54233 -0.592506 2.14779
0.5702 0.473472 2.982
-0.59797 1.46498 2.26093
0.75041 -0.301447 3.01198
0.9957 -0.106893 3.14023
-0.71496 0.772033 2.07129
0.76002 0.337226 3.081
0.48084 -0.434185 2.85231
0.78088 0.0492076 3.05034
-0.60556 -0.274209 2.12024
0.89597 0.321903 3.15661
-0.76192 0.941583 2.056
-0.38504 1.61384 2.52866
-0.08452 -0.991123 2.4468
0.20697 0.398462 2.69759
-0.57373 -0.10608 2.14086
0.65945 -0.500476 2.95872
0.63137 0.0889894 2.96602
0.90479 -1.22709 3.07883
0.95918 0.531122 3.2536
0.83944 -0.661477 3.05141
0.31214 0.394898 2.77707
0.78929 -0.549634 3.02758
-0.52061 0.828156 2.19429
0.9535 -0.436257 3.10526
0.11384 -0.310413 2.60527
0.574 0.480288 2.98626
-0.10271 0.238055 2.45683
-0.52381 -0.238274 2.17025
0.45893 0.926473 3.04501
0.95402 0.0941937 3.1445
-0.14797 0.0428577 2.42128
0.86982 -0.113271 3.0825
0.9726 0.423246 3.22404
0.05721 0.00475176 2.56715
-0.10711 0.36445 2.45832
0.65774 0.530394 3.05899
-0.54822 1.68212 2.40404
0.39451 -0.166191 2.79961
0.22801 0.738354 2.76996
-0.45422 0.13819 2.21478
-0.76258 1.3885 2.12211
0.17307 -0.327546 2.64674
-0.46694 1.06083 2.26041
0.97157 -1.11036 3.10838
0.22685 0.969076 2.84072
0.61103 -1.13981 2.92722
-0.54354 0.207119 2.15937
0.67621 -0.345252 2.9702
-0.15462 -0.00506996 2.41632
0.74055 -1.03756 3.00131
0.96466 0.376838 3.20657
0.95995 -1.62005 3.08649
-0.00483 1.03258 2.64304
0.31458 0.760939 2.8503
0.21173 -1.23622 2.6521
0.35129 -0.100904 2.77203
-0.21588 -0.223241 2.37345
0.43857 -0.498263 2.82525
-0.56271 0.242382 2.14791
-0.87179 -0.294984 1.97718
-0.44184 1.28395 2.32968
-0.09949 -0.9582 2.43792
0.45008 0.326146 2.87026
0.01272 0.132583 2.53768
0.79226 0.0153654 3.05324
0.24183 -0.447698 2.69427
0.28432 -0.231005 2.72412
-0.82439 1.728 2.19756
-0.25034 0.542011 2.36291
-0.43694 0.771178 2.2464
0.16305 0.765669 2.72075
-0.02252 1.2514 2.71371
-0.49739 1.25771 2.27818
-0.42779 -0.619079 2.22181
-0.96957 1.0343 1.96084
0.82013 0.315094 3.11249
0.49338 0.172025 2.8836
0.36197 -1.06427 2.76964
-0.64049 1.54303 2.25612
-0.2367 1.22449 2.49037
0.27477 -1.00683 2.71107
0.51954 -0.28705 2.87809
0.65362 -1.3984 2.94208
0.36763 0.165873 2.79573
0.36163 -0.456628 2.77515
-0.85272 1.72608 2.17705
0.05207 -0.400781 2.56173
0.27311 -0.0847962 2.71857
0.69082 -1.26175 2.96988
-0.19861 1.31613 2.56242
0.0823 -0.618089 2.58236
-0.68548 -0.422652 2.06946
-0.47533 0.122803 2.20139
0.20109 0.615374 2.72235
-0.90694 0.398886 1.96813
0.82891 0.277546 3.11009
0.91391 -1.26327 3.08218
0.69296 0.244072 3.02299
0.29294 0.682662 2.81163
0.81828 0.261113 3.10095
-0.4492 0.143352 2.21799
0.93064 0.834421 3.3984
-0.76605 0.924768 2.05243
0.0394 0.817423 2.62603
-0.63904 1.39434 2.20774
-0.78409 -0.0537825 2.02494
0.68433 -0.158314 2.9809
-0.42791 1.10675 2.2982
0.51172 0.76649 3.02195
-0.10103 -0.526109 2.45255
0.72481 0.926515 3.29555
0.93197 -0.812876 3.0926
-0.76234 -0.210117 2.03399
0.34794 -0.955973 2.76308
0.84205 -1.25311 3.04925
0.51498 -1.0428 2.87067
0.18887 -1.07265 2.6465
-0.25724 1.23387 2.47469
0.4603 0.424179 2.89211
-0.89854 1.14625 2.00439
0.37369 1.08839 3.05126
-0.27174 -0.170964 2.33514
-0.3057 0.340698 2.31553
-0.10366 1.01688 2.54842
-0.17143 0.812162 2.45002
-0.49109 1.61739 2.42188
0.37466 0.369039 2.82065
-0.96787 1.95007 2.22475
-0.89421 -0.10183 1.97179
-0.68757 0.948068 2.09924
0.02754 -0.872407 2.53728
0.16609 1.20709 2.89579
0.17357 0.579531 2.69429
0.81042 -1.05489 3.03671
-0.61066 0.244185 2.11959
-0.53561 -0.291993 2.16225
-0.52603 -0.217548 2.16908
-0.49278 0.587889 2.19784
-0.94738 0.606938 1.95245
-0.23199 -0.85374 2.34644
0.50988 0.661088 2.98443
0.81236 -0.832307 3.03823
-0.4068 -0.787477 2.22542
0.94323 0.246328 3.16507
0.69397 -0.902134 2.97707
0.04641 0.738757 2.61656
0.55404 0.741868 3.04817
-0.65518 1.78144 2.36495
-0.49551 -0.463586 2.1835
0.30234 -0.711364 2.73516
0.75712 0.335713 3.07889
0.42015 -0.613542 2.81337
-0.52477 -0.146456 2.17034
0.62553 -0.45537 2.93972
0.08256 0.575479 2.62095
-0.69619 1.30992 2.14712
0.29021 1.12366 2.98246
-0.07917 0.613196 2.49776
-0.98988 -0.171756 1.92969
-5e-05 0.383902 2.53911
0.38386 -0.751831 2.78949
0.91239 0.731417 3.31848
-0.03208 1.40615 2.79553
-0.2617 1.45063 2.56346
0.21561 1.03511 2.85757
0.32836 0.424731 2.79318
-0.61243 -0.396701 2.11312
-0.16168 1.47164 2.68673
0.80009 -0.131684 3.04591
0.54994 0.788495 3.0635
0.15071 1.02258 2.7881
-0.64258 1.70011 2.3274
-0.26865 0.910464 2.38778
-0.7133 0.775774 2.07241
0.89128 -0.140078 3.09093
-0.0232 0.609844 2.54129
0.23955 0.106497 2.70103
0.35599 0.360405 2.80572
