ply
format ascii 1.0
comment Created by Open3D
element vertex 400
property double x
property double y
property double z
end_header
-3.01228 0.869069 -0.202579
-3.23832 0.347048 -1.02081
-2.80547 0.350725 -0.215725
-2.12307 -1.76671 -0.53206
-3.0095 0.867388 -0.196808
-1.91965 -0.375713 1.01225
-2.506 0.354538 0.391222
-2.48488 -0.537744 -0.393466
-2.55434 -0.461714 -0.445266
-2.32218 -1.27051 -0.609591
-3.14469 -0.262193 -1.05489
-2.61634 -1.00891 -0.818512
-3.06674 -0.44765 -1.03206
-2.54 0.731153 0.675547
-2.99448 1.09298 0.0659449
-2.45215 0.352267 0.493943
-2.09202 -0.414572 0.516362
-2.52919 0.252482 0.243968
-3.03946 -0.501255 -1.02309
-3.31819 0.0276841 -1.17107
-3.05542 0.343385 -0.706415
-2.15649 -0.367096 0.407936
-2.68524 -0.790078 -0.798082
-3.09118 1.63602 0.305031
-3.03191 1.24003 0.109065
-2.89616 0.0862904 -0.59256
-3.00088 -0.577883 -1.01171
-2.98776 1.07836 0.0692148
-2.11247 -1.00028 -0.0898559
-2.48518 -0.0473833 0.0338633
-2.2524 -1.7572 -0.691942
-2.6398 -1.00172 -0.837882
-2.45705 0.386703 0.517207
-2.00623 -1.60957 -0.268735
-2.51886 0.168531 0.180679
-2.64046 -0.832655 -0.770175
-3.15766 0.642148 -0.754388
-2.3572 -1.31217 -0.669575
-2.63004 -0.665151 -0.676409
-2.51911 -0.100875 -0.0827449
-2.12761 -1.56808 -0.471594
-2.85553 0.911269 0.222801
-1.94676 -1.07875 0.278716
-2.89745 0.571346 -0.206246
-1.9892 -1.02161 0.199603
-2.07176 -0.0312502 0.90486
-2.84159 0.0263384 -0.544268
-3.05276 0.810463 -0.364353
-2.24136 -1.79994 -0.688141
-3.04285 0.0895674 -0.817127
-2.38373 0.362711 0.633589
-3.11185 0.68093 -0.61859
-2.80989 1.22593 0.607293
-2.8745 0.922076 0.190574
-3.17704 -0.285597 -1.08867
-2.43103 -1.00325 -0.613467
-2.29437 -1.41477 -0.636881
-2.54849 -0.586695 -0.522815
-2.92623 0.534289 -0.303279
-2.91746 1.10059 0.266336
-2.24566 -1.78497 -0.690054
-2.78535 -0.572643 -0.807757
-2.90292 -0.766112 -0.985258
-2.30613 0.366446 0.778534
-2.55502 0.557505 0.491645
-1.92644 -0.597675 0.815535
-2.49805 0.675075 0.701025
-2.52658 0.0944104 0.0915396
-3.12782 -0.327063 -1.05499
-2.78815 -0.582767 -0.815193
-2.31761 -1.81767 -0.767924
-2.41297 0.0879283 0.312732
-2.7548 -0.82327 -0.87834
-2.18553 -1.27766 -0.420034
-2.85386 0.809722 0.125468
-2.43564 0.00500493 0.184115
-2.55604 -0.713067 -0.610933
-3.02421 0.38665 -0.62109
-2.11973 -1.64228 -0.488094
-2.1426 0.121384 0.881976
-3.06603 1.61727 0.362709
-2.75496 1.17625 0.66777
-2.56601 0.0564373 -0.0230273
-2.9262 1.49533 0.595257
-1.98476 -0.976848 0.255258
-2.59167 0.582372 0.444938
-2.11866 -1.48228 -0.418878
-2.04256 -1.32881 -0.185577
-2.48163 -1.01227 -0.6787
-2.43651 -0.223103 -0.0403868
-2.90896 0.891239 0.0793109
-2.21759 -1.02939 -0.315527
-3.11498 1.56072 0.159606
-2.27759 -0.133588 0.371668
-2.58432 -0.837379 -0.711161
-2.543 -0.532591 -0.478399
-2.60289 0.50439 0.34727
-2.36814 -0.27957 0.0393497
-3.07537 1.6451 0.359568
-2.91642 -0.742476 -0.989284
-1.97618 -1.53868 -0.162497
-1.96874 -0.831781 0.448421
-3.09168 0.613623 -0.614523
-2.0154 -0.770899 0.367119
-2.85267 -0.5799 -0.87977
-2.13503 -1.17125 -0.265261
-2.1549 -0.911363 -0.105487
-2.96962 1.22769 0.262805
-2.60591 -1.02887 -0.816125
-2.25405 -2.06935 -0.723963
-2.97477 0.483908 -0.450308
-3.17521 -0.157409 -1.05962
-2.31285 -0.507263 -0.0658166
-3.0677 1.20993 -0.0276079
-2.68896 0.758472 0.423148
-2.66721 0.592666 0.305594
-2.70824 -0.247353 -0.526137
-2.85362 0.325278 -0.334268
-2.41206 -0.733069 -0.421801
-2.46019 -0.848644 -0.564966
-2.68712 0.845826 0.508394
-2.99489 -0.677483 -1.03258
-2.92857 1.2036 0.338756
-3.09197 0.905982 -0.392012
-2.69155 -0.53697 -0.68204
-3.00197 -0.437771 -0.972089
-2.25305 -0.718833 -0.137507
-3.03671 0.725203 -0.395773
-2.17517 -0.812382 -0.0627077
-2.66758 -0.101221 -0.350929
-3.06034 -0.305577 -0.986903
-2.10149 -0.234824 0.665294
-2.96923 0.0268183 -0.741368
-2.29675 -0.951636 -0.393134
-2.4474 -0.41356 -0.23182
-3.08629 0.761633 -0.494373
-1.95853 -1.06313 0.254766
-2.49781 -0.626046 -0.476154
-1.97655 -0.890361 0.365121
-2.46567 0.478837 0.586543
-2.27893 -1.45091 -0.632197
-2.99265 1.4348 0.396734
-3.17502 -0.258634 -1.0814
-3.2839 -0.0276057 -1.14302
-3.03802 1.34712 0.196389
-1.98928 -1.19929 0.0420259
-2.61552 -0.663943 -0.658017
-2.28124 -1.82525 -0.733947
-2.4145 -1.09285 -0.638566
-2.95763 0.913616 -0.0175162
-2.06388 -1.11356 -0.074211
-2.91757 -0.0607883 -0.714622
-2.71442 0.239753 -0.137503
-3.02785 -0.120888 -0.887732
-2.70667 1.08281 0.677821
-2.40341 -0.506719 -0.233111
-2.60864 -1.02915 -0.818829
-2.30085 -0.908213 -0.369837
-1.93192 -0.565266 0.825556
-2.15793 -1.15137 -0.294077
-2.12558 -0.761882 0.0923025
-2.35305 -0.737513 -0.331097
-3.29026 0.0343455 -1.14162
-2.63681 -1.18968 -0.896488
-3.01551 1.01762 -0.0664889
-2.04417 -1.71559 -0.38794
-2.8707 -0.574994 -0.895426
-2.17834 -0.338388 0.386028
-1.93595 -1.08325 0.311589
-2.90744 0.054499 -0.631239
-3.1142 -0.0183662 -0.954604
-2.63922 -1.22388 -0.907935
-2.07679 -0.436786 0.532926
-2.30549 -1.35749 -0.627132
-1.99116 -1.11718 0.107015
-2.43378 -1.10878 -0.668943
-1.98158 -0.860981 0.378521
-2.90593 -0.0746362 -0.705814
-2.44621 -0.903098 -0.578042
-2.451 0.455365 0.592375
-2.91078 0.721035 -0.0937646
-3.10502 0.237124 -0.844764
-2.89022 0.291105 -0.433355
-2.38957 -1.30663 -0.70361
-3.11128 1.11162 -0.267334
-2.86406 0.500362 -0.199532
-2.8575 0.721205 0.0288347
-2.24438 -0.453387 0.125097
-2.29691 -1.21392 -0.549281
-2.83787 1.1435 0.481181
-2.92425 -0.830655 -1.01817
-2.67161 0.0584111 -0.221801
-2.78599 0.838228 0.302212
-2.54153 0.810528 0.739012
-1.95954 -1.51171 -0.10386
-2.41705 -0.0889405 0.128071
-2.79546 0.790596 0.235064
-2.8842 0.597223 -0.152423
-2.3361 -0.75918 -0.31926
-3.06793 0.843166 -0.377356
-2.72089 0.408835 0.012445
-2.83771 0.981618 0.330812
-2.00584 -1.62916 -0.27703
-2.0232 -1.36068 -0.163673
-3.06937 1.19993 -0.0428563
-1.95769 -1.30128 0.0490688
-2.46017 -0.483462 -0.311408
-2.17397 -0.304697 0.429577
-3.08584 0.936852 -0.346632
-3.08514 0.807346 -0.454996
-2.25463 -1.17281 -0.466844
-2.42313 -1.62792 -0.829428
-2.16423 -0.376259 0.380769
-2.42393 -0.146447 0.0578074
-2.32297 -0.667521 -0.224109
-2.88297 0.121241 -0.546791
-2.0542 -0.94882 0.0908396
-2.69471 -0.838712 -0.827638
-2.95162 0.883286 -0.0325865
-3.01164 0.433417 -0.564537
-2.84003 1.2417 0.562294
-2.10658 -0.66811 0.22802
-2.1729 -0.658798 0.0826178
-2.23498 -2.10073 -0.704175
-2.33388 -0.0398949 0.346935
-3.06288 0.546691 -0.594211
-2.08972 -0.52329 0.41432
-2.1658 -0.349479 0.403859
-2.11731 -0.832651 0.0456607
-3.053 1.63061 0.40948
-2.0146 -0.329159 0.792949
-3.1817 0.418905 -0.902295
-3.05897 0.261153 -0.757703
-2.06501 -0.563064 0.438384
-2.32682 -0.153847 0.247747
-2.53729 0.313212 0.288378
-2.84637 0.495339 -0.166399
-2.23461 0.0513942 0.639976
-2.92923 0.158004 -0.600114
-3.06795 0.971943 -0.261123
-2.09645 -0.99582 -0.0508704
-2.68618 -0.234671 -0.483559
-2.12785 -1.8038 -0.548137
-2.20909 -0.746739 -0.0748606
-2.1743 -0.66603 0.0726702
-2.36466 0.0914052 0.413945
-2.39537 -0.246484 0.0173237
-2.51751 -1.47532 -0.874566
-3.08532 1.30067 0.00677386
-2.65866 -0.532928 -0.638272
-2.6479 0.0595523 -0.176522
-3.20457 -0.232845 -1.10235
-2.02009 -1.56196 -0.274923
-2.11054 -0.966416 -0.0572743
-2.58798 -0.666495 -0.624945
-2.30701 -1.22509 -0.568412
-2.75919 1.04478 0.549264
-2.96447 -0.185682 -0.838328
-2.86985 0.464622 -0.244662
-2.40392 -1.04895 -0.603348
-2.34566 0.157144 0.515916
-2.22088 -0.241915 0.386575
-2.95525 -0.0408803 -0.75701
-1.93976 -0.563752 0.801402
-3.07158 0.486804 -0.652034
-2.7871 -0.870224 -0.922536
-3.17721 -0.00206943 -1.02422
-2.08159 -0.104059 0.825489
-2.98792 0.165813 -0.692713
-3.10351 1.48739 0.129502
-2.85042 -0.830679 -0.962201
-2.5084 -0.363759 -0.295551
-3.12187 1.08814 -0.325914
-3.06546 1.64471 0.387179
-3.20962 0.227606 -1.0063
-2.67764 -0.315788 -0.527482
-2.38808 0.413513 0.670787
-2.81542 0.568538 -0.0292782
-2.6246 -0.656764 -0.665236
-2.21681 4.57666e-05 0.629314
-3.02332 -0.214454 -0.918166
-2.34612 -0.0453348 0.316195
-3.04142 0.957379 -0.198019
-2.10786 -0.347973 0.542543
-2.74317 1.06148 0.594011
-2.83452 0.573511 -0.0658409
-2.08328 -1.23832 -0.209919
-2.91537 0.323751 -0.455961
-2.7488 0.987721 0.518569
-2.2787 -0.619816 -0.100714
-2.37016 -0.2827 0.0323301
-2.37826 0.269403 0.558227
-2.5411 -0.425193 -0.397687
-2.49327 -0.994121 -0.683389
-2.42511 0.608405 0.770715
-2.01303 -1.24052 -0.0530145
-2.35632 -1.10102 -0.56946
-2.43446 -1.01467 -0.623664
-2.92542 -0.266708 -0.827642
-2.74188 -0.295673 -0.606757
-2.62984 0.4299 0.21931
-2.55099 -0.300967 -0.316183
-3.30123 0.0184711 -1.15483
-3.09059 -0.149693 -0.969937
-3.0947 0.805745 -0.482645
-2.00608 -1.6487 -0.286285
-3.02115 1.10099 0.00094199
-2.31646 -0.360771 0.0649212
-2.01778 -0.833421 0.298331
-2.38323 -0.62528 -0.29492
-2.98157 0.719032 -0.264652
-2.01671 -0.946227 0.192187
-2.96236 0.639364 -0.291174
-1.94169 -1.02982 0.343158
-3.0955 0.226647 -0.834267
-2.65539 -0.0155051 -0.257265
-2.00789 -1.44942 -0.185427
-3.18312 -0.0690805 -1.04725
-2.03197 -1.3506 -0.176743
-2.04748 -0.265915 0.765995
-2.80651 0.00193645 -0.504196
-2.0028 -1.11899 0.0732664
-3.1308 -0.155214 -1.01431
-3.11681 1.10555 -0.292143
-3.00885 0.161799 -0.728759
-3.2292 -0.285503 -1.13204
-2.90272 0.541486 -0.245326
-1.97474 -1.10102 0.169194
-2.24269 0.166971 0.727169
-2.34022 -0.939709 -0.452201
-2.63025 0.746562 0.525238
-2.89561 1.17089 0.38306
-2.9479 0.867853 -0.0386725
-2.5226 -0.750851 -0.589659
-2.62808 -1.05894 -0.847595
-2.96701 0.274459 -0.588509
-1.95032 -0.953063 0.388813
-2.78704 -0.851291 -0.916359
-2.39213 -0.40151 -0.12103
-2.21225 0.0175815 0.654869
-2.06107 -0.819048 0.195268
-2.6575 -0.127052 -0.354698
-2.05031 -1.39066 -0.241856
-2.70742 0.278578 -0.0868685
-2.69558 -0.606813 -0.723697
-2.73099 0.373691 -0.0426814
-1.95673 -1.3078 0.0467731
-2.43233 -0.333354 -0.134346
-2.7519 0.0174285 -0.400358
-2.25904 -0.572686 -0.0189936
-2.29896 0.354594 0.781546
-2.13044 -1.16743 -0.253907
-2.53286 -0.589698 -0.502512
-2.85552 0.331748 -0.332508
-2.05619 -1.63196 -0.377733
-1.99362 -0.209321 0.942301
-2.05128 -1.70319 -0.396441
-2.00382 -1.44075 -0.170642
-3.08992 0.992445 -0.308745
-2.18451 -2.00565 -0.649027
-2.8658 1.22811 0.498606
-2.82729 0.0746231 -0.485773
-1.93003 -0.49411 0.89148
-2.3876 -0.185631 0.0918514
-2.08782 -0.383994 0.556684
-2.85138 -0.224483 -0.714097
-1.97576 -0.678492 0.578532
-2.04156 -0.313169 0.738709
-2.40334 0.392417 0.623853
-2.05094 -0.457266 0.579776
-2.17309 -0.0689841 0.657964
-2.9274 0.693082 -0.159632
-1.91476 -0.34276 1.0485
-2.18169 -1.1638 -0.344395
-3.0016 0.528285 -0.473205
-3.08007 1.51534 0.23139
-3.26272 -0.0257825 -1.12156
-2.2209 -0.0223961 0.599886
-2.05062 -0.167673 0.842203
-2.7955 0.34368 -0.20208
-3.04424 1.57271 0.384571
-3.06474 -0.301046 -0.989824
-1.96941 -0.256111 0.966321
-3.07633 0.356949 -0.737199
-2.16368 -1.13285 -0.291848
-3.05284 1.21409 0.0220447
-2.40841 -0.809394 -0.468186
-2.37266 0.153395 0.458455
-1.982 -1.25706 0.0150688
-2.9624 0.542598 -0.375538
-3.05102 1.1277 -0.0588105
-2.25042 0.116543 0.667407
-2.01679 -0.817402 0.316952
-2.55213 0.701131 0.628059
-3.04347 1.10268 -0.0613887
-2.86009 0.149488 -0.486908
-2.07401 -0.0203531 0.908573
-2.61439 0.950489 0.729461
-2.6336 0.58018 0.36061
-2.64017 -1.20422 -0.90329
