ply
format ascii 1.0
comment Created by Open3D
element vertex 200
property double x
property double y
property double z
end_header
1.08395 2.28497 0.182236
0.406918 2.11907 1.29305
1.21633 2.17876 -2.12806
0.402359 1.96734 1.47392
1.07386 1.83852 0.714706
0.0765532 2.34892 1.61122
1.40646 2.56561 -1.3401
1.62318 1.79998 -1.0954
1.92461 1.05447 -0.772064
1.44332 2.39898 -0.825712
1.50788 2.10004 -0.459117
1.04669 3.3252 -1.18696
1.12425 2.7105 -0.386175
-0.240103 3.08481 1.14566
0.627247 2.02146 1.08815
1.34245 2.12896 -0.0665784
0.68695 2.57887 0.414595
1.60476 1.0115 -1.40586
-0.0891798 2.45762 1.96727
0.745585 1.83794 1.13619
1.39896 2.16896 -0.248616
1.56119 1.85692 -1.31113
0.649876 3.22526 -0.289592
1.44767 2.28166 -1.49254
0.437787 1.42998 2.13949
1.58786 1.93093 -1.12895
1.69332 1.69842 -0.853501
1.15273 3.08086 -1.88744
1.63232 1.88477 -0.878025
0.411827 3.10982 0.156658
0.479771 1.19089 2.56526
-0.0547296 2.92195 1.05591
0.739005 3.35704 -0.599213
1.78643 1.29117 -0.928702
1.80095 0.946648 -1.05265
0.338457 2.39234 1.09022
0.380485 1.36518 2.4128
1.47819 1.89548 -1.56519
0.113395 2.33295 1.55124
1.76425 1.45575 -0.861165
1.42596 2.43421 -1.44997
0.171324 1.69346 2.43796
1.51734 1.79887 -1.47878
1.81155 1.35811 -0.801501
-0.0548662 2.51266 1.71403
1.4765 1.57369 -1.62649
1.27269 2.94982 -1.313
0.787728 2.58194 0.277344
0.793224 1.41748 1.6004
0.476921 2.93785 0.286242
1.30178 2.2478 -1.94162
1.32778 2.80752 -1.2674
0.621298 3.39986 -0.499075
0.675632 1.51614 1.62223
0.42078 2.27233 1.10243
1.49365 2.27194 -0.814498
1.20669 2.96176 -0.958504
0.139241 2.08701 1.82859
1.33283 2.15592 -0.0841998
0.422985 2.03669 1.36178
0.639259 1.47644 1.72733
-0.207018 3.151 0.937976
1.68578 1.40261 -1.13842
1.43823 2.21287 -1.57269
1.70085 1.56969 -0.986163
1.01745 2.57907 -2.37828
0.909466 2.88603 -0.236026
1.31978 2.32551 -1.88004
1.77158 1.35343 -0.926681
1.47635 2.35247 -0.964184
0.555695 1.46231 1.87439
1.75348 1.61307 -0.283936
1.57895 1.89154 -0.27977
1.37265 2.63116 -0.995928
-0.158629 3.0245 1.08429
1.06409 2.08491 0.438927
1.17045 1.66652 0.807434
0.0190562 2.15555 2.10225
-0.0687322 3.05352 0.871131
0.00989937 2.17678 2.09998
0.658917 3.0287 -0.0535486
0.961658 2.3086 0.333089
1.6068 1.95237 -0.624152
1.32613 2.81372 -1.28801
0.460047 2.29477 1.02197
0.591611 1.85917 1.31839
1.2688 2.74065 -0.769468
-0.024866 2.6496 1.41161
0.217052 1.55731 2.61926
1.36527 1.46981 0.849511
1.6383 1.87462 -0.583304
1.80265 1.12234 -0.98259
1.90612 1.27307 -0.605659
-0.220669 2.80046 1.80273
0.428973 3.37426 -0.224283
0.312726 2.20052 1.34804
1.32592 2.0174 -1.92512
0.958898 3.48163 -1.31014
1.53625 1.65641 -1.46353
1.36533 2.67125 -1.06602
0.665013 3.27588 -2.46814
0.584203 3.64185 -2.21779
0.463432 3.45779 -2.46909
-0.716044 3.21484 -2.70621
-0.216419 3.59491 -2.46113
-0.572585 2.87092 -2.9253
-0.570136 3.2359 -2.71427
-0.0247225 3.71697 -2.33329
0.475118 3.74949 -2.1474
0.0655112 3.74013 -2.30005
-0.504569 3.48792 -2.52289
0.068826 3.48296 -2.5592
-0.642741 3.34771 -2.61896
-0.581435 3.33194 -2.64249
-0.274299 3.41559 -2.61544
0.624802 3.61907 -2.21082
0.363713 3.12402 -2.70798
0.93861 2.74673 -2.43451
-0.0551377 3.07716 -2.82253
-0.74577 3.02177 -2.82572
-0.497092 2.97003 -2.88004
0.757475 3.48281 -2.22755
0.146581 3.64758 -2.40031
-0.0690027 3.68441 -2.3725
0.875693 2.83214 -2.4787
-0.441958 3.51906 -2.50476
-0.189236 3.11619 -2.80997
-0.239926 3.77457 -2.22897
0.136008 2.97998 -2.83913
0.552921 3.56105 -2.33048
0.420523 3.76557 -2.15735
-0.712499 3.533 -2.4242
1.00701 3.41813 -1.82619
-0.929901 3.08019 -2.75967
0.973053 2.66508 -2.41514
-0.91619 3.48334 -2.41483
-1.00525 2.9647 -2.81918
0.557125 2.93643 -2.69682
-0.0952568 3.43421 -2.60651
-0.946295 3.48543 -2.4016
0.992427 2.85993 -2.32833
0.231918 3.73098 -2.2854
-0.978517 3.2018 -2.66308
-0.978087 2.81149 -2.91013
0.0634617 2.98791 -2.84954
-0.542859 3.56945 -2.43034
0.0329174 3.16959 -2.76486
0.904448 3.00441 -2.38099
0.907977 3.53963 -1.87332
0.106136 3.60566 -2.44826
0.872975 3.49447 -2.0461
-0.119585 3.13693 -2.79609
0.449576 3.72941 -2.19605
-0.995439 3.03428 -2.77749
0.835126 3.47001 -2.14093
-0.552246 3.58271 -2.41275
-0.091298 3.06327 -2.83261
0.793582 3.30337 -2.33767
1.00461 3.30645 -2.02106
0.930739 3.29226 -2.17204
0.610931 3.56453 -2.28455
-0.11973 3.71569 -2.33103
0.379317 3.50007 -2.47268
0.31493 3.68764 -2.31447
1.02429 2.94127 -2.24882
-0.683239 2.88326 -2.90936
-0.815435 2.99577 -2.83108
0.543698 3.71285 -2.15205
-0.22255 3.44313 -2.59706
1.03448 3.26773 -1.99722
0.981255 3.33934 -2.03324
0.804739 2.91467 -2.52088
0.970424 3.13124 -2.22858
0.636909 3.64378 -2.16663
0.361386 3.7922 -2.14531
0.304687 3.04861 -2.76335
0.288932 3.1282 -2.7313
0.0762373 3.67166 -2.38282
0.865158 3.48677 -2.0714
0.111781 3.80996 -2.19105
0.434585 3.79314 -2.09856
0.110128 3.09796 -2.78953
-0.69591 2.99696 -2.8465
0.105974 3.47484 -2.56095
0.280022 3.08329 -2.75535
0.846491 3.58687 -1.93487
0.00686121 3.78958 -2.23082
-0.0769229 3.49796 -2.55582
0.137284 3.65081 -2.39831
0.744297 2.97175 -2.55269
-0.159485 3.57147 -2.48863
0.142089 3.77458 -2.24291
-0.13262 3.13831 -2.79599
-0.628983 2.99218 -2.85679
-0.290073 3.21514 -2.75249
0.172833 3.16209 -2.74474
0.986252 2.75052 -2.37372
0.498924 3.75682 -2.11629
0.112022 3.8091 -2.19248
-0.261694 3.24664 -2.73386
