ply
format ascii 1.0
comment Created by Open3D
element vertex 400
property double x
property double y
property double z
end_header
2.05907 1.98045 0.46626
2.65908 0.65045 -0.48218
2.82793 0.95979 -0.08911
2.46114 1.94497 0.80706
2.86535 0.66674 -0.38027
1.29045 2.22772 -0.04899
2.80805 0.70861 -0.35384
1.9524 1.18327 -0.46041
2.03781 0.86497 -0.75434
1.8384 1.91115 0.17648
1.44908 1.82578 -0.30012
2.16219 1.81524 0.38198
2.98925 0.22728 -0.90157
2.60924 1.32991 0.19272
2.88636 0.65689 -0.38494
2.97322 0.80292 -0.21283
2.40134 1.98217 0.80447
1.79262 2.48741 0.78584
2.65699 0.77904 -0.34277
2.58662 0.32786 -0.96531
2.02857 2.02406 0.48479
1.47249 1.50715 -0.63229
2.5773 1.20914 0.05413
1.7485 1.27038 -0.58578
2.00072 1.26848 -0.32016
2.2895 1.55096 0.21093
2.59552 0.48242 -0.72483
2.58288 0.79522 -0.36489
1.53624 1.2351 -0.92638
2.13628 0.91109 -0.58607
2.20103 1.56776 0.15776
2.78867 1.81419 0.85193
1.81585 1.19962 -0.5917
2.35279 1.81872 0.55085
1.71029 2.65765 0.9218
1.58002 2.05223 0.06149
2.08635 0.7199 -0.90606
2.32956 0.77115 -0.57142
1.62879 1.50072 -0.45707
1.25727 2.3451 0.03669
1.63156 1.42415 -0.54114
2.76817 0.93051 -0.13885
2.80723 0.76645 -0.29311
2.08822 2.00601 0.52435
1.27243 2.9703 0.74279
1.64969 1.75739 -0.16454
2.34459 1.25143 -0.04973
2.86239 0.98927 -0.04948
1.90975 1.91727 0.25244
1.31213 1.78207 -0.4935
2.2199 0.64992 -0.84144
2.30342 1.34812 0.01695
2.15059 1.45526 0.0031
2.18448 1.90831 0.50545
2.80606 1.48916 0.44826
2.85373 1.36163 0.32624
2.67918 1.6371 0.56106
1.12195 2.39311 -0.04083
1.97282 2.09937 0.51283
1.71659 1.9876 0.13327
1.49544 2.62532 0.5824
2.6876 1.81281 0.79165
1.99406 1.69904 0.11
2.20358 1.81027 0.41333
1.61021 2.10893 0.14888
2.63027 1.60817 0.50096
1.59729 1.50473 -0.48791
1.57572 2.62107 0.67642
1.71941 1.30663 -0.57674
1.63302 2.55916 0.67045
2.27192 1.38811 0.03319
1.19087 2.23924 -0.132
2.41704 0.62837 -0.67236
2.18572 0.62041 -0.93181
1.41858 2.33224 0.18161
2.71524 1.47043 0.39078
1.08351 1.98317 -0.50643
1.22662 1.73127 -0.65121
2.02663 1.09713 -0.48099
2.09731 0.77554 -0.8066
1.41025 2.17476 0.0149
2.19936 0.99278 -0.4326
2.04065 2.12337 0.61398
1.64882 1.6924 -0.23172
1.01033 2.46337 -0.06826
1.78916 1.41859 -0.37339
2.94899 0.57677 -0.45751
2.52302 0.49979 -0.75529
1.01977 1.79282 -0.81942
2.68623 1.12615 0.02426
1.84607 1.61393 -0.11451
2.80233 0.26893 -0.90766
2.22332 0.58168 -0.94608
1.61135 2.42521 0.48449
2.79079 0.63132 -0.44403
1.95469 0.78549 -0.99724
1.8082 2.34329 0.61686
2.8988 1.84506 0.95399
1.57925 2.23479 0.24571
1.61664 2.17151 0.21909
1.25193 2.35524 0.04176
2.01022 1.36192 -0.2143
1.62175 2.49623 0.57897
1.24642 1.93181 -0.39728
1.35354 2.78401 0.60463
1.67606 2.69338 0.9247
2.00138 1.36253 -0.22189
1.90228 0.89993 -0.88612
1.39713 2.99767 0.96998
2.17856 0.68241 -0.84287
2.12181 0.90651 -0.60643
1.24566 2.91068 0.6326
1.50856 1.99055 -0.0717
2.4884 1.10383 -0.1022
1.87299 2.46367 0.8653
1.07976 3.17326 0.77781
2.26137 0.63951 -0.80888
1.40278 2.23719 0.07001
1.81565 1.46351 -0.29848
2.3947 1.22473 -0.04148
2.54946 0.53623 -0.68674
2.87276 1.80488 0.87721
1.8623 2.14365 0.44565
1.77097 2.34119 0.57048
1.98721 1.79751 0.2034
1.76272 1.50743 -0.30661
2.0382 0.86367 -0.75565
1.17193 2.22437 -0.16475
2.67119 1.81904 0.7901
1.66423 2.10086 0.1954
1.75161 1.37496 -0.46141
2.48259 0.61609 -0.63517
1.63756 2.524 0.63194
1.13328 3.24963 0.97187
1.8111 1.19722 -0.60017
1.69071 2.51251 0.6843
1.08814 1.76641 -0.77222
1.23325 2.0464 -0.28877
2.2759 2.05488 0.77959
1.28719 2.91083 0.68286
1.10247 2.68521 0.236
1.47872 1.37332 -0.80182
1.86871 2.45178 0.84099
1.29583 2.0344 -0.23939
1.18407 3.06668 0.76083
2.56229 0.39655 -0.87354
2.79881 1.24383 0.18673
2.80794 0.26271 -0.91479
2.59951 1.93085 0.90672
1.49336 2.06073 -0.01663
1.60014 2.36756 0.40814
2.24247 1.85628 0.49903
1.96181 2.21758 0.64189
1.45517 1.3865 -0.81666
1.87791 0.87637 -0.96372
2.77015 1.76864 0.77602
2.68581 1.01389 -0.08831
1.05784 2.85365 0.37138
1.41511 1.44754 -0.78598
2.33214 1.08111 -0.23104
2.41039 1.69046 0.44985
1.3532 1.38939 -0.97284
1.67372 1.57169 -0.33162
2.29409 1.38482 0.0467
1.87156 2.35282 0.70636
2.97837 0.49472 -0.54517
2.61213 1.21551 0.07866
1.05357 1.99899 -0.51839
1.84253 2.54808 0.95528
2.97878 1.66962 0.71603
2.67467 1.17245 0.06546
1.71029 2.3609 0.52353
2.80282 1.15457 0.09789
1.49345 1.32165 -0.85661
2.87338 1.23069 0.19619
2.95772 1.03748 0.02062
1.12351 2.7255 0.29734
1.40725 2.10603 -0.05682
1.36166 1.61283 -0.63699
1.50611 1.66023 -0.41634
2.88735 0.4895 -0.57358
2.6915 1.19381 0.09436
2.69234 0.85051 -0.25135
2.75365 1.25785 0.18459
1.65629 2.70173 0.90613
1.62434 1.54763 -0.41027
2.55412 1.01821 -0.15001
1.18978 2.97479 0.64716
1.99218 2.38301 0.91414
2.64503 0.45384 -0.73009
2.8962 1.46976 0.45538
2.77964 0.5661 -0.52209
1.14333 1.92429 -0.51241
1.39852 1.98333 -0.18922
2.29473 1.73612 0.40983
2.82227 1.8783 0.97508
2.06326 0.80505 -0.80691
2.81705 0.77854 -0.2772
2.46495 0.53649 -0.753
1.1669 3.20023 0.93943
1.9502 1.44315 -0.18758
1.2023 2.43006 0.0699
1.62395 2.20859 0.2648
2.63953 0.36364 -0.86295
1.33371 2.89041 0.71489
1.39629 1.5316 -0.69714
2.38632 1.77482 0.52695
2.8953 1.71605 0.7558
1.94834 2.45309 0.96444
2.40603 1.15846 -0.10025
1.06464 2.42679 -0.05806
2.36213 1.29287 0.00416
2.98934 1.69965 0.75885
2.7057 0.87817 -0.21704
1.45003 1.56323 -0.59107
2.04093 2.32235 0.88728
2.34771 1.28992 -0.00899
1.81253 1.30379 -0.47442
1.39426 2.19766 0.02205
2.97974 0.82826 -0.18587
1.87973 1.01795 -0.74504
1.09975 1.93768 -0.54233
2.44339 1.7738 0.5702
2.63462 0.56282 -0.59797
1.91664 2.34295 0.75041
2.14489 2.29606 0.9957
2.01053 0.91871 -0.71496
2.41705 1.94014 0.76002
1.70987 2.3239 0.48084
2.19171 2.12212 0.78088
1.30534 1.69313 -0.60556
2.45968 2.00444 0.89597
2.11961 0.78801 -0.76192
2.92919 0.64687 -0.38504
1.02932 2.43098 -0.08452
2.18924 1.62573 0.20697
1.43881 1.58883 -0.57373
1.73824 2.44602 0.65945
2.16022 2.03437 0.63137
1.30938 3.04475 0.90479
2.6762 1.92508 0.95918
1.68994 2.62541 0.83944
2.24292 1.68445 0.31214
1.75217 2.52947 0.78929
2.13719 0.966 -0.52061
1.88727 2.50423 0.9535
1.62271 2.0617 0.11384
2.45122 1.77199 0.574
1.90557 1.56891 -0.10271
1.36611 1.70308 -0.52381
2.80826 1.49803 0.45893
2.2901 2.15689 0.95402
1.74241 1.6818 -0.14797
2.09956 2.25975 0.86982
2.57902 1.98046 0.9726
1.81861 1.81189 0.05721
1.996 1.48059 -0.10711
2.53808 1.78799 0.65774
2.88935 0.51047 -0.54822
1.86211 2.09714 0.39451
2.48075 1.43656 0.22801
1.6638 1.46837 -0.45422
2.48238 0.51874 -0.76258
1.63992 2.10314 0.17307
2.34847 0.84823 -0.46694
1.41281 2.9831 0.97157
2.69393 1.32345 0.22685
1.26389 2.87582 0.61103
1.67336 1.38045 -0.54354
1.85612 2.34438 0.67621
1.70501 1.71218 -0.15462
1.38858 2.85591 0.74055
2.53385 2.00092 0.96466
1.03693 3.32802 0.95995
2.59906 1.13877 -0.00483
2.55353 1.4774 0.31458
1.00118 2.74946 0.21173
1.88877 2.03147 0.35129
1.52043 1.83614 -0.21588
1.64543 2.35008 0.43857
1.69019 1.34741 -0.56271
1.18949 1.60666 -0.87179
2.55522 0.73944 -0.44184
1.04632 2.40142 -0.09949
2.2602 1.79896 0.45008
1.88816 1.70066 0.01272
2.16983 2.1481 0.79226
1.58857 2.22171 0.24183
1.7629 2.08959 0.28432
2.77579 0.33203 -0.82439
2.05409 1.28757 -0.25034
2.13375 1.04314 -0.43694
2.46527 1.38245 0.16305
2.80375 1.03401 -0.02252
2.50025 0.72158 -0.49739
1.1333 2.00881 -0.42779
2.11788 0.65516 -0.96957
2.42367 1.97806 0.82013
2.16065 1.91737 0.49338
1.20588 2.71098 0.36197
2.6864 0.50423 -0.64049
2.6268 0.89511 -0.2367
1.20508 2.62895 0.27477
1.83214 2.23809 0.51954
1.09155 3.06918 0.65362
2.09417 1.85959 0.36763
1.63944 2.28521 0.36163
2.75993 0.31888 -0.85272
1.52802 2.09481 0.05207
1.86236 1.98228 0.27311
1.20783 2.99222 0.69082
2.74255 0.88126 -0.19861
1.38895 2.26306 0.0823
1.16447 1.76219 -0.68548
1.64345 1.46978 -0.47533
2.36013 1.48986 0.20109
1.67373 1.10962 -0.90694
2.39542 2.00291 0.82891
1.28616 3.0727 0.91391
2.31016 1.96499 0.69296
2.47084 1.50541 0.29294
2.37734 2.00807 0.81828
1.66972 1.46699 -0.4492
2.99306 1.81301 0.93064
2.1052 0.79738 -0.76605
2.43489 1.27888 0.0394
2.54706 0.57516 -0.63904
1.39382 1.46988 -0.78409
1.99587 2.21976 0.68433
2.40766 0.84248 -0.42791
2.67883 1.59485 0.51172
1.3622 2.10623 -0.10103
2.98545 1.67516 0.72481
1.61201 2.76159 0.93197
1.28967 1.58682 -0.76234
1.27782 2.62977 0.34794
1.27006 3.04223 0.84205
1.2925 2.76724 0.51498
1.11288 2.62983 0.18887
2.62235 0.87739 -0.25724
2.34497 1.74509 0.4603
2.22784 0.6068 -0.89854
2.92717 1.38796 0.37369
1.5303 1.77208 -0.27174
1.87824 1.39642 -0.3057
2.52105 1.08296 -0.10366
2.30671 1.15814 -0.17143
2.85619 0.56886 -0.49109
2.25545 1.73355 0.37466
2.95204 0.19423 -0.96787
1.32226 1.46627 -0.89421
2.15477 0.814 -0.68757
1.17724 2.41101 0.02754
2.90117 1.19409 0.16609
2.31494 1.49536 0.17357
1.40136 2.8932 0.81042
1.67144 1.32611 -0.61066
1.32247 1.73541 -0.53561
1.37994 1.6876 -0.52603
1.96981 1.13841 -0.49278
1.80976 0.95142 -0.94738
1.0555 2.26287 -0.23199
2.57777 1.64285 0.50988
1.55982 2.73688 0.81236
1.01678 2.13044 -0.4068
2.41222 2.06386 0.94323
1.4672 2.74301 0.69397
2.37257 1.32781 0.04641
2.67996 1.6308 0.55404
2.93194 0.4126 -0.65518
1.21616 1.87177 -0.49551
1.43104 2.43706 0.30234
2.41449 1.93972 0.75712
1.55551 2.42319 0.42015
1.4311 1.63822 -0.52477
1.7567 2.40069 0.62553
2.26022 1.44637 0.08256
2.4445 0.59199 -0.69619
2.90346 1.31437 0.29021
2.19978 1.33259 -0.07917
1.24305 1.48595 -0.98988
2.06688 1.52396 -5e-05
1.44084 2.50409 0.38386
2.86371 1.82933 0.91239
2.97103 0.98244 -0.03208
2.83839 0.78689 -0.2617
2.75254 1.28868 0.21561
2.27541 1.67475 0.32836
1.21369 1.77471 -0.61243
2.94041 0.8592 -0.16168
2.06067 2.2469 0.80009
2.72377 1.60867 0.54994
2.69456 1.24841 0.15071
2.84788 0.44356 -0.64258
2.33221 1.04462 -0.26865
2.01397 0.91686 -0.7133
2.08657 2.28467 0.89128
2.22819 1.36574 -0.0232
1.98522 1.83461 0.23955
2.23879 1.7291 0.35599
