ply
format ascii 1.0
comment Created by Open3D
element vertex 400
property double x
property double y
property double z
end_header
-1.98045 1.78568 -1.12629
-0.65045 1.5393 -2.22121
-0.95979 1.93664 -2.06266
-1.94497 2.31097 -1.16961
-0.66674 1.75722 -2.295
-2.22772 0.877845 -0.947127
-0.70861 1.73539 -2.23579
-1.18327 1.055 -1.70611
-0.86497 0.90755 -1.97435
-1.91115 1.42474 -1.17515
-1.82578 0.812437 -1.23687
-1.81524 1.799 -1.2588
-0.22728 1.47621 -2.75123
-1.32991 1.98128 -1.70874
-0.65689 1.76877 -2.31316
-0.80292 1.95189 -2.25288
-1.98217 2.26685 -1.12916
-2.48741 1.82325 -0.711901
-0.77904 1.6364 -2.12115
-0.32786 1.14644 -2.51159
-2.02406 1.77721 -1.09162
-1.50715 0.594111 -1.4883
-1.20914 1.8607 -1.78415
-1.27038 0.822167 -1.65059
-1.26848 1.18834 -1.64111
-1.55096 1.76807 -1.46977
-0.48242 1.32278 -2.34784
-0.79522 1.56836 -2.08439
-1.2351 0.431236 -1.74134
-0.91109 1.09616 -1.92499
-1.56776 1.66792 -1.44481
-1.81419 2.57429 -1.36948
-1.19962 0.865605 -1.70239
-1.81872 2.05318 -1.27416
-2.65765 1.86117 -0.557547
-2.05223 1.16072 -1.07376
-0.7199 0.834591 -2.11595
-0.77115 1.24319 -2.0513
-1.50072 0.828531 -1.47493
-2.3451 0.914968 -0.86308
-1.42415 0.771043 -1.53633
-0.93051 1.85921 -2.05557
-0.76645 1.77775 -2.19227
-2.00601 1.84737 -1.10582
-2.9703 1.42498 -0.374512
-1.75739 1.05016 -1.28285
-1.25143 1.62271 -1.69304
-0.98927 1.98903 -2.059
-1.91727 1.5289 -1.1719
-1.78207 0.578859 -1.27677
-0.64992 0.974718 -2.16469
-1.34812 1.64075 -1.61678
-1.45526 1.52289 -1.5185
-1.90831 1.90207 -1.18725
-1.48916 2.30115 -1.66722
-1.36163 2.24858 -1.78721
-1.6371 2.2912 -1.49774
-2.39311 0.764467 -0.82221
-2.09937 1.75762 -1.03237
-1.9876 1.30805 -1.11958
-2.62532 1.46925 -0.645617
-1.81281 2.4602 -1.34064
-1.69904 1.4878 -1.33223
-1.81027 1.85043 -1.2659
-2.10893 1.24386 -1.03332
-1.60817 2.21411 -1.50565
-1.50473 0.78445 -1.47446
-2.62107 1.5925 -0.635901
-1.30663 0.80799 -1.62362
-2.55916 1.6288 -0.68064
-1.38811 1.62996 -1.58302
-2.23924 0.748734 -0.93541
-0.62837 1.23368 -2.18454
-0.62041 0.886648 -2.20443
-2.33224 1.13151 -0.87467
-1.47043 2.19629 -1.64364
-1.98317 0.408057 -1.12426
-1.73127 0.406876 -1.32783
-1.09713 1.09293 -1.77316
-0.77554 0.91267 -2.05337
-2.17476 1.00773 -0.986661
-0.99278 1.24929 -1.86108
-2.12337 1.87711 -1.00881
-1.6924 1.00204 -1.32974
-2.46337 0.666144 -0.762678
-1.41859 1.0011 -1.52915
-0.57677 1.76174 -2.40876
-0.49979 1.24997 -2.31812
-1.79282 0.141669 -1.3005
-1.12615 1.91661 -1.8823
-1.61393 1.2244 -1.38634
-0.26893 1.33973 -2.62336
-0.58168 0.903145 -2.2411
-2.42521 1.48198 -0.79681
-0.63132 1.65941 -2.28736
-0.78549 0.677019 -2.08733
-2.34329 1.71478 -0.842405
-1.84506 2.72433 -1.37519
-2.23479 1.29044 -0.942955
-2.17151 1.29806 -0.988217
-2.35524 0.914777 -0.855719
-1.36192 1.26991 -1.57297
-2.49623 1.55614 -0.737357
-1.93181 0.600433 -1.16227
-2.78401 1.38464 -0.529559
-2.69338 1.83902 -0.531292
-1.36253 1.25829 -1.57209
-0.89993 0.718534 -1.9717
-2.99767 1.6738 -0.302041
-0.68241 0.944475 -2.13647
-0.90651 1.07154 -1.92916
-2.91068 1.32813 -0.433499
-1.99055 1.01601 -1.11741
-1.10383 1.6873 -1.83183
-2.46367 1.93626 -0.712544
-3.17326 1.3135 -0.213511
-0.63951 1.02707 -2.17099
-2.23719 1.04142 -0.942411
-1.46351 1.0728 -1.49492
-1.22473 1.66398 -1.72264
-0.53623 1.31714 -2.28834
-1.80488 2.65163 -1.41107
-2.14365 1.63197 -1.00172
-2.34119 1.65566 -0.848875
-1.79751 1.549 -1.26134
-1.50743 1.02963 -1.46324
-0.86367 0.9069 -1.97555
-2.22437 0.712184 -0.945175
-1.81904 2.4475 -1.33013
-2.10086 1.31496 -1.03862
-1.37496 0.912309 -1.56484
-0.61609 1.30632 -2.20459
-2.524 1.60478 -0.711081
-3.24963 1.48857 -0.114134
-1.19722 0.856257 -1.70503
-2.51251 1.67939 -0.711639
-1.76641 0.223389 -1.31547
-2.0464 0.667848 -1.07623
-2.05488 2.16056 -1.05805
-2.91083 1.39304 -0.427326
-2.68521 0.946441 -0.612687
-1.37332 0.478641 -1.61259
-2.45178 1.91605 -0.726708
-2.0344 0.747016 -1.08556
-3.06668 1.37525 -0.299276
-0.39655 1.19413 -2.4295
-1.24383 2.1111 -1.84702
-0.26271 1.33866 -2.63237
-1.93085 2.47928 -1.19698
-2.06073 1.04421 -1.06772
-2.36756 1.42007 -0.842871
-1.85628 1.93853 -1.2328
-2.21758 1.84109 -0.933324
-1.3865 0.451495 -1.60643
-0.87637 0.64643 -2.00934
-1.76864 2.50752 -1.41006
-1.01389 1.83671 -1.9616
-2.85365 1.01061 -0.485401
-1.44754 0.444862 -1.55641
-1.08111 1.4857 -1.81244
-1.69046 2.0225 -1.38631
-1.38939 0.268955 -1.64476
-1.57169 0.949008 -1.41799
-1.38482 1.65519 -1.58914
-2.35282 1.82286 -0.823921
-0.49472 1.72053 -2.49152
-1.21551 1.90268 -1.79143
-1.99899 0.378429 -1.11154
-2.54808 1.97835 -0.62738
-1.66962 2.61263 -1.60001
-1.17245 1.93756 -1.84499
-2.3609 1.57955 -0.839166
-1.15457 2.05111 -1.91267
-1.32165 0.450314 -1.66174
-1.23069 2.17051 -1.89306
-1.03748 2.106 -2.07684
-2.7255 1.00469 -0.58419
-2.10603 0.954898 -1.03525
-1.61283 0.512419 -1.41326
-1.66023 0.770584 -1.35938
-0.4895 1.63608 -2.44725
-1.19381 1.9699 -1.83646
-0.85051 1.72604 -2.0815
-1.25785 2.07765 -1.8166
-2.70173 1.8119 -0.530443
-1.54763 0.858477 -1.43869
-1.01821 1.69996 -1.91211
-2.97479 1.29891 -0.38369
-2.38301 2.05508 -0.762289
-0.45384 1.35407 -2.38657
-1.46976 2.36992 -1.72592
-0.5661 1.59633 -2.33468
-1.92429 0.446128 -1.17078
-1.98333 0.855104 -1.1227
-1.73612 1.91241 -1.33283
-1.8783 2.68513 -1.30616
-0.80505 0.888374 -2.02952
-0.77854 1.79595 -2.18797
-0.53649 1.21053 -2.27543
-3.20023 1.4894 -0.160846
-1.44315 1.24636 -1.51164
-2.43006 0.899581 -0.800728
-2.20859 1.33555 -0.961064
-0.36364 1.25623 -2.47663
-2.89041 1.44858 -0.437572
-1.5316 0.494374 -1.48028
-1.77482 2.05999 -1.31477
-1.71605 2.58172 -1.51285
-2.45309 2.05965 -0.695722
-1.15846 1.63043 -1.77221
-2.42679 0.71176 -0.793869
-1.29287 1.67322 -1.66734
-1.69965 2.65037 -1.57719
-0.87817 1.75975 -2.06669
-1.56323 0.607376 -1.44328
-2.32235 2.07056 -0.815754
-1.28992 1.65372 -1.66644
-1.30379 0.946187 -1.61712
-2.19766 1.00148 -0.970299
-0.82826 1.97556 -2.23842
-1.01795 0.802347 -1.85599
-1.93768 0.394155 -1.16113
-1.7738 2.13093 -1.32455
-0.56282 1.44013 -2.28579
-2.34295 1.88589 -0.824649
-2.29606 2.22073 -0.8126
-0.91871 0.916106 -1.92721
-1.94014 2.24653 -1.1717
-2.3239 1.54907 -0.869055
-2.12212 2.10194 -0.997607
-1.69313 0.494819 -1.35121
-2.00444 2.3728 -1.10571
-0.78801 0.960032 -2.03755
-0.64687 1.79899 -2.34351
-2.43098 0.668074 -0.787604
-1.62573 1.69438 -1.40168
-1.58883 0.611704 -1.42308
-2.44602 1.69542 -0.76282
-2.03437 1.97395 -1.08106
-3.04475 1.56565 -0.286088
-1.92508 2.5706 -1.21412
-2.62541 1.78854 -0.601394
-1.68445 1.8067 -1.36527
-2.52947 1.79708 -0.680859
-0.966 1.14309 -1.87935
-2.50423 2.00873 -0.660275
-2.0617 1.22793 -1.06693
-1.77199 2.13915 -1.32739
-1.56891 1.27481 -1.42007
-1.70308 0.595596 -1.33638
-1.49803 2.31025 -1.66123
-2.15689 2.29394 -0.944751
-1.6818 1.12744 -1.3367
-2.25975 2.09967 -0.869557
-1.98046 2.51137 -1.13591
-1.81189 1.32641 -1.2455
-1.48059 1.33565 -1.48712
-1.78799 2.25979 -1.3296
-0.51047 1.65543 -2.43073
-2.09714 1.59567 -1.03775
-1.43656 1.91538 -1.59293
-1.46837 0.855302 -1.49767
-0.51874 1.21608 -2.29453
-2.10314 1.28198 -1.03722
-0.84823 1.33044 -1.9908
-2.9831 1.68601 -0.312004
-1.32345 2.0653 -1.74449
-2.87582 1.32577 -0.461642
-1.38045 0.798903 -1.56759
-2.34438 1.79063 -0.834322
-1.71218 1.09629 -1.31496
-2.85591 1.50552 -0.458226
-2.00092 2.47382 -1.10958
-3.32802 1.41201 -0.0544331
-1.13877 1.8344 -1.84123
-1.4774 2.02806 -1.58318
-2.74946 0.857657 -0.558225
-2.03147 1.58396 -1.08716
-1.83614 0.922456 -1.22776
-2.35008 1.47361 -0.853379
-1.34741 0.797249 -1.59304
-1.60666 0.224648 -1.45755
-0.73944 1.49439 -2.11924
-2.40142 0.66951 -0.81021
-1.79896 1.91646 -1.27995
-1.70066 1.34413 -1.32614
-2.1481 2.09451 -0.974089
-2.22171 1.29429 -0.952289
-2.08959 1.4476 -1.04551
-0.33203 1.37985 -2.54571
-1.28757 1.27544 -1.62948
-1.04314 1.19983 -1.81775
-1.38245 1.8585 -1.62792
-1.03401 1.96663 -1.99847
-0.72158 1.41624 -2.11965
-2.00881 0.498871 -1.10386
-0.65516 0.811978 -2.18316
-1.97806 2.29371 -1.13387
-1.91737 1.87668 -1.17894
-2.71098 1.10864 -0.596734
-0.50423 1.44668 -2.35247
-0.89511 1.69006 -2.0248
-2.62895 1.04641 -0.657829
-2.23809 1.66289 -0.928148
-3.06918 1.23402 -0.309663
-1.85959 1.74076 -1.22085
-2.28521 1.41497 -0.903548
-0.31888 1.3486 -2.55453
-2.09481 1.11729 -1.04365
-1.98228 1.51001 -1.12377
-2.99222 1.34255 -0.365581
-0.88126 1.79884 -2.07971
-2.26306 1.04033 -0.923941
-1.76219 0.338697 -1.30811
-1.46978 0.825986 -1.4982
-1.48986 1.81106 -1.52667
-1.10962 0.542202 -1.82481
-2.00291 2.27995 -1.10769
-3.0727 1.55568 -0.26322
-1.96499 2.12353 -1.14353
-1.50541 1.95429 -1.54001
-2.00807 2.25964 -1.10242
-1.46699 0.863038 -1.4983
-1.81301 2.77447 -1.45835
-0.79738 0.946922 -2.03028
-1.27888 1.74959 -1.69387
-0.57516 1.34917 -2.25291
-1.46988 0.431144 -1.54001
-2.21976 1.89519 -0.927399
-0.84248 1.39989 -2.00505
-1.59485 2.25606 -1.53238
-2.10623 0.891782 -1.03466
-1.67516 2.62355 -1.59851
-2.76159 1.79887 -0.480861
-1.58682 0.372879 -1.45099
-2.62977 1.14959 -0.657524
-3.04223 1.49349 -0.302649
-2.76724 1.27808 -0.54979
-2.62983 0.920476 -0.653374
-0.87739 1.67239 -2.03618
-1.74509 1.98363 -1.33266
-0.6068 0.939957 -2.21068
-1.38796 2.33406 -1.80558
-1.77208 0.889936 -1.27423
-1.39642 1.11195 -1.54428
-1.08296 1.70935 -1.85595
-1.15814 1.50987 -1.75231
-0.56886 1.67238 -2.36688
-1.73355 1.85977 -1.32992
-0.19423 1.40302 -2.77179
-1.46627 0.302677 -1.56728
-0.814 1.03747 -2.00984
-2.41101 0.851908 -0.812961
-1.19409 2.16888 -1.93399
-1.49536 1.75964 -1.51418
-2.8932 1.56396 -0.417858
-1.32611 0.750085 -1.61369
-1.73541 0.556394 -1.31386
-1.6876 0.603806 -1.34772
-1.13841 1.04442 -1.74131
-0.95142 0.609795 -1.94959
-2.26287 0.58231 -0.910393
-1.64285 2.1833 -1.46222
-2.73688 1.67738 -0.528534
-2.13044 0.431321 -1.00662
-2.06386 2.37266 -1.03873
-2.74301 1.52818 -0.546756
-1.32781 1.71048 -1.64484
-1.6308 2.28678 -1.50325
-0.4126 1.60991 -2.53648
-1.87177 0.509577 -1.21033
-2.43706 1.22568 -0.798111
-1.93972 2.24267 -1.17194
-2.42319 1.397 -0.802821
-1.63822 0.640872 -1.38301
-2.40069 1.68449 -0.799858
-1.44637 1.6566 -1.53984
-0.59199 1.23624 -2.2208
-1.31437 2.25827 -1.84785
-1.33259 1.4995 -1.61146
-1.48595 0.179018 -1.57892
-1.52396 1.46147 -1.46154
-2.50409 1.29026 -0.747398
-1.82933 2.67011 -1.37979
-0.98244 2.07815 -2.12352
-0.78689 1.82199 -2.19209
-1.28868 2.0988 -1.79388
-1.67475 1.84114 -1.37677
-1.77471 0.425155 -1.29126
-0.8592 1.96486 -2.19351
-2.2469 2.02286 -0.891365
-1.60867 2.31486 -1.53713
-1.24841 2.01191 -1.79877
-0.44356 1.55938 -2.46813
-1.04462 1.45916 -1.83909
-0.91686 0.919713 -1.92847
-2.28467 2.10566 -0.845198
-1.36574 1.55916 -1.59197
-1.83461 1.57315 -1.23438
-1.7291 1.83479 -1.33134
