ply
format ascii 1.0
comment Created by Open3D
element vertex 250
property double x
property double y
property double z
end_header
3.01787 0.0267434 0.779784
1.11927 0.225126 2.19496
2.21217 1.12038 0.285244
2.96944 -0.29313 1.18523
3.03797 0.730121 0.137468
2.40537 0.599167 0.72508
1.83939 0.335193 1.63756
1.89403 -0.654442 2.53918
0.893592 0.305391 2.22637
0.911084 -0.893283 2.65003
2.11199 1.34381 0.131012
2.19991 -0.388827 2.14587
2.92567 0.927887 0.035664
1.19784 -1.88142 2.85961
2.64521 0.324294 0.827891
2.68374 -0.983974 2.29887
2.34842 -1.36042 2.7889
2.71054 0.322904 0.76506
1.63929 0.417341 1.72378
2.31258 -1.2035 2.72795
1.52082 -0.294211 2.40132
1.92849 -0.55008 2.44909
2.22368 0.926676 0.49731
0.967639 0.564322 2.08
0.647262 -0.868036 2.57293
1.94905 0.346464 1.52007
2.56873 0.933188 0.216756
2.57533 -0.321596 1.71561
2.00861 0.271728 1.55449
0.36544 -0.461016 2.40924
2.11831 -1.19951 2.79744
1.82739 -1.57153 2.95037
0.896479 0.450206 2.16487
2.59646 1.17396 -0.0193929
0.694433 -0.321741 2.44827
1.73471 1.55861 0.28246
3.3885 0.134319 0.353528
1.17424 -1.85477 2.85433
1.77922 -0.15974 2.19314
2.97281 0.296392 0.553335
2.95134 0.0527552 0.823987
1.36019 -1.00713 2.76422
1.82934 0.679407 1.22803
2.52414 1.606 -0.314218
3.19095 0.642259 0.13387
0.663349 -0.342021 2.44908
2.36248 1.87443 -0.427286
0.410821 -0.644063 2.4561
2.14739 0.517225 1.09521
2.04589 -0.211283 2.07556
1.39769 -0.850687 2.70928
2.17387 1.44495 -0.0148534
1.52734 -0.640349 2.60813
1.06635 -0.86839 2.67591
1.38048 0.22174 2.08247
0.952701 -0.903658 2.66246
0.879553 0.56176 2.12585
2.06818 0.112906 1.69237
2.72011 -0.0296823 1.18231
2.81922 0.859475 0.138749
1.24911 -1.49688 2.8581
0.835541 -1.30826 2.71383
0.225437 -0.0859195 2.31975
0.681083 -1.12567 2.63365
2.88446 0.75158 0.196582
1.98459 1.95159 -0.290872
2.10363 -0.313846 2.13953
2.08531 -0.935113 2.6612
2.79143 -0.623616 1.80878
2.00422 1.86937 -0.247911
1.9528 -0.497256 2.39614
1.73197 1.50211 0.345733
2.95391 -0.435676 1.36851
1.86999 -1.57821 2.95167
1.96753 1.63107 -0.0264537
2.79143 0.0379828 1.01773
1.05901 -0.360604 2.49169
0.779046 -1.29916 2.69402
2.41164 0.262517 1.14996
1.18513 -1.07178 2.75708
1.64065 -1.11249 2.81919
2.4438 1.07732 0.156286
2.00076 -1.59737 2.94901
1.32913 -0.242788 2.41234
2.89963 -0.699746 1.74323
2.27948 -1.05881 2.65829
3.09761 -0.126662 0.843895
1.3227 -1.60432 2.88716
1.4803 -1.70278 2.92713
2.14996 1.62876 -0.159265
2.78653 -0.177824 1.28536
2.64773 -0.102081 1.3579
1.58512 0.493871 1.69062
2.9157 -0.420582 1.40527
2.15116 1.28353 0.161122
0.814617 -0.214103 2.42764
2.07114 -1.53807 2.92834
0.979574 0.0489406 2.31901
1.97778 1.61436 -0.0199547
1.91101 1.56461 0.0870379
0.854426 -0.737075 2.59506
1.87512 0.655172 1.20865
1.78935 1.48734 0.293891
1.24416 0.79392 1.72267
0.0843044 -0.239973 2.30051
2.37185 1.4418 -0.132247
0.441376 -0.0949799 2.35871
2.19063 1.06219 0.369148
0.94156 -0.228083 2.4369
1.74056 0.650036 1.36053
2.30025 -1.29055 2.77781
0.640762 -0.0214265 2.3612
3.37538 0.353284 0.230795
1.50178 1.09288 1.12161
2.32167 1.57747 -0.214685
2.68722 1.23335 -0.105599
3.0791 0.669512 0.163924
0.960354 0.618896 2.05746
2.45402 0.93039 0.299988
0.472706 -0.820545 2.50885
2.52955 1.40815 -0.177421
2.56289 -1.28215 2.62228
1.2145 0.349166 2.07665
1.76049 0.132133 1.92528
2.6476 0.473684 0.649214
2.94299 -0.481388 1.43616
2.76855 1.01043 0.0368823
2.646 -0.877248 2.24272
2.61165 0.350163 0.830044
2.46133 -1.08427 2.56921
2.20621 0.690545 0.807602
1.76974 0.638701 1.34315
2.12302 1.03514 0.463194
1.84714 1.04347 0.746747
2.58081 -0.478873 1.89576
2.83916 -0.349092 1.42524
2.21429 -0.0943461 1.80669
1.36616 0.0890019 2.18761
2.63238 -1.05856 2.41159
2.85044 0.273014 0.687305
0.437633 0.136792 2.31891
2.81748 0.969213 0.0485342
2.5292 -0.665999 2.15265
2.55965 -0.10835 1.46734
2.62045 -0.968502 2.34934
0.01652 -0.216442 2.27939
2.10377 1.25725 0.228943
1.92649 0.331357 1.56042
2.91505 1.21721 -0.162236
2.53629 -0.783609 2.26188
2.35148 0.0569877 1.48211
1.93825 -0.996868 2.7388
2.7429 0.0645249 1.04022
0.341262 -0.225153 2.36288
2.28567 -0.836488 2.49654
0.840462 -0.80541 2.61027
2.1789 -0.137906 1.88934
1.6248 0.661896 1.46871
1.20627 -0.0713371 2.33854
2.33528 1.4649 -0.132116
2.23004 -0.177616 1.89014
3.08816 -0.0578244 0.787221
1.83722 0.596825 1.32301
1.55035 -1.6057 2.93109
2.23633 -0.727445 2.43736
2.05626 -0.522433 2.36507
1.85467 -1.56723 2.94982
1.54315 1.04396 1.12323
1.72188 1.36803 0.507556
2.56402 0.724528 0.437839
3.02484 -0.0873065 0.890121
1.55505 -1.37168 2.89155
2.78272 -0.223951 1.34651
2.68366 1.49431 -0.285718
1.41498 0.647291 1.69107
1.33089 0.92146 1.51722
0.410972 -0.691347 2.46494
2.43621 -0.744578 2.31185
2.75926 -0.0532149 1.16553
1.85471 -0.108965 2.10175
2.96822 -0.0967887 0.967586
2.64036 0.264022 0.90621
2.01409 0.657139 1.05472
2.22508 0.350229 1.23276
1.7854 -1.23806 2.86303
3.59432 0.255162 0.170741
2.06747 -1.61477 2.94491
1.8658 1.46116 0.237913
1.25958 -0.392754 2.50145
3.03619 0.22312 0.568691
3.26686 -0.00879294 0.555619
0.999374 -0.282266 2.45885
3.13989 -0.106234 0.774568
1.60989 -1.06643 2.80144
1.65314 -0.299406 2.36358
1.65746 1.50596 0.436108
2.86656 0.614497 0.329792
2.42593 -1.39977 2.7683
1.13709 0.482298 2.03156
2.6451 0.847034 0.251741
2.33979 -2.36426 2.77799
1.7504 -2.53568 2.76197
2.13321 -2.27065 2.87981
1.86631 -1.75606 2.97204
2.41413 -2.38478 2.73202
1.7607 -1.87415 2.96776
2.03576 -2.49076 2.77902
1.91324 -2.15775 2.93409
1.65263 -3.47144 1.58946
2.47345 -2.52934 2.58891
1.93158 -1.75916 2.97218
2.34088 -2.1156 2.87813
1.91667 -3.26528 1.87943
2.31034 -1.87036 2.91818
2.02992 -2.21957 2.91118
1.90296 -2.79719 2.53988
2.38086 -1.80398 2.89104
1.77454 -3.34903 1.77894
1.61824 -2.85858 2.49265
1.96532 -3.15872 2.04208
2.21107 -1.79106 2.942
1.71209 -3.29514 1.88893
2.35953 -2.44459 2.7193
1.67955 -2.05635 2.9407
1.64483 -2.69224 2.64471
2.03568 -2.93354 2.3511
1.72223 -2.44044 2.8156
2.38366 -2.4137 2.72869
2.04046 -3.27386 1.80799
2.1277 -2.73126 2.55977
2.55791 -2.39721 2.63269
2.04261 -2.27907 2.88828
1.49626 -2.05028 2.91259
1.85591 -2.55158 2.7523
1.67034 -2.6061 2.7109
2.28822 -2.92718 2.24192
2.52252 -2.69897 2.37042
2.26572 -2.80521 2.42024
2.04164 -2.93957 2.34123
1.66441 -2.696 2.64256
1.88788 -2.69446 2.63961
1.66057 -2.98708 2.34779
2.57451 -3.0201 1.78987
2.11509 -3.32758 1.66246
1.98829 -3.24277 1.88941
1.80656 -2.99321 2.32527
2.20894 -3.16351 1.90577
2.47405 -1.98036 2.84599
1.94514 -2.95662 2.34599
1.68314 -3.03004 2.29198
