ply
format ascii 1.0
comment Created by Open3D
element vertex 400
property double x
property double y
property double z
end_header
-0.539933 -2.7537 1.51442
-2.26596 -0.69327 1.76067
-0.929308 -2.25388 1.2862
-1.75221 -1.22355 0.428705
-0.628448 -2.55562 1.94582
-0.659398 -2.57825 1.67469
-1.29386 -1.77289 0.408786
-1.10521 -2.00734 1.59011
-2.23233 -0.77056 1.86048
-2.72596 -0.24696 1.49289
-0.364004 -2.99834 1.30286
-1.37087 -1.63425 1.13913
-2.03534 -0.79365 0.928636
-2.09705 -0.81414 1.6686
-1.88618 -0.9805 1.40846
-0.0847467 -3.30953 1.34037
-0.503432 -2.82164 1.34128
-2.46224 -0.36709 1.14551
-0.799978 -2.41134 0.633483
-2.13744 -0.70202 0.810585
-1.26722 -1.78967 1.54951
-1.48616 -1.50593 1.5966
-1.93684 -0.92077 1.40484
-1.2915 -1.74512 1.07516
-0.856568 -2.34192 0.6916
-1.16651 -1.92835 1.72058
-1.75777 -1.22218 0.412045
-1.58675 -1.55272 2.28021
-1.77352 -1.10317 0.940042
-1.41778 -1.72046 2.33365
-0.388619 -2.88959 1.71478
-1.84985 -1.00519 1.22986
-1.47937 -1.5422 0.43533
-2.06354 -0.80205 1.51194
-1.50395 -1.4823 0.631015
-1.45173 -1.52768 0.90026
-2.18348 -0.91436 2.04608
-1.3825 -1.73894 2.26807
-0.724282 -2.53973 1.1054
-1.37186 -1.66958 0.472206
-1.84851 -1.0088 0.962068
-0.994928 -2.12102 2.15437
-2.33275 -0.49018 1.2826
-1.74511 -1.1556 1.43694
-2.0822 -0.8438 1.70988
-1.18805 -1.90645 0.341844
-1.24899 -1.85259 2.12193
-1.65242 -1.25311 1.05384
-1.46537 -1.74336 2.56357
-1.56325 -1.3709 1.10134
-2.67261 -0.22845 1.29327
-1.36404 -1.67134 0.549641
-2.10137 -0.72602 0.893302
-2.63121 -0.3409 1.59036
-2.41651 -0.40501 1.13526
-1.28914 -1.76911 1.68929
-0.737965 -2.45822 1.81256
-0.387749 -2.86968 1.78397
-1.14165 -1.95667 0.916128
-1.29244 -1.75238 0.742137
-2.35549 -0.46914 0.942842
-0.93167 -2.20022 2.03757
-1.49643 -1.48906 0.654434
-0.341214 -2.95698 1.66445
-1.02152 -2.09156 2.18242
-2.33056 -0.48259 1.17574
-1.31242 -1.81716 2.34412
-1.02901 -2.1124 1.43847
-1.98136 -0.8482 1.21526
-1.3306 -1.77374 2.17368
-1.35159 -1.74161 2.10641
-1.23498 -1.8458 0.406692
-0.741416 -2.50164 1.4491
-2.70402 -0.22763 1.38381
-2.13075 -0.74921 1.57285
-0.729861 -2.45997 1.85576
-0.555949 -2.76216 1.22349
-0.317894 -3.06301 1.14944
-1.59984 -1.39956 1.79381
-1.12087 -1.98937 2.15332
-1.60812 -1.47744 2.11471
-1.51572 -1.66145 2.42343
-1.79931 -1.25011 2.01759
-1.34804 -1.71022 1.84715
-2.23958 -0.68421 1.68492
-0.973354 -2.1905 0.843105
-0.869218 -2.33245 1.40673
-1.77938 -1.20783 1.84058
-0.837518 -2.38359 1.17362
-0.579212 -2.67316 1.69102
-1.94396 -1.19901 2.19394
-1.81564 -1.07093 1.44801
-1.50298 -1.50163 0.506147
-2.08034 -0.74292 1.2816
-1.63812 -1.45589 2.13985
-0.782647 -2.45881 1.20396
-1.98348 -0.95327 1.73423
-0.399105 -2.92749 1.50345
-0.987446 -2.11105 2.35404
-1.91681 -1.02495 1.73729
-1.66227 -1.38667 2.00507
-1.70929 -1.29741 1.88097
-1.76075 -1.15607 0.666929
-0.716504 -2.53068 1.48967
-0.501282 -2.83544 1.10477
-1.47898 -1.56441 1.90626
-2.11372 -0.79788 1.66956
-1.01031 -2.11722 1.9572
-1.23449 -1.85356 1.92768
-1.82688 -1.07161 0.694662
-0.94765 -2.22439 0.794873
-2.07995 -0.80374 1.58197
-2.29823 -0.5117 1.07123
-1.60427 -1.35066 0.659193
-1.16142 -1.94568 2.11617
-0.723795 -2.49153 1.71677
-1.97303 -0.87477 1.37597
-2.20919 -0.59955 1.04628
-1.66427 -1.36081 0.29376
-0.905705 -2.20348 2.22709
-1.36991 -1.648 0.739245
-0.175037 -3.22243 1.25486
-1.90188 -0.93859 1.11726
-1.49986 -1.766 2.70259
-1.76717 -1.43777 2.37205
-1.35973 -1.72569 0.161312
-1.52193 -1.42738 1.0374
-0.167507 -3.19853 1.46519
-1.9155 -1.24156 2.2281
-0.103457 -3.29262 1.32121
-1.82482 -1.38789 2.36343
-1.52681 -1.6621 2.45263
-0.844498 -2.36441 1.43625
-1.22843 -1.84648 0.553353
-0.667212 -2.61697 1.12347
-1.41906 -1.57004 1.26763
-1.00891 -2.14318 0.972944
-2.02662 -0.83322 1.47512
-0.727768 -2.52544 0.84338
-2.35904 -0.45887 1.01176
-2.01016 -0.88759 0.603664
-0.5987 -2.69717 0.858647
-1.20359 -1.89204 0.255181
-1.14164 -1.96735 2.13945
-2.06552 -0.91295 1.84096
-2.15686 -0.68949 0.77564
-2.26681 -0.55239 1.28637
-1.66683 -1.33946 0.358758
-2.02785 -0.88524 1.67001
-1.14464 -1.96646 2.23673
-0.016313 -3.36726 1.40691
-0.72028 -2.54253 0.971261
-0.786515 -2.43527 0.697957
-1.11046 -2.00033 1.74656
-1.36833 -1.66143 0.596013
-2.60814 -0.26574 1.25694
-1.70646 -1.29011 0.375955
-0.275333 -3.1135 1.14844
-1.63205 -1.39434 0.300655
-0.519978 -2.80985 1.02482
-0.941527 -2.23816 1.01525
-1.83994 -1.06597 0.648778
-1.65701 -1.36 0.324406
-1.132 -1.9777 2.15204
-1.50831 -1.44912 1.28103
-0.441213 -2.83877 1.68081
-1.51411 -1.5218 0.325312
-1.52423 -1.74995 2.69768
-0.897361 -2.29641 1.34681
-1.82464 -1.10121 0.575295
-0.59566 -2.71237 1.12535
-0.517143 -2.74699 1.69259
-1.13682 -1.96347 0.908986
-0.786628 -2.45424 1.08344
-1.06 -2.06054 1.91083
-0.981528 -2.17062 1.62272
-1.27945 -1.78816 1.78068
-1.83177 -1.20744 1.99219
-1.29122 -1.74707 0.950111
-1.85402 -0.99819 1.19152
-1.18449 -1.8999 1.51244
-1.70864 -1.18052 1.03635
-1.52396 -1.42801 0.941209
-1.80949 -1.14266 1.73578
-1.24009 -1.85071 1.97964
-1.93211 -0.98082 1.64788
-2.65217 -0.29494 1.50412
-2.55 -0.30208 1.20653
-0.898019 -2.28751 0.706492
-2.58364 -0.2789 1.22095
-0.640363 -2.6413 1.37875
-0.677062 -2.59291 0.842737
-1.22548 -1.86645 0.258299
-1.11813 -1.99229 2.16505
-1.47723 -1.65081 2.27217
-1.42643 -1.65415 2.06445
-0.786522 -2.35403 2.06919
-1.30229 -1.73775 1.45248
-2.38188 -0.4508 1.31315
-0.794208 -2.42886 0.741698
-0.70162 -2.56777 0.971833
-1.39938 -1.63558 1.75206
-1.39948 -1.69343 2.11996
-1.82494 -1.03796 0.95813
-1.35236 -1.73225 2.05023
-0.89297 -2.20535 2.29484
-1.41572 -1.74405 2.42562
-1.67368 -1.23858 0.842772
-1.17896 -1.90354 1.12522
-0.716377 -2.45157 1.97176
-1.62338 -1.34153 0.572417
-1.46908 -1.69259 2.39878
-2.11037 -0.76152 1.54375
-2.33231 -0.48383 1.0024
-1.14598 -1.95452 0.513515
-0.524192 -2.70169 1.8379
-1.95256 -0.87854 1.11652
-1.46154 -1.77482 2.65846
-2.08938 -0.99278 2.04582
-0.769184 -2.47759 1.0322
-1.76449 -1.32386 2.11559
-1.70363 -1.22848 1.57041
-1.76682 -1.22415 0.372801
-1.09766 -2.01562 1.90607
-1.7801 -1.10142 1.35084
-1.35139 -1.66143 1.06977
-0.578625 -2.63734 1.84764
-0.689648 -2.47622 1.99292
-1.98021 -0.85958 1.32491
-1.65001 -1.2624 0.920526
-1.36331 -1.69452 1.86882
-1.27806 -1.79654 1.86329
-1.80792 -1.15081 0.463721
-0.468974 -2.80841 1.67277
-1.27074 -1.80307 1.83384
-0.886231 -2.22479 2.21354
-1.39904 -1.79054 2.5633
-0.623308 -2.67573 1.11794
-1.36245 -1.66426 0.653084
-1.39395 -1.60318 1.00756
-1.35195 -1.68689 1.67197
-2.17406 -0.6673 1.42387
-1.58987 -1.69053 2.6473
-0.952275 -2.20541 1.68511
-2.2144 -0.80803 1.90314
-1.19743 -1.88624 1.64972
-1.33106 -1.69054 1.2175
-1.87268 -0.97384 1.09997
-0.353497 -3.01324 1.27879
-1.43737 -1.62288 1.96342
-0.6079 -2.6902 0.924669
-1.21785 -1.92247 2.57166
-1.40948 -1.58907 0.826233
-1.66495 -1.25683 1.44086
-1.49244 -1.64989 2.31937
-1.74662 -1.17544 0.655028
-1.09311 -2.01713 2.25944
-2.05706 -0.81233 0.695878
-2.43662 -0.38938 1.1738
-0.894681 -2.30161 1.30018
-0.267817 -3.08072 1.49872
-1.80524 -1.24037 2.00801
-0.24229 -3.13937 1.32357
-1.52246 -1.42594 1.0976
-2.29256 -0.5439 1.38302
-1.56352 -1.6112 2.39061
-1.03994 -2.08794 1.81374
-1.79353 -1.34732 2.22985
-1.24258 -1.84734 1.97288
-0.923524 -2.18429 2.23921
-1.33995 -1.72452 0.335543
-1.01369 -2.13656 0.98425
-1.68296 -1.21832 1.28085
-1.64684 -1.59829 2.52084
-1.97267 -0.90025 0.712226
-1.4316 -1.77703 2.59888
-0.815683 -2.38798 0.604555
-1.28769 -1.87075 2.56249
-2.38294 -0.49655 1.51225
-1.25121 -1.81231 0.644881
-1.52355 -1.46272 1.6295
-0.547089 -2.73283 1.58552
-1.35349 -1.77048 2.29036
-1.07202 -2.05082 1.64737
-2.19423 -0.71451 1.65448
-0.411706 -2.94726 1.19102
-0.749774 -2.50362 1.00869
-1.03769 -2.10217 0.907197
-1.49647 -1.60401 2.16456
-2.40622 -0.57277 1.74967
-1.53706 -1.65093 2.44353
-2.45864 -0.52441 1.73209
-0.808492 -2.34282 2.0012
-1.30219 -1.73231 1.29359
-2.22105 -0.77754 1.85508
-0.423734 -2.87988 1.59359
-2.06681 -0.81792 1.58377
-1.76685 -1.43545 2.36684
-1.31472 -1.733 0.573266
-0.30139 -3.08042 1.2104
-1.98558 -0.92698 1.66133
-0.908003 -2.28563 1.14261
-2.1185 -0.69245 1.12432
-0.493971 -2.8415 0.985169
-2.15897 -0.67184 1.36768
-1.5578 -1.39982 1.48466
-0.154467 -3.23867 1.31438
-1.03901 -2.10124 1.03669
-1.93051 -0.90502 1.1551
-0.660961 -2.61964 1.30263
-2.25036 -0.55725 1.12673
-0.796223 -2.33929 2.09109
-1.20106 -1.88504 1.74721
-1.1731 -1.92157 0.439325
-0.838197 -2.35204 1.6835
-1.05481 -2.07596 1.50742
-1.09916 -2.00944 2.46165
-1.90108 -0.98147 0.711689
-1.99278 -0.88537 0.681191
-1.31586 -1.86666 2.65423
-0.179075 -3.15857 1.57622
-0.354918 -3.0023 1.36495
-2.12891 -0.70615 1.38583
-1.04707 -2.08215 0.516004
-1.3373 -1.69313 0.718498
-1.12326 -1.98303 1.52857
-2.35406 -0.50803 1.46642
-2.39751 -0.61757 1.82373
-2.41632 -0.40598 1.05925
-1.19836 -1.87763 1.32923
-1.01827 -2.11978 1.69169
-1.59694 -1.61897 2.48268
-1.89556 -0.97726 0.766369
-1.54413 -1.62762 2.39154
-1.68555 -1.28525 0.485662
-1.72888 -1.41939 2.26347
-1.48329 -1.49633 1.47459
-1.93882 -1.00358 1.74374
-1.86588 -1.06874 1.69849
-2.76163 -0.19731 1.39387
-1.5988 -1.3471 0.735179
-1.40571 -1.63105 0.443844
-0.572544 -2.72131 1.45224
-0.686813 -2.51496 1.83415
-0.788134 -2.42727 1.58301
-1.50813 -1.46007 0.784125
-1.77062 -1.10289 1.00246
-1.38898 -1.65708 1.81931
-1.70131 -1.24954 1.66128
-1.11251 -1.99772 1.75503
-1.38227 -1.64836 1.67552
-2.52598 -0.35575 1.41759
-1.16383 -1.93455 1.8353
-0.575458 -2.73739 1.01662
-0.94012 -2.20044 1.94042
-0.667756 -2.61626 1.11403
-1.59599 -1.42467 0.339715
-0.412434 -2.85678 1.73583
-2.13089 -0.67946 1.14002
-1.05394 -2.07802 0.773723
-1.23668 -1.83146 0.649923
-1.43676 -1.57756 0.557052
-1.10282 -2.01073 1.50511
-2.04165 -0.80767 0.790849
-1.66828 -1.32562 0.404366
-1.10101 -2.01366 1.24705
-2.00995 -0.84952 0.755643
-0.431356 -2.85574 1.65863
-1.96152 -0.88819 0.843628
-1.60249 -1.37846 1.70855
-0.857197 -2.33201 0.582359
-0.386448 -2.9389 1.52217
-1.57343 -1.45774 1.91219
-0.750615 -2.39063 2.07727
-0.0448306 -3.34199 1.39045
-2.34491 -0.66836 1.84235
-1.61768 -1.35058 1.66005
-1.01518 -2.10066 2.14234
-1.65102 -1.2562 1.01144
-0.615805 -2.64614 1.59352
-1.98167 -0.89828 1.54318
-0.549825 -2.75176 1.43992
-0.660367 -2.62376 0.9864
-2.20074 -0.78279 1.82955
-1.13059 -1.9735 1.59046
-2.168 -0.64302 1.01999
-2.00688 -0.9015 1.65215
-0.438809 -2.9065 1.30223
-2.1338 -0.6786 1.19783
-0.827485 -2.3941 1.30588
-0.684614 -2.51011 1.86963
-2.37444 -0.4712 1.38791
-1.72999 -1.16851 0.830688
-2.02731 -1.01935 1.9916
-0.406424 -2.95432 1.04466
-1.60911 -1.31808 0.889646
-0.880864 -2.31134 1.5018
-1.62377 -1.42171 1.98537
-2.31992 -0.49736 1.24251
-1.76162 -1.1563 0.660431
