ply
format ascii 1.0
comment Created by Open3D
element vertex 400
property double x
property double y
property double z
end_header
-2.27761 1.79676 -1.20596
-2.06488 2.62672 -0.697023
-1.73369 1.91627 -1.16724
0.36853 2.65062 -0.866121
-2.27394 1.79275 -1.20974
-0.490895 1.03913 -1.87886
-1.49832 1.39913 -1.53501
-0.841068 2.22268 -0.985346
-0.94828 2.25968 -0.964727
-0.165916 2.58208 -0.826834
-1.50303 2.88217 -0.710338
-0.56688 2.76374 -0.757276
-1.30242 2.90837 -0.71801
-1.79515 1.0927 -1.73954
-2.4205 1.53796 -1.39347
-1.45442 1.31083 -1.5961
-0.616533 1.42839 -1.54747
-1.44437 1.54018 -1.43586
-1.24171 2.91139 -0.719877
-1.85422 2.91801 -0.655467
-1.92426 2.34202 -0.874458
-0.705169 1.50445 -1.4802
-0.785122 2.69283 -0.777117
-2.89735 1.21527 -1.56636
-2.55841 1.46934 -1.42745
-1.60851 2.30103 -0.929662
-1.15535 2.91674 -0.721525
-2.40418 1.53888 -1.39504
-0.215597 2.03881 -1.12603
-1.19719 1.76405 -1.27843
0.272328 2.81726 -0.792928
-0.587585 2.78642 -0.751421
-1.48285 1.28544 -1.61336
0.331379 2.35777 -1.00945
-1.37682 1.6065 -1.38897
-0.722303 2.6685 -0.784782
-2.23741 2.28892 -0.840877
-0.156652 2.65766 -0.799243
-0.846336 2.5305 -0.835079
-1.18557 1.87309 -1.2037
0.20557 2.52428 -0.890912
-2.17295 1.45213 -1.48449
-0.0117945 1.77658 -1.36926
-1.96661 1.86626 -1.18901
-0.0933664 1.81758 -1.31458
-0.876692 1.02815 -1.8128
-1.52298 2.26827 -0.952374
-2.27151 1.93557 -1.09669
0.314889 2.82892 -0.796909
-1.71754 2.5154 -0.810846
-1.40867 1.1874 -1.67955
-2.22773 2.16924 -0.928205
-2.3624 1.07028 -1.74377
-2.19638 1.47625 -1.46488
-1.50418 2.93364 -0.701103
-0.449027 2.52736 -0.838812
-0.0328734 2.64819 -0.810762
-0.850034 2.35681 -0.913914
-1.96357 1.95365 -1.126
-2.35914 1.37949 -1.52488
0.299679 2.82543 -0.795233
-1.02219 2.65974 -0.787073
-0.941831 2.92836 -0.722684
-1.35183 1.05819 -1.76392
-1.68137 1.2821 -1.61551
-0.333641 1.25327 -1.74685
-1.72258 1.07834 -1.74853
-1.33047 1.69359 -1.3276
-1.43925 2.90273 -0.711321
-1.01603 2.6705 -0.783609
0.280212 2.93159 -0.76953
-1.23574 1.5059 -1.46054
-0.803323 2.79874 -0.748253
-0.0637315 2.39425 -0.921353
-2.0997 1.55039 -1.41544
-1.19513 1.6277 -1.37424
-0.758846 2.46939 -0.86098
-1.93309 2.25566 -0.925348
0.270426 2.56406 -0.883756
-1.04575 1.01337 -1.80634
-2.86032 1.17802 -1.60576
-2.28368 1.02604 -1.7752
-1.33455 1.79774 -1.25509
-2.65227 1.02384 -1.7522
-0.121205 1.76423 -1.35331
-1.72776 1.31893 -1.59033
0.144533 2.4487 -0.918871
0.0857579 2.2015 -1.05748
-0.47618 2.60026 -0.80975
-1.03374 1.85462 -1.21646
-2.20359 1.57167 -1.39166
-0.276359 2.24053 -0.990225
-2.86628 1.34246 -1.46516
-0.970341 1.49146 -1.4756
-0.681559 2.60166 -0.807778
-0.886966 2.30367 -0.941159
-1.68111 1.41469 -1.52399
-0.939681 1.79464 -1.2586
-2.88921 1.17228 -1.60368
-0.969344 2.9281 -0.722536
0.301461 2.24796 -1.07472
-0.208731 1.58379 -1.48893
-2.1596 2.1866 -0.931451
-0.295931 1.62699 -1.43395
-1.0602 2.74698 -0.760331
-0.106639 2.22795 -1.01263
-0.315002 2.03217 -1.12088
-2.49423 1.35459 -1.52934
-0.544281 2.76515 -0.757021
0.53325 2.99051 -0.812133
-1.96637 2.08668 -1.03216
-1.60843 2.85373 -0.706216
-0.733086 1.92197 -1.17453
-2.57063 1.57803 -1.33309
-1.92991 1.31057 -1.59458
-1.79472 1.43687 -1.50765
-1.22004 2.30176 -0.941258
-1.75341 2.02231 -1.09386
-0.642088 2.28302 -0.953357
-0.588468 2.44642 -0.872146
-1.99106 1.22297 -1.65363
-1.0704 2.97274 -0.715302
-2.44201 1.29963 -1.57717
-2.3767 1.92937 -1.07871
-0.987326 2.51272 -0.842256
-1.26968 2.82764 -0.735363
-0.533102 2.02132 -1.11443
-2.19531 1.98256 -1.07434
-0.403355 1.97562 -1.15303
-1.29879 2.11234 -1.04908
-1.41387 2.81023 -0.732548
-0.752878 1.27074 -1.653
-1.61608 2.45684 -0.847892
-0.393675 2.29643 -0.952176
-0.904651 2.05326 -1.08639
-2.26564 2.04871 -1.00964
-0.034521 1.78907 -1.35241
-0.784273 2.31732 -0.934166
-0.174832 1.66025 -1.43031
-1.55565 1.2108 -1.66336
0.00638517 2.653 -0.812331
-2.6629 1.20036 -1.62484
-1.52512 2.91509 -0.702355
-1.78578 2.90738 -0.670358
-2.64009 1.37645 -1.48936
0.0351715 1.98526 -1.20614
-0.837412 2.51043 -0.843338
0.309847 2.89268 -0.781459
-0.367957 2.57302 -0.822245
-2.2612 1.64331 -1.33007
-0.0923269 2.05327 -1.13167
-1.51155 2.45074 -0.857721
-1.58199 1.86826 -1.20473
-1.54074 2.64532 -0.7739
-2.17831 1.03359 -1.77332
-0.80333 2.06938 -1.07694
-0.545802 2.76858 -0.756123
-0.429376 2.26597 -0.967753
-0.362576 1.23593 -1.7534
-0.139272 2.24861 -0.996568
-0.398964 1.8378 -1.25315
-0.595504 2.19816 -1.00192
-1.84163 2.8802 -0.66567
-0.434234 2.90759 -0.727429
-2.38608 1.65672 -1.30197
0.385451 2.49721 -0.942199
-1.07569 2.7651 -0.755261
-0.743806 1.5165 -1.46822
0.00226981 1.75475 -1.39257
-1.59268 2.34424 -0.906942
-1.68122 2.68856 -0.744986
-0.407923 2.93212 -0.723872
-0.587528 1.42044 -1.55724
-0.0858993 2.62254 -0.816256
-0.0263327 1.91305 -1.25053
-0.368452 2.6098 -0.808287
-0.200465 1.64242 -1.43997
-1.49262 2.44503 -0.861447
-0.536913 2.4703 -0.86197
-1.52743 1.20925 -1.66444
-2.08456 1.7446 -1.26977
-1.87862 2.4994 -0.796733
-1.75705 2.11482 -1.03259
-0.182547 2.6948 -0.785567
-2.54362 1.77786 -1.16466
-1.88834 1.87478 -1.18844
-2.04012 1.64554 -1.34775
-0.716879 1.75116 -1.29536
-0.19275 2.50576 -0.857388
-2.32451 1.19434 -1.66219
-0.902226 2.99217 -0.714715
-1.41815 1.97081 -1.13793
-2.06421 1.39977 -1.52819
-1.85437 1.02236 -1.78285
0.295344 2.19339 -1.11251
-1.11386 1.68955 -1.33087
-2.03812 1.46386 -1.48259
-1.97419 1.81704 -1.22454
-0.566803 2.19109 -1.00672
-2.30892 1.93645 -1.08839
-1.70759 1.71332 -1.3112
-2.20827 1.35035 -1.55747
0.347083 2.37144 -1.00505
0.125844 2.19279 -1.07116
-2.56516 1.59184 -1.32238
0.139053 2.0104 -1.2113
-0.863031 2.13704 -1.03508
-0.764001 1.47479 -1.49827
-2.39334 1.88691 -1.10985
-2.29832 2.00535 -1.03598
-0.194631 2.41409 -0.900592
0.0564837 2.94209 -0.74201
-0.705198 1.52809 -1.46223
-1.0785 1.7583 -1.28276
-0.624538 2.0884 -1.06795
-1.62504 2.25134 -0.957012
-0.20393 1.88153 -1.24359
-0.752673 2.73862 -0.763746
-2.23451 1.66176 -1.31864
-1.95844 2.19511 -0.960484
-2.39752 1.10621 -1.71812
-0.449628 1.70962 -1.34576
-0.51203 1.82456 -1.25345
0.572467 2.98282 -0.824083
-1.08208 1.49678 -1.46891
-2.08509 2.18954 -0.944186
-0.537528 1.53214 -1.47514
-0.725456 1.50426 -1.47879
-0.341257 1.89066 -1.21957
-2.85834 1.13875 -1.63721
-0.610219 1.19264 -1.73233
-2.08055 2.4915 -0.759348
-1.86335 2.41129 -0.844498
-0.487699 1.52252 -1.48915
-0.995811 1.59836 -1.39741
-1.49376 1.49334 -1.46892
-1.87035 1.84822 -1.20862
-1.06745 1.23442 -1.65603
-1.68736 2.29233 -0.929244
-2.40182 1.81396 -1.16876
-0.20569 2.00576 -1.15064
-1.2136 2.25853 -0.964713
0.395442 2.68059 -0.860224
-0.478124 1.97286 -1.15
-0.508014 1.83414 -1.24671
-1.19973 1.41939 -1.52227
-0.984759 1.80836 -1.24857
-0.127562 2.95509 -0.72832
-2.65186 1.52793 -1.35796
-0.967923 2.46556 -0.862578
-1.40063 1.93083 -1.16456
-1.56498 2.93357 -0.695475
0.282906 2.34686 -1.00413
-0.238769 2.00422 -1.14791
-0.816623 2.4757 -0.858173
-0.191067 2.52805 -0.847743
-2.19093 1.15402 -1.69542
-1.44651 2.6082 -0.793869
-1.86733 1.91931 -1.15805
-0.394983 2.52598 -0.840587
-1.23141 1.3221 -1.59018
-0.84734 1.49807 -1.47583
-1.55359 2.48862 -0.837462
-0.371323 1.25279 -1.73648
-2.04679 2.25455 -0.907953
-0.785871 2.86716 -0.73356
-1.73683 2.75977 -0.71468
-0.831084 1.11119 -1.76063
-1.73694 2.37623 -0.87841
-2.80236 1.38607 -1.44447
-0.857091 2.91199 -0.725569
-0.986994 2.10336 -1.0552
-2.53745 1.82638 -1.12339
-2.87988 1.15166 -1.62234
-1.94645 2.65889 -0.712552
-1.14652 2.31501 -0.934831
-1.44876 1.14648 -1.70604
-1.89727 1.72117 -1.29946
-0.849136 2.51687 -0.840665
-1.01628 1.25284 -1.64555
-1.46307 2.70412 -0.759362
-1.08806 1.52353 -1.44959
-2.36688 1.77093 -1.21149
-0.677465 1.3932 -1.56798
-2.19062 1.11197 -1.72316
-1.91642 1.75047 -1.27707
-0.0154079 2.19722 -1.04381
-1.8008 2.12758 -1.02108
-2.14153 1.19055 -1.67238
-0.625054 1.97155 -1.14416
-0.939045 1.80114 -1.25408
-1.33733 1.26787 -1.62615
-0.965865 2.20827 -0.993372
-0.498178 2.60176 -0.808909
-1.61899 1.02525 -1.7813
0.0445689 2.07019 -1.14293
-0.321776 2.50141 -0.853336
-0.442493 2.54059 -0.833495
-1.35627 2.61576 -0.795332
-1.20743 2.39002 -0.896343
-1.64974 1.53497 -1.43915
-1.06491 2.1124 -1.04969
-1.8355 2.9025 -0.662198
-1.55957 2.74519 -0.739323
-2.30578 2.02673 -1.01739
0.362286 2.386 -1.00012
-2.45019 1.58531 -1.35014
-0.840785 1.78591 -1.26648
-0.25383 1.69433 -1.38558
-0.701096 2.1453 -1.03146
-2.14328 1.8811 -1.15959
-0.172555 1.80305 -1.31097
-2.06955 1.92061 -1.13901
-0.0415849 1.71631 -1.41456
-1.86338 2.49266 -0.802467
-1.35214 2.01403 -1.11038
0.206058 2.23722 -1.05794
-1.68596 2.80897 -0.707793
0.110938 2.20049 -1.06292
-0.684593 1.19775 -1.7165
-1.47874 2.23563 -0.972611
-0.0355533 1.93905 -1.22781
-1.58146 2.79857 -0.722366
-2.54483 1.79721 -1.14714
-1.74925 2.41106 -0.858696
-1.53669 2.99216 -0.690157
-1.94947 1.90445 -1.16266
-0.0228113 1.86227 -1.29303
-1.15737 1.13875 -1.71757
-0.434241 2.35074 -0.921749
-1.87544 1.22397 -1.65411
-2.39112 1.27053 -1.60329
-2.22037 1.66989 -1.31385
-0.70676 2.454 -0.867952
-0.534311 2.8116 -0.745651
-1.80396 2.25502 -0.940989
-0.10473 1.66121 -1.44661
-0.801095 2.85456 -0.736027
-0.871078 1.95276 -1.15156
-1.02523 1.22807 -1.66251
-0.30284 1.76929 -1.31716
-1.27225 2.12001 -1.0446
0.126431 2.26605 -1.02238
-1.60421 1.81858 -1.23877
-0.935828 2.57132 -0.818943
-1.69071 1.7656 -1.27434
0.144766 2.01413 -1.20981
-0.951306 1.95377 -1.15031
-1.44946 2.13735 -1.03167
-0.643481 1.89322 -1.19717
-1.33769 1.05754 -1.76464
-0.105939 2.21712 -1.01946
-0.836684 2.33711 -0.92387
-1.75962 2.01954 -1.09536
0.30955 2.45879 -0.944673
-0.680145 1.04321 -1.83177
0.370064 2.50029 -0.936683
0.202855 2.22261 -1.06725
-2.43728 1.84305 -1.13609
0.524631 2.87202 -0.831996
-2.40814 1.16307 -1.67864
-1.54848 2.20477 -0.988083
-0.41271 1.16605 -1.7983
-1.0219 1.73518 -1.29939
-0.634628 1.38997 -1.57531
-1.33866 2.48552 -0.849044
-0.324025 1.44705 -1.58105
-0.645292 1.23083 -1.69717
-1.44526 1.19128 -1.67669
-0.550263 1.38898 -1.58731
-0.931309 1.24212 -1.65826
-2.07866 1.80326 -1.22595
-0.511266 1.00107 -1.90253
-0.147913 2.29679 -0.967322
-2.02102 2.09491 -1.01953
-2.79957 1.30457 -1.51562
-1.7736 2.88076 -0.677825
-1.00348 1.28167 -1.62577
-0.758853 1.11274 -1.76873
-1.72069 1.90592 -1.17494
-2.80819 1.17396 -1.62005
-1.42037 2.81253 -0.731587
-0.624587 1.03748 -1.84702
-1.9508 2.36542 -0.856653
-0.157628 2.2423 -0.998633
-2.55948 1.54062 -1.36744
-0.581906 2.34179 -0.923114
-1.25012 1.3718 -1.55518
0.084174 2.02248 -1.18795
-1.99933 2.0112 -1.08119
-2.49667 1.62295 -1.31016
-1.12694 1.19931 -1.67781
-0.264281 1.67631 -1.39864
-1.78254 1.14003 -1.70947
-2.47192 1.63141 -1.30785
-1.62895 2.1911 -0.992552
-0.886578 1.02244 -1.8155
-2.01166 1.00868 -1.79063
-1.7592 1.39184 -1.53963
-0.424504 2.92064 -0.725435
