ply
format ascii 1.0
comment Created by Open3D
element vertex 400
property double x
property double y
property double z
end_header
1.70063 1.62201 -1.69006
1.93332 -0.0753094 -1.99572
2.22868 0.360536 -1.95687
2.21941 1.70324 -1.63238
2.15795 -0.0406576 -2.03494
0.750731 1.688 -1.79373
2.11613 0.0166871 -2.00853
1.26299 0.493857 -1.89339
1.23554 0.0626977 -1.98479
1.37753 1.45028 -1.74998
0.819428 1.19613 -1.84965
1.7707 1.42375 -1.71861
2.06742 -0.694555 -2.24577
2.12872 0.849395 -1.8333
2.17499 -0.0544769 -2.04382
2.3138 0.143502 -2.03856
2.16162 1.74245 -1.62291
1.55874 2.25353 -1.58434
1.98241 0.10446 -1.96039
1.67715 -0.581611 -2.13982
1.67747 1.67296 -1.68352
0.719987 0.754647 -1.93692
2.04985 0.681694 -1.85494
1.01351 0.535385 -1.92365
1.36188 0.629637 -1.86099
1.83254 1.094 -1.77108
1.78235 -0.330749 -2.0515
1.90572 0.118064 -1.94707
0.667197 0.366057 -2.04072
1.39697 0.171778 -1.9381
1.72798 1.09471 -1.77284
2.54056 1.56608 -1.69902
1.07839 0.462165 -1.92613
2.01731 1.48324 -1.69625
1.53152 2.47888 -1.53216
1.07883 1.55104 -1.77265
1.22235 -0.144096 -2.04381
1.58976 0.0313515 -1.95441
0.941949 0.813879 -1.88795
0.74806 1.83589 -1.77524
0.913492 0.706082 -1.9105
2.15709 0.319426 -1.94752
2.13732 0.0965417 -1.9941
1.75081 1.6686 -1.67634
1.02249 2.72036 -1.59613
1.06846 1.17616 -1.81989
1.7931 0.69994 -1.83317
2.27359 0.400467 -1.96082
1.47552 1.48304 -1.73501
0.612245 1.08218 -1.89606
1.3789 -0.191075 -2.0299
1.77714 0.821839 -1.81378
1.62408 0.928745 -1.80073
1.83783 1.56166 -1.68899
2.40117 1.08427 -1.83064
2.39952 0.907425 -1.87699
2.32761 1.28553 -1.76141
0.586766 1.85793 -1.7864
1.63288 1.75943 -1.67347
1.24076 1.51177 -1.75786
1.18317 2.31305 -1.64856
2.42436 1.54957 -1.69042
1.50822 1.2132 -1.76877
1.82243 1.42912 -1.71466
1.13999 1.63871 -1.7543
2.26004 1.23794 -1.76499
0.899055 0.806495 -1.89601
1.29932 2.34467 -1.62009
0.987887 0.575107 -1.92084
1.35431 2.28045 -1.62201
1.75252 0.868706 -1.80655
0.622542 1.67091 -1.80839
1.63487 -0.1538 -1.99814
1.30887 -0.256443 -2.06195
0.96009 1.87375 -1.74699
2.29765 1.05284 -1.81651
0.38119 1.28085 -1.89144
0.467842 0.972492 -1.93942
1.32867 0.399171 -1.90199
1.27329 -0.0484791 -2.00678
0.892687 1.6572 -1.78197
1.51558 0.309002 -1.90196
1.73783 1.82055 -1.64786
1.04365 1.08723 -1.83446
0.467488 1.92053 -1.78512
1.1327 0.762131 -1.8679
2.2039 -0.168321 -2.08639
1.70269 -0.320535 -2.04548
0.198166 0.971216 -1.98571
2.14005 0.57997 -1.88904
1.28211 1.04997 -1.81097
1.89872 -0.634676 -2.17744
1.3395 -0.302143 -2.07148
1.26245 2.07631 -1.67569
2.06762 -0.0918514 -2.02503
1.05478 -0.11442 -2.07525
1.50866 2.04375 -1.63956
2.68107 1.62733 -1.69736
1.14355 1.79909 -1.73328
1.17142 1.72629 -1.73915
0.744552 1.84786 -1.77406
1.40923 0.760932 -1.8376
1.30817 2.18265 -1.6496
0.582339 1.26773 -1.87003
1.04992 2.48039 -1.64124
1.49852 2.51584 -1.53086
1.3978 0.758952 -1.83885
1.04885 0.0464958 -2.02769
1.23852 2.83906 -1.51152
1.33815 -0.158004 -2.02648
1.37511 0.159808 -1.94297
0.953278 2.6183 -1.63085
0.960277 1.44227 -1.80025
1.91123 0.52666 -1.86838
1.67055 2.26123 -1.55647
0.845825 2.93932 -1.57652
1.43211 -0.189754 -2.0224
0.904724 1.73913 -1.77048
1.18619 0.834048 -1.85064
1.84391 0.673937 -1.83905
1.7542 -0.259029 -2.02844
2.62634 1.55846 -1.71854
1.49847 1.77982 -1.68785
1.454 2.02422 -1.65269
1.53465 1.34495 -1.74853
1.13051 0.875223 -1.85188
1.23541 0.060876 -1.98526
0.592178 1.64462 -1.81465
2.40866 1.55651 -1.68643
1.21055 1.64718 -1.74438
1.06303 0.686379 -1.88955
1.71121 -0.155286 -1.99847
1.34408 2.23052 -1.63393
0.977353 3.0937 -1.50424
1.07046 0.456577 -1.92854
1.41731 2.23911 -1.61774
0.283991 0.962261 -1.97332
0.608571 1.42172 -1.84402
2.03147 1.81045 -1.61414
1.01383 2.63747 -1.61616
0.665777 2.24852 -1.72696
0.660138 0.554738 -1.99299
1.65648 2.23955 -1.56558
0.688434 1.427 -1.83439
0.941977 2.82459 -1.58739
1.69221 -0.473532 -2.09711
2.30014 0.745164 -1.88928
1.90086 -0.644371 -2.18218
2.38941 1.72075 -1.62403
0.964561 1.53193 -1.7888
1.22315 1.99057 -1.69525
1.89174 1.50555 -1.69651
1.6707 1.92647 -1.63581
0.630687 0.562017 -1.9983
0.992695 -0.00884497 -2.05859
2.49347 1.49196 -1.72067
2.09985 0.427926 -1.91229
0.670706 2.46652 -1.69314
0.602895 0.635325 -1.9871
1.71676 0.465731 -1.86999
2.03476 1.31483 -1.73233
0.465137 0.501327 -2.0592
1.03263 0.930601 -1.8572
1.77868 0.869406 -1.80643
1.60609 2.08735 -1.61272
2.19716 -0.286487 -2.12204
2.09092 0.694295 -1.8582
0.347338 1.29276 -1.89284
1.67718 2.38273 -1.51982
2.65605 1.34689 -1.81789
2.144 0.641782 -1.87727
1.37584 2.02645 -1.6654
2.27222 0.623969 -1.90948
0.652883 0.481083 -2.01326
2.37045 0.727758 -1.91331
2.38295 0.462707 -1.98302
0.708506 2.3105 -1.71425
0.864332 1.56311 -1.79682
0.607561 0.858731 -1.93766
0.83424 0.98836 -1.87757
2.10603 -0.291818 -2.09401
2.16969 0.672 -1.87593
2.04783 0.205997 -1.94916
2.25847 0.762674 -1.87523
1.47114 2.51658 -1.53828
0.954681 0.877971 -1.87609
1.95596 0.420049 -1.89224
0.903473 2.68848 -1.62467
1.80852 2.19935 -1.5412
1.82617 -0.365024 -2.06569
2.48451 1.05807 -1.86098
2.02862 -0.184917 -2.04204
0.437882 1.21884 -1.89614
0.80865 1.39346 -1.82472
1.90934 1.35073 -1.72563
2.62143 1.67746 -1.6608
1.23975 -0.0184593 -2.00473
2.15189 0.113378 -1.9938
1.6489 -0.279561 -2.03317
0.997064 3.03039 -1.51929
1.35947 0.852415 -1.82931
0.705303 1.93306 -1.76675
1.19509 1.77973 -1.72903
1.76825 -0.507639 -2.11178
1.07255 2.62925 -1.60656
0.61894 0.75425 -1.9569
2.04041 1.42891 -1.70796
2.59788 1.41863 -1.77124
1.78599 2.29074 -1.51875
1.8339 0.586328 -1.85313
0.524302 1.88645 -1.78677
1.82895 0.759688 -1.82456
2.68208 1.39239 -1.80791
2.07233 0.244804 -1.94541
0.713213 0.826413 -1.92458
1.84558 2.127 -1.55424
1.8105 0.752706 -1.82517
1.11895 0.610206 -1.89363
0.87926 1.68266 -1.78037
2.32914 0.177656 -2.03543
1.08285 0.221075 -1.97566
0.383764 1.22169 -1.9022
2.1109 1.44131 -1.7054
1.86738 -0.204419 -2.02155
1.66804 2.09435 -1.59918
1.99238 2.14355 -1.51641
1.22407 0.132253 -1.97017
2.15896 1.68205 -1.64118
1.35956 1.97359 -1.67688
1.9504 1.88081 -1.60475
0.563444 0.951234 -1.92743
2.25391 1.79867 -1.59851
1.31284 -0.0187611 -1.99257
2.21297 -0.0693519 -2.06029
0.480311 1.88197 -1.78991
1.73404 1.17053 -1.76114
0.708557 0.858577 -1.91951
1.45519 2.16297 -1.62583
1.86162 1.73577 -1.65085
1.12413 2.8595 -1.53728
2.48195 1.73083 -1.6224
1.47769 2.41316 -1.5641
1.82384 1.26537 -1.74297
1.51978 2.29708 -1.58271
1.42243 0.251243 -1.91972
1.7209 2.33786 -1.52152
1.14006 1.57905 -1.76171
2.11975 1.44052 -1.70573
1.34539 1.00873 -1.80987
0.654733 0.991703 -1.90498
2.40708 1.09685 -1.82863
2.11586 1.98265 -1.5489
1.16696 1.10635 -1.81674
1.89606 2.05625 -1.5646
2.3976 1.79904 -1.59201
1.31554 1.30882 -1.7748
1.43331 0.9179 -1.81403
2.23341 1.48332 -1.69794
2.11735 -0.261532 -2.08756
1.47955 1.71458 -1.70066
2.02108 0.976888 -1.79743
0.977994 0.782564 -1.88727
1.66159 -0.302054 -2.03979
1.1783 1.64152 -1.74915
1.64685 0.146614 -1.92853
1.25483 2.82512 -1.51095
2.21902 0.848543 -1.84828
0.963159 2.57509 -1.63779
0.95437 0.66146 -1.91125
1.57908 2.06734 -1.6221
1.12726 1.13443 -1.81793
1.13726 2.60459 -1.5986
2.35208 1.81915 -1.58527
0.877673 3.16876 -1.50369
2.04925 0.588962 -1.87233
2.1205 1.04437 -1.79302
0.557776 2.30606 -1.7256
1.49031 1.63301 -1.71172
0.920932 1.23664 -1.83094
1.27959 1.98424 -1.68764
0.963989 0.621209 -1.9167
0.344108 0.761278 -2.01452
1.85181 0.0360282 -1.95976
0.491665 1.84677 -1.79422
1.89079 1.42955 -1.71133
1.36895 1.18145 -1.78542
1.93361 1.91188 -1.59875
1.15148 1.78462 -1.73414
1.34088 1.66757 -1.7252
1.90847 -0.535295 -2.13684
1.43955 0.673025 -1.84785
1.45004 0.359425 -1.89741
1.98331 0.900489 -1.80857
2.23046 0.460723 -1.9348
1.77973 0.00105892 -1.96262
0.459254 1.33476 -1.87355
1.22699 -0.235727 -2.07211
2.18912 1.74351 -1.62095
1.81013 1.56685 -1.69014
0.813254 2.31835 -1.70248
1.8989 -0.283272 -2.04821
1.99268 0.260988 -1.92833
0.780984 2.20485 -1.72272
1.49584 1.90179 -1.66774
0.809035 2.78667 -1.61819
1.69897 1.46439 -1.71693
1.2455 1.89127 -1.70661
1.88269 -0.558361 -2.14237
1.0235 1.59029 -1.7746
1.43588 1.5558 -1.7292
0.938157 2.72255 -1.61154
2.11255 0.25126 -1.95234
0.895276 1.76939 -1.76781
0.393131 0.990851 -1.94804
0.949863 0.776193 -1.89272
1.89686 1.02659 -1.7828
0.812648 0.248538 -2.03298
2.16575 1.77324 -1.61304
1.10477 2.89131 -1.5332
2.03056 1.68539 -1.64758
2.035 1.06957 -1.78099
2.14425 1.77498 -1.61409
0.985759 0.783029 -1.88599
2.75455 1.5745 -1.74497
1.2971 -0.010718 -1.99297
1.91072 0.754711 -1.82902
1.7703 -0.201599 -2.01298
0.582396 0.658456 -1.98629
1.72067 1.94456 -1.62392
1.71773 0.152553 -1.92765
2.30882 1.22484 -1.775
0.803745 1.54778 -1.80565
2.66532 1.35503 -1.81779
1.4375 2.58708 -1.5278
0.487248 0.784398 -1.9773
0.879537 2.23149 -1.70776
1.05956 2.83173 -1.56073
0.955455 2.43019 -1.66572
0.659208 2.17616 -1.7378
1.9812 0.236245 -1.93177
1.97614 1.37626 -1.71955
1.36345 -0.257593 -2.05268
2.48208 0.942869 -1.89333
0.910808 1.15259 -1.84334
1.24583 0.764007 -1.85349
1.94142 0.503335 -1.8753
1.71358 0.565009 -1.85364
2.10906 -0.178272 -2.05978
1.8586 1.3367 -1.72958
2.00734 -0.750466 -2.25752
0.466784 0.610794 -2.02657
1.37622 0.0354487 -1.97057
0.665523 1.89929 -1.77465
2.38448 0.677398 -1.93019
1.84372 1.02414 -1.78242
1.17765 2.66949 -1.57423
0.927129 0.581799 -1.93058
0.606849 1.01979 -1.90767
0.667694 0.975354 -1.90573
1.26823 0.436832 -1.90256
0.931705 0.0733646 -2.05049
0.453541 1.66091 -1.82323
2.21461 1.27969 -1.74977
1.33676 2.51382 -1.57392
0.35248 1.46614 -1.86126
2.22833 1.87997 -1.57108
1.19761 2.47342 -1.61439
1.85387 0.809107 -1.81737
2.32568 1.27652 -1.76361
2.11455 -0.404787 -2.13555
0.516188 1.1718 -1.89434
1.01574 2.02176 -1.72026
2.15539 1.68062 -1.64174
1.18292 2.0506 -1.69226
0.719223 0.926343 -1.90573
1.46063 2.10462 -1.63638
1.75868 0.944832 -1.79492
1.65172 -0.200789 -2.01053
2.43088 0.841788 -1.90371
1.64289 0.775701 -1.82217
0.348457 0.591357 -2.06445
1.54099 0.998069 -1.79546
1.05505 2.1183 -1.70103
2.63263 1.59825 -1.70136
2.37602 0.387428 -1.99942
2.17663 0.12513 -1.99769
2.26852 0.804662 -1.86815
1.8611 1.26044 -1.74289
0.469834 1.03085 -1.92725
2.30313 0.22192 -2.01413
1.82989 2.01612 -1.58804
2.36427 1.24917 -1.77735
2.19248 0.74633 -1.86492
2.04457 -0.35975 -2.10009
1.70336 0.41577 -1.87838
1.22811 0.131 -1.96979
1.89206 2.09016 -1.55539
1.69027 0.827821 -1.81337
1.54559 1.39498 -1.74053
1.8357 1.32601 -1.73222
