ply
format ascii 1.0
comment Created by Open3D
element vertex 250
property double x
property double y
property double z
end_header
-2.16375 2.21102 -0.38192
-2.25428 -0.0771361 -1.01666
-1.00949 1.93702 -1.20797
-2.56341 1.92006 -0.224872
-1.43932 2.65491 -0.813044
-1.6244 1.8042 -0.881327
-2.14487 0.830508 -0.941884
-3.20505 0.278102 -0.33679
-2.138 -0.273165 -1.09674
-2.86405 -0.657254 -0.126202
-0.764344 1.96229 -1.35966
-2.96449 0.775213 -0.454321
-1.23788 2.64005 -0.958946
-3.49109 -0.672066 0.715918
-1.91655 1.91559 -0.667117
-3.52333 1.02 0.0350419
-3.86096 0.43261 0.222804
-1.90045 2.00211 -0.645362
-2.08484 0.62992 -1.04379
-3.74429 0.456806 0.0985906
-2.78942 0.0831479 -0.61483
-3.11789 0.368407 -0.403446
-1.2458 1.8122 -1.10214
-1.9774 -0.0966446 -1.28909
-2.65904 -0.841757 -0.115449
-2.10393 0.983782 -0.913835
-1.19726 2.24629 -1.01832
-2.79294 1.31825 -0.375168
-2.18562 1.00607 -0.857725
-2.25496 -0.93822 -0.430566
-3.69865 0.256882 0.0755219
-3.78885 -0.126943 0.377134
-2.04462 -0.217429 -1.21048
-0.947003 2.42406 -1.1607
-2.41104 -0.652871 -0.583447
-0.623361 1.59913 -1.6039
-1.98018 2.75446 -0.341776
-3.46633 -0.685457 0.693504
-2.7136 0.428047 -0.673913
-1.87471 2.32627 -0.552774
-2.1566 2.13653 -0.420079
-3.22184 -0.346184 -0.0722102
-1.7042 1.07721 -1.11867
-0.538057 2.57538 -1.45849
-1.54284 2.77379 -0.733737
-2.40214 -0.683171 -0.563934
-0.279918 2.53501 -1.66516
-2.37356 -0.951531 -0.277203
-1.81298 1.38891 -0.928627
-2.77312 0.705944 -0.591326
-3.14781 -0.262112 -0.200075
-0.647807 2.10286 -1.40432
-3.0672 -0.0677998 -0.364474
-2.95658 -0.532778 -0.162808
-2.29982 0.201307 -0.980748
-2.89863 -0.629308 -0.122018
-1.96952 -0.195003 -1.30053
-2.37643 0.96431 -0.759574
-2.34966 1.74987 -0.463462
-1.28705 2.48742 -0.928561
-3.39458 -0.565778 0.35552
-3.0074 -0.819692 0.241288
-1.99302 -0.954457 -0.745886
-2.80634 -0.883703 0.103062
-1.40082 2.49781 -0.849878
-0.170171 2.15663 -1.77536
-2.88625 0.707767 -0.519597
-3.48941 0.337529 -0.122643
-3.0738 1.40965 -0.131527
-0.240526 2.13929 -1.7142
-3.07144 0.423598 -0.434771
-0.69029 1.5568 -1.57336
-2.7467 1.79431 -0.155971
-3.81389 -0.0921179 0.381768
-0.473676 1.9614 -1.5687
-2.23364 1.90232 -0.470462
-2.64526 -0.367688 -0.572273
-2.9597 -0.856994 0.241304
-2.07297 1.54796 -0.716938
-3.14667 -0.503168 -0.00452762
-3.44309 -0.149427 -0.000680535
-1.03926 2.1918 -1.12834
-3.885 0.0182604 0.397106
-2.68347 -0.0783813 -0.661648
-3.10119 1.52229 -0.0400799
-3.62596 0.485644 -0.0111824
-2.30438 2.2235 -0.263295
-3.48955 -0.534079 0.443719
-3.63353 -0.434246 0.517406
-0.462211 2.1824 -1.52449
-2.51283 1.73272 -0.363168
-2.47541 1.59037 -0.455898
-2.00636 0.611942 -1.10217
-2.75161 1.74599 -0.182053
-0.827547 1.97151 -1.31499
-2.42228 -0.522485 -0.680033
-3.88592 0.0982117 0.347077
-2.33718 -0.285796 -0.892019
-0.489412 1.96434 -1.55565
-0.55618 1.84681 -1.54515
-2.74169 -0.653952 -0.251304
-1.71994 1.12207 -1.09039
-0.683092 1.62898 -1.54277
-1.76184 0.351946 -1.38487
-1.9539 -1.09075 -0.59124
-0.656888 2.32952 -1.3652
-2.13789 -0.789778 -0.757001
-1.08375 1.86821 -1.18265
-2.4993 -0.420393 -0.673652
-1.77356 0.931613 -1.13566
-3.80526 0.407912 0.162688
-2.21903 -0.608232 -0.832021
-1.80629 2.83828 -0.502769
-1.32026 0.914568 -1.45883
-0.522449 2.34852 -1.46155
-0.906096 2.55356 -1.1882
-1.50072 2.66754 -0.766835
-1.93841 -0.0831295 -1.33195
-1.20559 2.10678 -1.04205
-2.50325 -0.952516 -0.132503
-0.712522 2.48145 -1.322
-3.8135 0.710511 0.202757
-2.1696 0.0822275 -1.09337
-2.39803 0.589667 -0.851617
-1.72803 2.02891 -0.743693
-2.8095 1.74456 -0.136852
-1.13202 2.51794 -1.03233
-3.4254 1.03219 -0.0438811
-1.89284 1.8899 -0.691163
-3.65639 0.681063 0.0392274
-1.55899 1.60771 -0.990584
-1.77827 0.963311 -1.11971
-1.13258 1.75993 -1.18878
-1.21435 1.38607 -1.2894
-2.98918 1.20969 -0.291951
-2.7056 1.68205 -0.253895
-2.60822 1.00052 -0.610138
-2.41831 0.116371 -0.893425
-3.61043 0.908916 0.0663121
-1.92608 2.1521 -0.574987
-2.0309 -0.736408 -0.959539
-1.17949 2.5476 -0.999226
-3.22673 1.00989 -0.206415
-2.51943 1.46033 -0.48636
-3.52617 0.94353 0.00443356
-1.8948 -1.13479 -0.603952
-0.865606 1.89351 -1.31313
-2.1293 0.942295 -0.913366
-0.983072 2.77403 -1.15922
-3.3547 0.943729 -0.135259
-2.37197 1.30107 -0.640576
-3.49528 0.16359 -0.0883777
-2.21825 1.85396 -0.501925
-2.13096 -0.898515 -0.634064
-3.42982 0.605637 -0.162035
-2.76827 -0.684307 -0.19241
-2.66973 0.922796 -0.597676
-1.79661 0.781359 -1.18189
-2.50726 -0.120206 -0.79256
-0.630895 2.3018 -1.38586
-2.7092 0.9599 -0.562205
-2.23255 2.25412 -0.307368
-1.81013 1.02432 -1.07525
-3.64196 -0.360565 0.423351
-3.32278 0.609722 -0.24174
-3.10777 0.523478 -0.403029
-3.80106 -0.102586 0.372567
-1.35829 0.941421 -1.41478
-0.856575 1.44756 -1.50493
-1.43716 2.10075 -0.901258
-2.29141 2.1448 -0.314478
-3.53882 -0.299721 0.218394
-2.57423 1.69218 -0.341551
-0.678062 2.68034 -1.36843
-1.87078 0.49039 -1.2412
-1.60221 0.547177 -1.43383
-2.39564 -0.963296 -0.236121
-3.33078 0.839732 -0.186726
-2.36383 1.78788 -0.436578
-2.66343 0.545583 -0.691111
-2.3271 2.05685 -0.331476
-1.99559 1.86349 -0.63832
-1.66794 1.3168 -1.04155
-2.0154 1.36155 -0.823202
-3.59214 -0.0668456 0.0973362
-1.90191 3.03967 -0.395682
-3.92151 0.0746768 0.413025
-0.686005 1.71771 -1.50055
-2.76624 -0.205611 -0.551059
-1.94269 2.36137 -0.491398
-2.12414 2.52844 -0.276139
-2.56365 -0.390223 -0.632304
-2.26434 2.29691 -0.259022
-3.39856 -0.159752 -0.0366463
-2.82894 0.214235 -0.600188
-0.722867 1.44934 -1.60691
-1.54122 2.39538 -0.768317
-3.89679 0.502842 0.264793
-2.05176 0.0592116 -1.19983
-1.29165 2.28088 -0.95219
-4.16538 0.269768 1.16551
-3.90405 -0.255279 1.34732
-4.11085 0.0578335 1.04754
-3.88451 -0.133717 0.540962
-4.1734 0.352704 1.19894
-3.86419 -0.2411 0.65574
-4.05003 -0.0117126 1.2916
-4.00542 -0.139254 0.928707
-3.21475 0.0841848 2.63945
-4.13547 0.450374 1.38312
-3.91912 -0.0783084 0.542055
-4.16714 0.261573 0.89757
-3.51644 0.20188 2.33706
-4.10582 0.255083 0.654925
-4.06664 -0.037899 0.991475
-3.88803 -0.057777 1.66625
-4.09939 0.33946 0.600555
-3.38977 0.115703 2.45473
-3.72352 -0.288679 1.74802
-3.63743 0.181148 2.17861
-4.04873 0.171016 0.575026
-3.42836 0.0170088 2.36713
-4.15413 0.302519 1.26084
-3.85856 -0.326644 0.83785
-3.80583 -0.313571 1.53801
-3.8488 0.126488 1.85692
-3.90222 -0.290402 1.24006
-4.16424 0.323563 1.22799
-3.52577 0.341577 2.36702
-3.99849 0.135782 1.59153
-4.17198 0.522562 1.24182
-4.07372 -0.0253542 1.05486
-3.74006 -0.469109 0.847043
-3.95557 -0.162623 1.36276
-3.84447 -0.310247 1.43338
-3.88944 0.39744 1.88278
-4.04009 0.572097 1.61765
-3.98151 0.31051 1.70628
-3.84589 0.135454 1.86588
-3.81536 -0.296331 1.54175
-3.92732 -0.103001 1.53534
-3.67039 -0.202144 1.91824
-3.70539 0.849048 2.12177
-3.46503 0.468114 2.46669
-3.55406 0.262021 2.31056
-3.72936 -0.0669267 1.92801
-3.65539 0.455927 2.22472
-4.16714 0.413144 0.778898
-3.8055 0.0476494 1.88273
-3.65106 -0.162386 1.97754
