ply
format ascii 1.0
comment Created by Open3D
element vertex 200
property double x
property double y
property double z
end_header
2.34852 0.930528 -0.218677
2.42021 -0.320098 -0.606738
1.63541 2.52809 1.29973
2.32346 -0.457393 -0.772716
2.06426 0.528876 -0.709408
2.69209 -0.751925 -0.5537
2.23858 2.19598 0.723033
1.59445 2.11938 0.201241
0.999624 2.05703 -0.426043
2.22211 1.87034 0.290129
2.04188 1.64831 -0.092156
2.96977 1.90477 1.05532
2.60616 1.37615 0.27207
3.23764 -0.609072 0.181495
2.29416 -0.031101 -0.632201
2.15865 1.27079 -0.253825
2.65158 0.511416 -0.0440983
0.75387 2.22674 0.219443
2.87531 -1.09757 -0.66778
2.14376 0.00725996 -0.793144
2.15352 1.43624 -0.151198
1.58415 2.21972 0.409693
3.07585 1.01058 0.65297
1.92983 2.29708 0.727067
1.99292 -0.92127 -1.4119
1.70704 2.12837 0.28347
1.56996 2.00345 -0.043112
2.55734 2.41661 1.41523
1.73537 1.99301 0.064508
3.06147 0.528561 0.461698
1.88365 -1.19269 -1.80509
3.07668 -0.428276 0.0797858
3.12742 1.29334 0.849337
1.16947 2.08023 -0.160964
0.807695 2.13642 -0.176036
2.61978 -0.210641 -0.344646
1.99892 -1.1495 -1.58526
1.54371 2.32744 0.653996
2.66439 -0.686764 -0.539679
1.34297 2.03652 -0.149691
2.0851 2.26878 0.752424
2.29827 -1.28882 -1.37757
1.47868 2.29034 0.541175
1.27056 2.02291 -0.249204
2.86301 -0.900698 -0.496237
1.21896 2.33289 0.611367
2.59979 2.11774 0.895219
2.62781 0.676981 -0.0120524
1.87189 -0.303807 -1.26628
2.93868 0.474919 0.28101
1.76079 2.47753 1.13075
2.48164 2.11453 0.788483
3.18332 1.14408 0.867013
1.96004 -0.396044 -1.1782
2.51676 -0.169307 -0.439537
2.10876 1.8876 0.214948
2.70031 1.83789 0.690903
2.50673 -0.874035 -0.81923
2.17868 1.27789 -0.22779
2.36163 -0.361478 -0.688124
1.94672 -0.496097 -1.2395
3.24822 -0.441729 0.324646
1.20896 2.15329 0.0832406
1.84132 2.33523 0.771295
1.41163 2.08243 0.0109429
1.93025 2.58384 1.71491
2.79255 1.13515 0.353712
1.85369 2.45884 1.09648
1.22808 2.07422 -0.13584
2.14354 1.98075 0.353885
1.96433 -0.656306 -1.29272
1.64862 1.66764 -0.508253
1.89821 1.56285 -0.321821
2.39095 1.95258 0.519487
3.17175 -0.514123 0.155343
2.22445 0.727225 -0.441346
1.93473 0.522929 -0.884619
2.63392 -1.13585 -0.915676
3.15115 -0.304441 0.255194
2.65269 -1.13904 -0.902347
2.95254 0.842803 0.426968
2.3993 0.742707 -0.23906
1.86613 1.81502 -0.0800432
2.48182 2.1274 0.805812
2.52052 -0.0849655 -0.402219
2.19744 -0.225046 -0.815641
2.54626 1.73808 0.456827
2.91536 -0.666453 -0.264938
2.22175 -1.38706 -1.57249
1.77802 0.621189 -1.09487
1.80603 1.80391 -0.150546
0.994987 2.11012 -0.179139
1.25196 1.95708 -0.472476
3.1453 -1.05319 -0.372764
3.21326 0.817666 0.791421
2.50329 -0.418233 -0.56205
1.54724 2.46099 1.04097
3.07707 1.9356 1.2421
1.34842 2.27981 0.479491
2.40959 1.99703 0.584674
2.53636 2.45038 2.19724
2.94601 2.26412 2.17204
2.68933 2.31865 2.37883
2.27051 1.56379 3.25128
2.75232 1.81776 2.85444
1.8969 1.7789 3.21943
2.30359 1.68067 3.16736
2.9236 1.89066 2.67184
3.05678 2.14747 2.22266
2.9641 1.93902 2.59566
2.60337 1.63091 3.0574
2.64818 2.08417 2.70715
2.42887 1.57553 3.17766
2.41376 1.63525 3.14998
2.53295 1.85659 2.95284
2.93029 2.28766 2.13443
2.29491 2.36536 2.52258
2.06734 2.57881 1.85154
2.17569 2.12121 2.86453
2.0503 1.59958 3.30297
2.01182 1.81621 3.16492
2.80909 2.38398 2.02271
2.85678 2.05574 2.58855
2.87723 1.87969 2.71968
2.13061 2.56934 1.947
2.64456 1.66926 3.01211
2.20256 2.01646 2.95381
2.98467 1.66707 2.75425
2.09799 2.26534 2.72509
2.83493 2.30591 2.2503
3.06382 2.11468 2.26971
2.65169 1.41516 3.13565
2.88164 2.30223 1.55839
2.10502 1.42438 3.39236
1.998 2.58353 1.79325
2.5856 1.25114 3.24866
1.97057 1.39478 3.45242
2.13842 2.48371 2.33758
2.57172 1.98697 2.8346
2.58806 1.22013 3.25953
2.20998 2.56153 1.77193
2.97654 2.0533 2.47411
2.24251 1.33741 3.38873
1.80214 1.45871 3.45752
2.09524 2.21856 2.78199
2.70248 1.55018 3.03903
2.28888 2.15914 2.79123
2.32491 2.54491 1.90574
2.97492 2.27133 1.68929
2.7995 2.05238 2.63753
2.88131 2.35328 1.82211
2.23337 2.06178 2.9041
3.02175 2.15802 2.26831
2.04947 1.38211 3.43536
2.82832 2.38431 1.90727
2.71897 1.53302 3.03632
2.15593 2.09923 2.89151
2.61129 2.46442 2.02843
2.72176 2.41617 1.66753
2.65967 2.45793 1.81871
2.85671 2.31977 2.18087
2.91314 1.8178 2.73197
2.72012 2.26229 2.44776
2.93579 2.13007 2.42871
2.31265 2.54191 1.71691
1.90157 1.68677 3.28378
2.01675 1.54814 3.34523
3.02755 2.19815 2.17123
2.56964 1.88624 2.91349
2.69425 2.41899 1.62068
2.74753 2.41002 1.7003
2.19084 2.55222 2.04551
2.49437 2.50796 1.78919
2.96716 2.27043 2.10196
3.08645 2.06523 2.30704
2.20164 2.34946 2.57989
2.28486 2.32494 2.58905
2.87728 1.99404 2.62865
2.86628 2.36314 1.84302
3.06522 1.90974 2.50725
3.10757 2.08968 2.22642
2.22164 2.22575 2.73885
2.02609 1.64798 3.27838
2.64378 2.11233 2.68192
2.23444 2.32932 2.59972
2.9971 2.27032 1.78577
3.02409 1.85492 2.5984
2.64835 1.9742 2.80403
2.85945 2.04779 2.59408
2.23061 2.53359 2.12294
2.72834 1.876 2.83035
3.02047 1.96269 2.51455
2.23338 2.05209 2.91293
2.02566 1.7044 3.24063
2.30238 1.91354 3.00582
2.30163 2.25016 2.68357
2.09235 2.57522 1.77846
3.07468 2.14576 2.1871
3.06403 1.91077 2.50787
2.3405 1.92591 2.98262
