ply
format ascii 1.0
comment Created by Open3D
element vertex 200
property double x
property double y
property double z
end_header
0.274064 -1.91134 1.64345
0.831448 -2.31492 0.5271
-1.4967 -0.927125 2.76684
1.00634 -2.24598 0.384208
0.790714 -1.70789 1.22557
0.858454 -2.70964 0.200495
-0.835204 -1.53144 2.70434
-0.359755 -0.885174 2.48225
0.221828 -0.26891 2.30013
-0.365001 -1.56473 2.4369
0.0284554 -1.41753 2.21009
-1.06711 -2.35002 2.6268
-0.250605 -2.07622 2.09437
0.155585 -3.26735 0.431751
0.807829 -2.10477 0.762335
0.248122 -1.62411 1.90783
0.181733 -2.34579 1.32612
-0.457837 -0.0599412 2.31552
1.03201 -2.97487 -0.0556039
0.949898 -1.93219 0.767566
0.124061 -1.5808 2.05157
-0.579986 -0.869108 2.55202
-0.54094 -2.67589 1.8589
-0.876915 -1.20924 2.70151
1.6744 -2.00047 -0.0916287
-0.433401 -0.998439 2.51786
-0.104679 -0.868927 2.39049
-1.52379 -1.84607 2.94159
-0.196664 -1.04099 2.42187
-0.288196 -2.78687 1.41965
2.09082 -1.93414 -0.341424
0.219131 -3.04829 0.561806
-0.768972 -2.66134 2.12151
-0.0298806 -0.453231 2.34833
-0.0508122 -0.0923532 2.28835
0.573393 -2.50072 0.666341
1.87685 -2.05551 -0.286981
-0.838977 -0.826472 2.61549
0.833664 -2.66524 0.251716
-0.0215791 -0.631876 2.36086
-0.886026 -1.36759 2.72136
1.71384 -2.40509 -0.345087
-0.727613 -0.763182 2.57161
0.072899 -0.555998 2.33541
0.835079 -2.92323 0.108371
-0.822962 -0.512855 2.52225
-0.966544 -1.91677 2.72708
0.125921 -2.27662 1.47139
1.43794 -1.71491 0.437194
-0.112074 -2.66612 1.34892
-1.31318 -1.04141 2.77636
-0.869903 -1.79364 2.6977
-0.761963 -2.76171 1.99663
1.37024 -1.83659 0.369007
0.653514 -2.3797 0.68253
-0.301913 -1.44358 2.42509
-0.719175 -2.07328 2.51618
1.12272 -2.54073 0.0541788
0.223014 -1.64392 1.91816
0.912841 -2.26268 0.477968
1.44323 -1.84735 0.276797
-0.00753546 -3.24303 0.578065
-0.277864 -0.496705 2.40443
-0.932655 -1.11909 2.70489
-0.181077 -0.701479 2.40925
-1.8913 -1.23715 2.86975
-0.284233 -2.33533 1.91767
-1.26956 -1.13094 2.79169
-0.049312 -0.513384 2.35861
-0.448987 -1.46424 2.50954
1.51875 -1.9066 0.13682
0.406165 -0.991494 2.14692
0.255612 -1.28103 2.10782
-0.589454 -1.72597 2.54414
0.163483 -3.1731 0.503131
0.511712 -1.83008 1.43554
0.954474 -1.56688 1.1971
1.26319 -2.72951 -0.142441
0.0349968 -3.10137 0.683981
1.25192 -2.74978 -0.140889
-0.304724 -2.58414 1.68507
0.323462 -2.01418 1.48454
-0.0196902 -1.20201 2.3104
-0.88874 -1.79191 2.7081
0.605584 -2.36191 0.759385
1.0076 -2.05109 0.567845
-0.486538 -1.93084 2.39755
0.579136 -2.92825 0.321859
1.91364 -2.34001 -0.441759
1.13669 -1.36436 1.26192
0.0467562 -1.14038 2.2882
-0.0295791 -0.277062 2.32316
0.300861 -0.5325 2.29058
0.755697 -3.2509 0.0411501
-0.640987 -2.88065 1.70616
0.807011 -2.42855 0.45624
-1.23895 -0.834128 2.70246
-1.24739 -2.46378 2.67049
-0.675434 -0.636075 2.52683
-0.658378 -1.73763 2.5852
-2.30245 -1.90687 2.88581
-2.22047 -2.34794 2.84247
-2.45213 -2.11272 2.79123
-3.24497 -2.04815 1.85654
-2.84955 -2.38014 2.28962
-3.27165 -1.62573 1.94441
-3.17524 -2.03406 1.9859
-2.66562 -2.49862 2.43148
-2.24611 -2.49407 2.7623
-2.59372 -2.51332 2.49779
-3.0365 -2.31984 2.04528
-2.74807 -2.18341 2.52311
-3.16146 -2.18572 1.92536
-3.14334 -2.15002 1.97975
-2.96912 -2.17237 2.2466
-2.18772 -2.32154 2.86359
-2.63122 -1.74234 2.69554
-2.01489 -1.38416 2.89425
-2.94542 -1.74376 2.39217
-3.31805 -1.83508 1.81523
-3.21386 -1.71667 2.02161
-2.0998 -2.16464 2.92761
-2.6108 -2.37549 2.57461
-2.71503 -2.46369 2.40151
-2.10297 -1.45796 2.89546
-2.99371 -2.34183 2.09916
-3.0174 -1.81144 2.29267
-2.71214 -2.63404 2.23145
-2.83317 -1.61018 2.51792
-2.31208 -2.2393 2.83861
-2.28762 -2.51619 2.72874
-3.08096 -2.44033 1.84903
-1.62447 -2.20413 2.92157
-3.37847 -1.95057 1.65809
-1.96336 -1.31039 2.88279
-3.17566 -2.44095 1.66175
-3.44431 -1.83946 1.58141
-2.47663 -1.53684 2.77674
-2.86685 -2.15556 2.39405
-3.18203 -2.45399 1.63216
-1.92278 -1.51502 2.93135
-2.48808 -2.47614 2.62207
-3.35243 -2.10662 1.61999
-3.47112 -1.66136 1.58784
-2.88329 -1.62846 2.46704
-2.99975 -2.43599 2.00242
-2.86929 -1.83068 2.47136
-2.04375 -1.64429 2.9382
-1.74232 -2.31694 2.90841
-2.66321 -2.32805 2.54824
-1.89187 -2.21893 2.94229
-2.972 -1.82099 2.3503
-2.29537 -2.46305 2.75643
-3.41959 -1.91592 1.59621
-1.98432 -2.16929 2.94596
-2.99346 -2.45648 1.99174
-2.97066 -1.73491 2.3624
-2.13174 -1.9538 2.94025
-1.76011 -2.03097 2.96711
-1.91992 -1.97714 2.97117
-2.24366 -2.24759 2.86576
-2.71602 -2.51792 2.35324
-2.51023 -2.16701 2.74069
-2.45676 -2.40895 2.68626
-1.85777 -1.61166 2.95105
-3.32245 -1.66568 1.85235
-3.35548 -1.82394 1.75173
-2.20442 -2.44503 2.80616
-2.93137 -2.19344 2.29025
-1.71636 -1.99866 2.9659
-1.78964 -2.06102 2.96606
-2.19327 -1.53157 2.88818
-1.9104 -1.8022 2.96907
-2.15045 -2.35786 2.86237
-2.31607 -2.55698 2.68541
-2.69297 -1.66567 2.64508
-2.69222 -1.75288 2.64736
-2.6405 -2.41832 2.51877
-1.91503 -2.20415 2.94467
-2.49455 -2.60755 2.51135
-2.23807 -2.56013 2.7235
-2.83177 -1.74074 2.5183
-3.30216 -1.79459 1.85575
-2.72729 -2.16774 2.55088
-2.70729 -1.70512 2.63442
-1.83576 -2.34944 2.90449
-2.58042 -2.59597 2.4372
-2.82895 -2.22834 2.40944
-2.61499 -2.38107 2.56739
-2.26414 -1.58384 2.87518
-2.83547 -2.33692 2.33944
-2.51239 -2.54997 2.54635
-2.97941 -1.82497 2.34025
-3.27251 -1.77261 1.91272
-3.04712 -1.9432 2.22183
-2.7742 -1.8025 2.57236
-1.94026 -1.40041 2.90635
-2.20936 -2.50738 2.77004
-2.4954 -2.60619 2.51188
-3.0229 -1.97278 2.24796
