ply
format ascii 1.0
comment Created by Open3D
element vertex 250
property double x
property double y
property double z
end_header
-2.88347 0.339757 -1.13423
-1.95689 1.24839 0.856392
-2.35206 -0.75612 -0.355502
-2.91154 0.851131 -1.05204
-2.85585 -0.612447 -1.11816
-2.53222 -0.0861763 -0.500968
-2.36029 0.753076 0.198128
-2.46806 2.08686 0.129713
-1.80671 1.22257 1.04385
-1.60975 2.39137 0.583707
-2.27493 -1.01929 -0.263108
-2.6441 1.60964 -0.115388
-2.78256 -0.820761 -1.00274
-1.61678 3.24612 -0.026157
-2.688 0.172777 -0.729709
-2.92171 2.12546 -0.633622
-2.72597 2.75114 -0.379655
-2.71562 0.127995 -0.803536
-2.25575 0.761321 0.406039
-2.72116 2.59626 -0.304712
-2.21298 1.74861 0.459231
-2.49269 1.94737 0.118341
-2.3891 -0.471173 -0.347849
-1.89126 0.928972 1.06835
-1.3629 2.3353 0.693728
-2.40593 0.659778 0.0749728
-2.56145 -0.683439 -0.698639
-2.79777 1.25025 -0.537056
-2.44631 0.734838 0.0197116
-1.18904 1.94015 0.986154
-2.58872 2.65064 -0.156097
-2.28731 3.04399 -0.126819
-1.83029 1.07416 1.09052
-2.56256 -1.02147 -0.714154
-1.52841 1.84561 0.915122
-2.09273 -1.05546 0.157496
-3.04806 -0.0464728 -1.52714
-1.60339 3.22418 -0.000963729
-2.38539 1.49526 0.274066
-2.83695 -0.00909714 -1.08779
-2.85494 0.353904 -1.05649
-1.9994 2.52767 0.344354
-2.28922 0.224174 0.159219
-2.51707 -1.53469 -0.598639
-2.95426 -0.558354 -1.25427
-1.49594 1.86283 0.920351
-2.42058 -1.80005 -0.421862
-1.18727 2.10432 0.882189
-2.44682 0.237247 -0.187329
-2.54256 1.43971 0.0295223
-2.05875 2.3732 0.383258
-2.29768 -1.1954 -0.324768
-2.19355 2.14283 0.376552
-1.75971 2.38192 0.530624
-2.12744 1.161 0.64623
-1.64671 2.40512 0.562751
-1.83591 0.966493 1.14181
-2.50345 0.941536 -0.0226631
-2.78684 0.668293 -0.764641
-2.71469 -0.69514 -0.923677
-1.78545 2.95842 0.172031
-1.43736 2.74475 0.418216
-1.15589 1.61072 1.22839
-1.33287 2.56448 0.560381
-2.759 -0.580166 -0.987397
-2.18626 -1.74467 -0.0911212
-2.58494 1.55528 -0.0233268
-2.58929 2.36566 -0.0647761
-2.92053 1.52405 -0.774871
-2.19422 -1.65616 -0.124191
-2.50778 1.87144 0.10446
-2.099 -0.971049 0.163854
-2.93026 1.08044 -1.01708
-2.32154 3.04747 -0.152843
-2.18007 -1.32934 -0.111269
-2.79853 0.503796 -0.862392
-1.84117 1.8836 0.722646
-1.38429 2.7278 0.441959
-2.60917 0.447669 -0.446302
-1.82777 2.58016 0.395954
-2.22449 2.6271 0.164828
-2.47765 -0.823675 -0.583102
-2.4242 3.05268 -0.235971
-2.07321 1.72852 0.599125
-2.95854 1.53028 -0.917406
-2.71091 2.44442 -0.243701
-2.92775 0.491757 -1.22877
-1.82461 3.05325 0.0867311
-1.94211 3.14421 -0.0318004
-2.27596 -1.42689 -0.290761
-2.83831 0.843316 -0.825415
-2.77741 0.843741 -0.662462
-2.22104 0.685481 0.460212
-2.9188 1.0961 -0.965483
-2.30103 -0.956683 -0.301497
-1.65606 1.74572 0.90157
-2.49404 2.99117 -0.251292
-1.83466 1.46949 0.902449
-2.18601 -1.3132 -0.122699
-2.15934 -1.20089 -0.0515929
-1.58975 2.24219 0.673022
-2.3115 0.226538 0.108652
-2.12024 -0.998134 0.0930479
-2.0462 0.504131 0.83949
-0.978293 1.71922 1.20178
-2.41299 -1.28281 -0.503797
-1.3514 1.63181 1.13061
-2.3508 -0.655578 -0.327585
-1.7623 1.75534 0.83075
-2.26164 0.339784 0.26955
-2.70359 2.69472 -0.319298
-1.54444 1.5683 1.06839
-3.05625 -0.289923 -1.46512
-2.10352 -0.134736 0.51457
-2.37993 -1.43565 -0.446652
-2.62151 -1.12822 -0.779927
-2.88192 -0.552162 -1.16
-1.89336 0.873922 1.09081
-2.49964 -0.619152 -0.588451
-1.20407 2.26669 0.776783
-2.51534 -1.29695 -0.635585
-2.86077 2.56963 -0.54926
-2.02703 1.07208 0.806949
-2.35057 1.10073 0.294481
-2.66245 -0.0577678 -0.750791
-2.93506 1.16026 -0.997333
-2.6779 -0.872303 -0.868983
-2.90089 2.01098 -0.584348
-2.66916 0.156959 -0.695141
-2.81745 2.3934 -0.410133
-2.42992 -0.0872825 -0.290354
-2.27504 0.334875 0.236714
-2.32533 -0.568687 -0.250463
-2.21736 -0.369139 0.0737382
-2.828 1.48718 -0.523959
-2.88638 1.06092 -0.870199
-2.60745 1.16342 -0.154273
-2.11691 1.33047 0.639149
-2.90232 2.25911 -0.58197
-2.78369 0.104913 -0.954994
-1.40723 1.43415 1.24519
-2.71056 -0.836711 -0.912515
-2.83326 1.80084 -0.451484
-2.74812 0.926758 -0.552805
-2.89514 2.15143 -0.56005
-0.919901 1.69135 1.2393
-2.28159 -0.889103 -0.250603
-2.39928 0.699286 0.102533
-2.78372 -1.16682 -0.945969
-2.84747 1.96073 -0.458676
-2.63346 0.825995 -0.334651
-2.47849 2.47145 0.0246391
-2.77602 0.501971 -0.807113
-1.2262 1.73618 1.11017
-2.71973 2.17121 -0.213629
-1.56209 2.30363 0.649427
-2.59878 1.25308 -0.111057
-2.21446 0.410079 0.403998
-1.9944 1.55904 0.721609
-2.38984 -1.29778 -0.470462
-2.62915 1.28014 -0.161441
-2.91808 0.403351 -1.21733
-2.30948 0.348568 0.163639
-2.03462 3.07138 -0.00981409
-2.6886 2.05361 -0.158588
-2.5733 1.86349 0.0153078
-2.31145 3.03895 -0.139264
-2.123 -0.0997882 0.464502
-2.11587 -0.762716 0.187921
-2.58378 -0.380501 -0.685645
-2.89922 0.497754 -1.1386
-2.09841 2.87177 0.101713
-2.84618 0.918684 -0.813656
-2.62692 -1.44178 -0.732921
-2.12835 0.581813 0.642273
-2.073 0.267118 0.744087
-1.17567 2.14516 0.859577
-2.79744 1.97097 -0.351771
-2.80488 0.672244 -0.809663
-2.42642 1.39222 0.208299
-2.88164 0.559927 -1.06703
-2.69772 0.270192 -0.715358
-2.36315 0.11401 -0.0577208
-2.51638 0.448763 -0.244452
-2.32394 2.74138 0.0395526
-3.18262 -0.269812 -1.67676
-2.47289 3.05913 -0.284516
-2.15201 -1.02061 0.00277645
-2.00365 1.90294 0.601879
-2.87284 0.0518612 -1.15574
-2.98533 0.201689 -1.42418
-1.8026 1.80694 0.781016
-2.94032 0.42776 -1.28128
-2.2061 2.58284 0.197782
-2.30648 1.71984 0.362332
-2.07628 -0.909068 0.260685
-2.75605 -0.388428 -0.978174
-2.76947 2.7621 -0.456899
-1.98623 0.947707 0.899769
-2.61247 -0.600483 -0.769311
-2.38468 3.48535 -0.973223
-1.82542 3.63331 -0.767413
-2.28514 3.49599 -0.745664
-2.26882 3.19267 -0.24339
-2.42083 3.46554 -1.05298
-2.13933 3.28273 -0.258862
-2.08769 3.59603 -0.883887
-2.16027 3.46114 -0.528237
-0.933533 3.54118 -1.97407
-2.36199 3.47281 -1.25641
-2.3228 3.19148 -0.280185
-2.5101 3.36905 -0.766819
-1.34774 3.56952 -1.81935
-2.58203 3.21659 -0.581711
-2.22838 3.485 -0.64116
-1.77285 3.66874 -1.1375
-2.65153 3.14549 -0.596843
-1.15753 3.57155 -1.85304
-1.49279 3.69785 -1.04929
-1.49336 3.59755 -1.68451
-2.53469 3.17948 -0.467291
-1.16979 3.60913 -1.72135
-2.34979 3.50413 -1.06659
-1.99965 3.40348 -0.338993
-1.63492 3.67583 -0.873758
-1.75893 3.63523 -1.40307
-1.85594 3.60059 -0.663782
-2.38426 3.48632 -1.05567
-1.4185 3.52107 -1.934
-1.99219 3.62117 -1.20733
-2.49521 3.40009 -1.19747
-2.20973 3.51284 -0.696857
-1.8353 3.39011 -0.25395
-1.90488 3.63279 -0.839275
-1.71303 3.65534 -0.796749
-1.9268 3.54335 -1.60084
-2.25399 3.44847 -1.51461
-2.02432 3.57441 -1.40924
-1.75773 3.63272 -1.41578
-1.64925 3.67609 -0.887783
-1.83661 3.66077 -1.00867
-1.42417 3.69301 -1.23518
-1.94356 3.29239 -2.08218
-1.40132 3.45881 -2.09358
-1.41969 3.55571 -1.83853
-1.5354 3.67443 -1.33079
-1.63845 3.49615 -1.90042
-2.6528 3.24033 -0.778028
-1.67295 3.65377 -1.37114
-1.40515 3.68597 -1.30631
