ply
format ascii 1.0
comment Created by Open3D
element vertex 400
property double x
property double y
property double z
end_header
1.51442 2.7537 -0.539933
1.76067 0.69327 -2.26596
1.2862 2.25388 -0.929308
0.428705 1.22355 -1.75221
1.94582 2.55562 -0.628448
1.67469 2.57825 -0.659398
0.408786 1.77289 -1.29386
1.59011 2.00734 -1.10521
1.86048 0.77056 -2.23233
1.49289 0.24696 -2.72596
1.30286 2.99834 -0.364004
1.13913 1.63425 -1.37087
0.928636 0.79365 -2.03534
1.6686 0.81414 -2.09705
1.40846 0.9805 -1.88618
1.34037 3.30953 -0.0847467
1.34128 2.82164 -0.503432
1.14551 0.36709 -2.46224
0.633483 2.41134 -0.799978
0.810585 0.70202 -2.13744
1.54951 1.78967 -1.26722
1.5966 1.50593 -1.48616
1.40484 0.92077 -1.93684
1.07516 1.74512 -1.2915
0.6916 2.34192 -0.856568
1.72058 1.92835 -1.16651
0.412045 1.22218 -1.75777
2.28021 1.55272 -1.58675
0.940042 1.10317 -1.77352
2.33365 1.72046 -1.41778
1.71478 2.88959 -0.388619
1.22986 1.00519 -1.84985
0.43533 1.5422 -1.47937
1.51194 0.80205 -2.06354
0.631015 1.4823 -1.50395
0.90026 1.52768 -1.45173
2.04608 0.91436 -2.18348
2.26807 1.73894 -1.3825
1.1054 2.53973 -0.724282
0.472206 1.66958 -1.37186
0.962068 1.0088 -1.84851
2.15437 2.12102 -0.994928
1.2826 0.49018 -2.33275
1.43694 1.1556 -1.74511
1.70988 0.8438 -2.0822
0.341844 1.90645 -1.18805
2.12193 1.85259 -1.24899
1.05384 1.25311 -1.65242
2.56357 1.74336 -1.46537
1.10134 1.3709 -1.56325
1.29327 0.22845 -2.67261
0.549641 1.67134 -1.36404
0.893302 0.72602 -2.10137
1.59036 0.3409 -2.63121
1.13526 0.40501 -2.41651
1.68929 1.76911 -1.28914
1.81256 2.45822 -0.737965
1.78397 2.86968 -0.387749
0.916128 1.95667 -1.14165
0.742137 1.75238 -1.29244
0.942842 0.46914 -2.35549
2.03757 2.20022 -0.93167
0.654434 1.48906 -1.49643
1.66445 2.95698 -0.341214
2.18242 2.09156 -1.02152
1.17574 0.48259 -2.33056
2.34412 1.81716 -1.31242
1.43847 2.1124 -1.02901
1.21526 0.8482 -1.98136
2.17368 1.77374 -1.3306
2.10641 1.74161 -1.35159
0.406692 1.8458 -1.23498
1.4491 2.50164 -0.741416
1.38381 0.22763 -2.70402
1.57285 0.74921 -2.13075
1.85576 2.45997 -0.729861
1.22349 2.76216 -0.555949
1.14944 3.06301 -0.317894
1.79381 1.39956 -1.59984
2.15332 1.98937 -1.12087
2.11471 1.47744 -1.60812
2.42343 1.66145 -1.51572
2.01759 1.25011 -1.79931
1.84715 1.71022 -1.34804
1.68492 0.68421 -2.23958
0.843105 2.1905 -0.973354
1.40673 2.33245 -0.869218
1.84058 1.20783 -1.77938
1.17362 2.38359 -0.837518
1.69102 2.67316 -0.579212
2.19394 1.19901 -1.94396
1.44801 1.07093 -1.81564
0.506147 1.50163 -1.50298
1.2816 0.74292 -2.08034
2.13985 1.45589 -1.63812
1.20396 2.45881 -0.782647
1.73423 0.95327 -1.98348
1.50345 2.92749 -0.399105
2.35404 2.11105 -0.987446
1.73729 1.02495 -1.91681
2.00507 1.38667 -1.66227
1.88097 1.29741 -1.70929
0.666929 1.15607 -1.76075
1.48967 2.53068 -0.716504
1.10477 2.83544 -0.501282
1.90626 1.56441 -1.47898
1.66956 0.79788 -2.11372
1.9572 2.11722 -1.01031
1.92768 1.85356 -1.23449
0.694662 1.07161 -1.82688
0.794873 2.22439 -0.94765
1.58197 0.80374 -2.07995
1.07123 0.5117 -2.29823
0.659193 1.35066 -1.60427
2.11617 1.94568 -1.16142
1.71677 2.49153 -0.723795
1.37597 0.87477 -1.97303
1.04628 0.59955 -2.20919
0.29376 1.36081 -1.66427
2.22709 2.20348 -0.905705
0.739245 1.648 -1.36991
1.25486 3.22243 -0.175037
1.11726 0.93859 -1.90188
2.70259 1.766 -1.49986
2.37205 1.43777 -1.76717
0.161312 1.72569 -1.35973
1.0374 1.42738 -1.52193
1.46519 3.19853 -0.167507
2.2281 1.24156 -1.9155
1.32121 3.29262 -0.103457
2.36343 1.38789 -1.82482
2.45263 1.6621 -1.52681
1.43625 2.36441 -0.844498
0.553353 1.84648 -1.22843
1.12347 2.61697 -0.667212
1.26763 1.57004 -1.41906
0.972944 2.14318 -1.00891
1.47512 0.83322 -2.02662
0.84338 2.52544 -0.727768
1.01176 0.45887 -2.35904
0.603664 0.88759 -2.01016
0.858647 2.69717 -0.5987
0.255181 1.89204 -1.20359
2.13945 1.96735 -1.14164
1.84096 0.91295 -2.06552
0.77564 0.68949 -2.15686
1.28637 0.55239 -2.26681
0.358758 1.33946 -1.66683
1.67001 0.88524 -2.02785
2.23673 1.96646 -1.14464
1.40691 3.36726 -0.016313
0.971261 2.54253 -0.72028
0.697957 2.43527 -0.786515
1.74656 2.00033 -1.11046
0.596013 1.66143 -1.36833
1.25694 0.26574 -2.60814
0.375955 1.29011 -1.70646
1.14844 3.1135 -0.275333
0.300655 1.39434 -1.63205
1.02482 2.80985 -0.519978
1.01525 2.23816 -0.941527
0.648778 1.06597 -1.83994
0.324406 1.36 -1.65701
2.15204 1.9777 -1.132
1.28103 1.44912 -1.50831
1.68081 2.83877 -0.441213
0.325312 1.5218 -1.51411
2.69768 1.74995 -1.52423
1.34681 2.29641 -0.897361
0.575295 1.10121 -1.82464
1.12535 2.71237 -0.59566
1.69259 2.74699 -0.517143
0.908986 1.96347 -1.13682
1.08344 2.45424 -0.786628
1.91083 2.06054 -1.06
1.62272 2.17062 -0.981528
1.78068 1.78816 -1.27945
1.99219 1.20744 -1.83177
0.950111 1.74707 -1.29122
1.19152 0.99819 -1.85402
1.51244 1.8999 -1.18449
1.03635 1.18052 -1.70864
0.941209 1.42801 -1.52396
1.73578 1.14266 -1.80949
1.97964 1.85071 -1.24009
1.64788 0.98082 -1.93211
1.50412 0.29494 -2.65217
1.20653 0.30208 -2.55
0.706492 2.28751 -0.898019
1.22095 0.2789 -2.58364
1.37875 2.6413 -0.640363
0.842737 2.59291 -0.677062
0.258299 1.86645 -1.22548
2.16505 1.99229 -1.11813
2.27217 1.65081 -1.47723
2.06445 1.65415 -1.42643
2.06919 2.35403 -0.786522
1.45248 1.73775 -1.30229
1.31315 0.4508 -2.38188
0.741698 2.42886 -0.794208
0.971833 2.56777 -0.70162
1.75206 1.63558 -1.39938
2.11996 1.69343 -1.39948
0.95813 1.03796 -1.82494
2.05023 1.73225 -1.35236
2.29484 2.20535 -0.89297
2.42562 1.74405 -1.41572
0.842772 1.23858 -1.67368
1.12522 1.90354 -1.17896
1.97176 2.45157 -0.716377
0.572417 1.34153 -1.62338
2.39878 1.69259 -1.46908
1.54375 0.76152 -2.11037
1.0024 0.48383 -2.33231
0.513515 1.95452 -1.14598
1.8379 2.70169 -0.524192
1.11652 0.87854 -1.95256
2.65846 1.77482 -1.46154
2.04582 0.99278 -2.08938
1.0322 2.47759 -0.769184
2.11559 1.32386 -1.76449
1.57041 1.22848 -1.70363
0.372801 1.22415 -1.76682
1.90607 2.01562 -1.09766
1.35084 1.10142 -1.7801
1.06977 1.66143 -1.35139
1.84764 2.63734 -0.578625
1.99292 2.47622 -0.689648
1.32491 0.85958 -1.98021
0.920526 1.2624 -1.65001
1.86882 1.69452 -1.36331
1.86329 1.79654 -1.27806
0.463721 1.15081 -1.80792
1.67277 2.80841 -0.468974
1.83384 1.80307 -1.27074
2.21354 2.22479 -0.886231
2.5633 1.79054 -1.39904
1.11794 2.67573 -0.623308
0.653084 1.66426 -1.36245
1.00756 1.60318 -1.39395
1.67197 1.68689 -1.35195
1.42387 0.6673 -2.17406
2.6473 1.69053 -1.58987
1.68511 2.20541 -0.952275
1.90314 0.80803 -2.2144
1.64972 1.88624 -1.19743
1.2175 1.69054 -1.33106
1.09997 0.97384 -1.87268
1.27879 3.01324 -0.353497
1.96342 1.62288 -1.43737
0.924669 2.6902 -0.6079
2.57166 1.92247 -1.21785
0.826233 1.58907 -1.40948
1.44086 1.25683 -1.66495
2.31937 1.64989 -1.49244
0.655028 1.17544 -1.74662
2.25944 2.01713 -1.09311
0.695878 0.81233 -2.05706
1.1738 0.38938 -2.43662
1.30018 2.30161 -0.894681
1.49872 3.08072 -0.267817
2.00801 1.24037 -1.80524
1.32357 3.13937 -0.24229
1.0976 1.42594 -1.52246
1.38302 0.5439 -2.29256
2.39061 1.6112 -1.56352
1.81374 2.08794 -1.03994
2.22985 1.34732 -1.79353
1.97288 1.84734 -1.24258
2.23921 2.18429 -0.923524
0.335543 1.72452 -1.33995
0.98425 2.13656 -1.01369
1.28085 1.21832 -1.68296
2.52084 1.59829 -1.64684
0.712226 0.90025 -1.97267
2.59888 1.77703 -1.4316
0.604555 2.38798 -0.815683
2.56249 1.87075 -1.28769
1.51225 0.49655 -2.38294
0.644881 1.81231 -1.25121
1.6295 1.46272 -1.52355
1.58552 2.73283 -0.547089
2.29036 1.77048 -1.35349
1.64737 2.05082 -1.07202
1.65448 0.71451 -2.19423
1.19102 2.94726 -0.411706
1.00869 2.50362 -0.749774
0.907197 2.10217 -1.03769
2.16456 1.60401 -1.49647
1.74967 0.57277 -2.40622
2.44353 1.65093 -1.53706
1.73209 0.52441 -2.45864
2.0012 2.34282 -0.808492
1.29359 1.73231 -1.30219
1.85508 0.77754 -2.22105
1.59359 2.87988 -0.423734
1.58377 0.81792 -2.06681
2.36684 1.43545 -1.76685
0.573266 1.733 -1.31472
1.2104 3.08042 -0.30139
1.66133 0.92698 -1.98558
1.14261 2.28563 -0.908003
1.12432 0.69245 -2.1185
0.985169 2.8415 -0.493971
1.36768 0.67184 -2.15897
1.48466 1.39982 -1.5578
1.31438 3.23867 -0.154467
1.03669 2.10124 -1.03901
1.1551 0.90502 -1.93051
1.30263 2.61964 -0.660961
1.12673 0.55725 -2.25036
2.09109 2.33929 -0.796223
1.74721 1.88504 -1.20106
0.439325 1.92157 -1.1731
1.6835 2.35204 -0.838197
1.50742 2.07596 -1.05481
2.46165 2.00944 -1.09916
0.711689 0.98147 -1.90108
0.681191 0.88537 -1.99278
2.65423 1.86666 -1.31586
1.57622 3.15857 -0.179075
1.36495 3.0023 -0.354918
1.38583 0.70615 -2.12891
0.516004 2.08215 -1.04707
0.718498 1.69313 -1.3373
1.52857 1.98303 -1.12326
1.46642 0.50803 -2.35406
1.82373 0.61757 -2.39751
1.05925 0.40598 -2.41632
1.32923 1.87763 -1.19836
1.69169 2.11978 -1.01827
2.48268 1.61897 -1.59694
0.766369 0.97726 -1.89556
2.39154 1.62762 -1.54413
0.485662 1.28525 -1.68555
2.26347 1.41939 -1.72888
1.47459 1.49633 -1.48329
1.74374 1.00358 -1.93882
1.69849 1.06874 -1.86588
1.39387 0.19731 -2.76163
0.735179 1.3471 -1.5988
0.443844 1.63105 -1.40571
1.45224 2.72131 -0.572544
1.83415 2.51496 -0.686813
1.58301 2.42727 -0.788134
0.784125 1.46007 -1.50813
1.00246 1.10289 -1.77062
1.81931 1.65708 -1.38898
1.66128 1.24954 -1.70131
1.75503 1.99772 -1.11251
1.67552 1.64836 -1.38227
1.41759 0.35575 -2.52598
1.8353 1.93455 -1.16383
1.01662 2.73739 -0.575458
1.94042 2.20044 -0.94012
1.11403 2.61626 -0.667756
0.339715 1.42467 -1.59599
1.73583 2.85678 -0.412434
1.14002 0.67946 -2.13089
0.773723 2.07802 -1.05394
0.649923 1.83146 -1.23668
0.557052 1.57756 -1.43676
1.50511 2.01073 -1.10282
0.790849 0.80767 -2.04165
0.404366 1.32562 -1.66828
1.24705 2.01366 -1.10101
0.755643 0.84952 -2.00995
1.65863 2.85574 -0.431356
0.843628 0.88819 -1.96152
1.70855 1.37846 -1.60249
0.582359 2.33201 -0.857197
1.52217 2.9389 -0.386448
1.91219 1.45774 -1.57343
2.07727 2.39063 -0.750615
1.39045 3.34199 -0.0448306
1.84235 0.66836 -2.34491
1.66005 1.35058 -1.61768
2.14234 2.10066 -1.01518
1.01144 1.2562 -1.65102
1.59352 2.64614 -0.615805
1.54318 0.89828 -1.98167
1.43992 2.75176 -0.549825
0.9864 2.62376 -0.660367
1.82955 0.78279 -2.20074
1.59046 1.9735 -1.13059
1.01999 0.64302 -2.168
1.65215 0.9015 -2.00688
1.30223 2.9065 -0.438809
1.19783 0.6786 -2.1338
1.30588 2.3941 -0.827485
1.86963 2.51011 -0.684614
1.38791 0.4712 -2.37444
0.830688 1.16851 -1.72999
1.9916 1.01935 -2.02731
1.04466 2.95432 -0.406424
0.889646 1.31808 -1.60911
1.5018 2.31134 -0.880864
1.98537 1.42171 -1.62377
1.24251 0.49736 -2.31992
0.660431 1.1563 -1.76162
