ply
format ascii 1.0
comment Created by Open3D
element vertex 200
property double x
property double y
property double z
end_header
-0.976263 -2.04397 -1.13945
-1.99109 -1.25024 -0.894669
0.962665 -3.10349 -0.443552
-2.05884 -1.03098 -0.950273
-1.17476 -1.39921 -1.30626
-2.46742 -1.2389 -0.704446
0.195671 -3.08048 -0.910324
0.462388 -2.33901 -1.17888
0.682864 -1.58993 -1.55498
-0.117298 -2.69204 -1.12218
-0.235672 -2.26681 -1.3041
-0.430484 -3.59937 -0.648518
-0.728802 -2.6932 -0.98762
-2.57434 -2.04682 -0.263569
-1.70784 -1.302 -1.02561
-0.615915 -2.07323 -1.28898
-1.43814 -2.11882 -0.858303
1.10922 -1.81168 -1.03067
-2.85965 -1.13152 -0.678289
-1.61444 -1.14008 -1.14831
-0.473408 -2.20556 -1.27854
0.585582 -2.48337 -1.04617
-1.22033 -3.01144 -0.592066
0.476149 -2.91811 -0.88732
-2.30238 -0.25048 -1.20425
0.410704 -2.46205 -1.13752
0.34384 -2.1449 -1.32725
0.287222 -3.74925 -0.493439
0.248367 -2.30693 -1.26656
-1.59222 -2.65616 -0.52415
-2.50584 0.155958 -1.38761
-2.36047 -1.98073 -0.400785
-1.01291 -3.29007 -0.569483
0.642478 -1.84735 -1.37677
0.922905 -1.61482 -1.33725
-1.99137 -1.57277 -0.7663
-2.50518 -0.0521269 -1.24556
0.742135 -2.62734 -0.879782
-2.39973 -1.26043 -0.717259
0.49705 -1.95191 -1.38433
0.356966 -3.02463 -0.886178
-2.76006 -0.287848 -1.06772
0.73523 -2.50852 -0.944339
0.514592 -1.84659 -1.44703
-2.67511 -1.30801 -0.622321
0.955791 -2.3811 -0.847872
-0.0656342 -3.37529 -0.805176
-1.29838 -2.20469 -0.90409
-1.75359 -0.560231 -1.34566
-1.58663 -2.45577 -0.626201
0.805542 -3.08524 -0.591231
-0.0114708 -3.23979 -0.868975
-1.15201 -3.25899 -0.49598
-1.85888 -0.615331 -1.24608
-1.91343 -1.47708 -0.844364
-0.0450599 -2.58567 -1.16978
-0.375361 -3.20165 -0.869113
-2.48641 -0.918084 -0.832865
-0.618752 -2.10342 -1.27449
-1.9985 -1.14858 -0.931775
-1.93381 -0.524083 -1.24816
-2.43225 -2.21041 -0.222859
0.72064 -2.02931 -1.21151
0.572422 -2.89679 -0.848303
0.518151 -2.10057 -1.28392
0.893652 -3.53724 -0.179905
-1.00666 -2.73592 -0.844598
0.722201 -3.12465 -0.63192
0.604181 -1.89737 -1.36527
0.0274738 -2.72514 -1.10285
-2.07027 -0.426684 -1.22164
-0.0475172 -1.80291 -1.58258
-0.249111 -2.01172 -1.42835
-0.123183 -2.96303 -1.00217
-2.46865 -2.03816 -0.31643
-1.08449 -1.74375 -1.20625
-1.12979 -1.22185 -1.42472
-2.77788 -0.823826 -0.819086
-2.28512 -2.18164 -0.325903
-2.78988 -0.841676 -0.810296
-1.30475 -2.72894 -0.678684
-1.1474 -1.97091 -1.07907
0.00309913 -2.2367 -1.33428
0.00125495 -3.25491 -0.860309
-1.84836 -1.54194 -0.853234
-1.81936 -1.04457 -1.06933
-0.392883 -2.92958 -0.988072
-2.49478 -1.57808 -0.547137
-2.82024 -0.0897851 -1.17091
-1.00067 -1.0638 -1.61647
0.0204305 -2.15511 -1.37608
0.777314 -1.73151 -1.36834
0.432007 -1.69307 -1.6024
-2.94614 -1.48489 -0.506397
-1.41884 -3.0719 -0.412615
-2.10659 -1.27812 -0.828233
0.918371 -2.88346 -0.61343
-0.44038 -3.77967 -0.527091
0.802231 -2.38194 -0.963575
-0.0901935 -3.0305 -0.971621
0.495867 -4.12226 0.162652
0.082636 -4.30076 0.139848
0.339406 -4.24643 0.346576
0.280195 -3.9651 1.53979
0.0475528 -4.25123 0.97575
0.676989 -3.80026 1.49237
0.321965 -4.01047 1.40564
-0.0564685 -4.32412 0.748024
-0.0632974 -4.34119 0.214064
-0.0663267 -4.34218 0.65128
0.0606109 -4.14353 1.26989
0.273506 -4.24887 0.746724
0.165551 -4.04813 1.43683
0.211811 -4.05592 1.38825
0.244423 -4.16363 1.08925
0.10163 -4.28433 0.100039
0.66984 -4.06102 0.533259
0.827428 -3.69587 -0.090818
0.65277 -4.00975 0.966657
0.465291 -3.8532 1.61503
0.61386 -3.87521 1.40311
0.226934 -4.1969 -0.0144348
0.086823 -4.32481 0.613416
-0.0224752 -4.30827 0.804168
0.798892 -3.78064 -0.0186638
0.0499669 -4.1714 1.2041
0.580277 -4.0156 1.08655
-0.237334 -4.28804 0.910812
0.77639 -3.96515 0.796412
0.20413 -4.28155 0.211117
-0.0808974 -4.35109 0.268195
-0.107028 -4.10064 1.42821
0.0190085 -3.9852 -0.387915
0.324351 -3.84151 1.76228
0.864823 -3.6219 -0.127674
-0.153421 -4.02085 1.61669
0.407308 -3.7595 1.85688
0.818492 -3.92568 0.353517
0.284377 -4.2039 0.918184
-0.17457 -4.01135 1.6401
0.701621 -3.74965 -0.181726
-0.020672 -4.35382 0.49075
0.169471 -3.89079 1.77031
0.567139 -3.67693 1.86776
0.757673 -3.96542 0.867713
-0.0671926 -4.16207 1.27078
0.587152 -4.07493 0.861447
0.64156 -3.88521 -0.0847346
-0.0371465 -4.09657 -0.281926
0.133802 -4.30583 0.669313
0.112778 -4.1367 -0.186895
0.580592 -4.03776 1.01596
-0.0222621 -4.34366 0.255688
0.341421 -3.80036 1.83109
0.188998 -4.15602 -0.117319
-0.0910045 -4.16334 1.27298
0.656498 -3.99698 1.0044
0.41836 -4.10264 -0.00443374
0.231039 -3.98431 -0.313775
0.335372 -4.03412 -0.190936
0.184056 -4.27138 0.140542
-0.0876655 -4.3067 0.836096
0.293941 -4.27097 0.425358
0.0510379 -4.34417 0.424577
0.606502 -3.78565 -0.241815
0.622931 -3.78532 1.58986
0.460882 -3.82236 1.68277
-0.0190701 -4.32302 0.152571
0.231984 -4.18655 1.03362
0.241363 -3.94423 -0.349083
0.216468 -4.01473 -0.288512
0.767686 -3.86066 0.0603703
0.47573 -3.93003 -0.203722
0.0575206 -4.28585 0.0724289
-0.122887 -4.35858 0.318519
0.734066 -4.01397 0.610056
0.662628 -4.06403 0.611311
0.0382477 -4.32564 0.672355
0.134437 -4.14121 -0.170435
-0.174494 -4.35619 0.567597
-0.137494 -4.34825 0.233521
0.668043 -4.03792 0.7999
0.510381 -3.85007 1.57643
0.290827 -4.24871 0.712827
0.702064 -4.03585 0.629354
-0.031772 -4.15732 -0.203943
-0.165501 -4.34135 0.680309
0.216999 -4.23673 0.881403
0.0806292 -4.32511 0.621314
0.744615 -3.91549 0.126598
0.0995359 -4.25369 0.932869
-0.105375 -4.35606 0.558546
0.575678 -4.03681 1.02808
0.542216 -3.86171 1.51762
0.451709 -4.05621 1.15785
0.619216 -4.08106 0.723707
0.792067 -3.67704 -0.156961
-0.0843453 -4.33608 0.180609
-0.172831 -4.35619 0.567903
0.429644 -4.07865 1.12388
