ply
format ascii 1.0
comment Created by Open3D
element vertex 200
property double x
property double y
property double z
end_header
-1.13496 -2.26384 -0.12702
-2.00341 -1.45778 0.434989
1.01764 -3.1041 -0.289967
-2.11621 -1.25744 0.381139
-1.46758 -1.67543 -0.288548
-2.33025 -1.41541 0.828166
0.125043 -3.19998 -0.31758
0.137915 -2.52945 -0.810798
0.0586289 -1.87596 -1.37458
-0.29668 -2.87394 -0.415407
-0.539132 -2.50131 -0.589445
-0.232311 -3.66252 0.305484
-0.76617 -2.85882 -0.00141012
-2.11393 -2.10973 1.40233
-1.81187 -1.53077 0.194079
-0.887789 -2.31729 -0.425541
-1.3954 -2.28542 0.352231
0.706214 -1.96874 -1.09552
-2.67336 -1.31334 1.02288
-1.8087 -1.39758 0.0145169
-0.742024 -2.44107 -0.462443
0.326178 -2.63869 -0.731739
-0.967926 -3.09352 0.633846
0.360234 -3.03052 -0.464315
-2.54632 -0.556594 0.142765
0.127787 -2.64157 -0.728059
-0.0599308 -2.37499 -0.914471
0.485704 -3.75952 0.114008
-0.0942266 -2.52187 -0.786797
-1.30453 -2.74005 0.809597
-2.8613 -0.204432 0.0124847
-2.00058 -2.07061 1.16874
-0.741515 -3.356 0.60193
0.139894 -2.08908 -1.15634
0.374084 -1.84758 -1.3016
-1.90261 -1.74444 0.602814
-2.76752 -0.376434 0.170907
0.559422 -2.73948 -0.640304
-2.27459 -1.43775 0.788018
0.0225591 -2.19587 -1.07286
0.27015 -3.13676 -0.385884
-2.8762 -0.573069 0.489778
0.508007 -2.6378 -0.713441
-0.00496894 -2.10642 -1.15393
-2.46388 -1.46936 1.01224
0.730067 -2.48768 -0.761886
-0.0162477 -3.47026 -0.0469686
-1.28444 -2.37619 0.260299
-2.0959 -0.877897 -0.190397
-1.37298 -2.56669 0.68365
0.808466 -3.12189 -0.342497
-0.0161311 -3.35082 -0.152318
-0.831935 -3.31261 0.727067
-2.13372 -0.912181 -0.0440007
-1.88353 -1.66644 0.480835
-0.269494 -2.779 -0.510516
-0.338313 -3.32145 0.0185806
-2.44766 -1.13084 0.670023
-0.879632 -2.34365 -0.406343
-2.04014 -1.36684 0.388621
-2.21146 -0.825216 -0.0255875
-1.95031 -2.25741 1.3971
0.308988 -2.22887 -1.0207
0.459988 -2.99914 -0.481918
0.107043 -2.31854 -0.970687
1.1364 -3.47123 0.0469674
-0.935493 -2.87525 0.264198
0.721462 -3.17102 -0.329383
0.118189 -2.1362 -1.11879
-0.157141 -2.89891 -0.463716
-2.33009 -0.727326 0.0462049
-0.564775 -2.10545 -1.00271
-0.641519 -2.27984 -0.734894
-0.21116 -3.11227 -0.261262
-2.04785 -2.11055 1.30398
-1.29848 -1.98783 -0.18523
-1.50658 -1.52728 -0.443606
-2.70711 -1.04212 0.807286
-1.87433 -2.24867 1.23203
-2.71119 -1.05787 0.823873
-1.11783 -2.83862 0.550275
-1.26478 -2.18305 -0.00499247
-0.348938 -2.4734 -0.73735
0.000957375 -3.36341 -0.148417
-1.82287 -1.73027 0.453143
-1.96199 -1.29154 0.164897
-0.443881 -3.08234 -0.123417
-2.23729 -1.71258 1.03693
-3.00226 -0.40364 0.395427
-1.50444 -1.41217 -0.698875
-0.363801 -2.40254 -0.796209
0.246994 -1.97134 -1.23593
-0.169687 -1.99232 -1.27384
-2.6233 -1.62245 1.27556
-1.04859 -3.11761 0.894955
-2.06922 -1.47295 0.55318
0.871141 -2.92745 -0.45296
-0.160957 -3.81215 0.446455
0.541515 -2.51705 -0.785425
-0.159508 -3.17072 -0.239162
1.02468 -3.97577 0.639232
0.675823 -4.16377 0.853943
0.990762 -4.06014 0.895084
1.46845 -3.5265 1.89181
1.03449 -3.93376 1.57566
1.77146 -3.36751 1.62765
1.44709 -3.59914 1.76506
0.845149 -4.0568 1.44526
0.588717 -4.19014 0.995914
0.793041 -4.09575 1.37076
1.17157 -3.7642 1.80093
1.1229 -3.97659 1.26929
1.33014 -3.63244 1.87493
1.34847 -3.64965 1.81225
1.24893 -3.8193 1.56051
0.6715 -4.15602 0.807718
1.34408 -3.83141 0.859485
1.14062 -3.60798 0.183967
1.52781 -3.68716 1.22852
1.65148 -3.39693 1.84538
1.68354 -3.46147 1.59583
0.715694 -4.09302 0.632999
0.90652 -4.08379 1.26045
0.899375 -4.02836 1.47371
1.16047 -3.67555 0.274778
1.13465 -3.80598 1.755
1.52204 -3.66826 1.36735
0.75992 -3.98996 1.66613
1.54951 -3.67815 1.01474
0.813093 -4.12687 0.851921
0.600215 -4.18837 1.05251
1.09491 -3.6914 2.01028
0.331209 -3.97244 0.377711
1.59677 -3.35642 2.03785
1.14655 -3.54305 0.120898
1.13364 -3.57341 2.17946
1.70362 -3.25397 2.06327
1.37176 -3.73541 0.609009
1.20788 -3.89507 1.40222
1.12509 -3.55948 2.20808
0.994621 -3.68299 0.177564
0.758367 -4.14117 1.21352
1.47166 -3.40607 2.12931
1.83783 -3.16761 1.97955
1.56695 -3.66325 1.08479
1.06285 -3.78484 1.86751
1.42896 -3.77512 1.18254
1.00507 -3.79536 0.314138
0.3463 -4.05917 0.515698
0.971561 -4.05206 1.28177
0.527024 -4.07437 0.530752
1.49169 -3.70527 1.31093
0.644505 -4.18259 1.01183
1.63907 -3.30088 2.08083
0.628827 -4.0764 0.556361
1.04328 -3.78611 1.88125
1.54733 -3.66638 1.25661
0.875586 -3.99477 0.530972
0.551085 -3.95084 0.337181
0.706414 -3.97039 0.400003
0.760927 -4.13278 0.799661
0.857431 -4.02126 1.53255
0.99145 -4.06786 0.988976
0.788394 -4.14466 1.12024
0.887738 -3.73326 0.179259
1.76857 -3.33282 1.73461
1.67583 -3.35216 1.8998
0.595926 -4.1849 0.918534
1.21463 -3.85407 1.52324
0.538376 -3.91923 0.294776
0.554132 -3.97532 0.37135
1.18064 -3.73704 0.371913
0.809761 -3.86861 0.301718
0.620161 -4.16448 0.805989
0.58834 -4.18559 1.11734
1.43054 -3.76737 0.88516
1.37509 -3.81746 0.930174
0.892144 -4.07278 1.33465
0.554264 -4.07471 0.535027
0.660869 -4.13 1.35474
0.534098 -4.19438 1.05007
1.46577 -3.75072 1.08379
1.67215 -3.40133 1.78982
1.12195 -3.98346 1.23186
1.41449 -3.78518 0.921218
0.395474 -4.10131 0.590581
0.72018 -4.09073 1.44387
1.13582 -3.93656 1.40968
0.904892 -4.08249 1.27027
1.19871 -3.77657 0.4496
1.05985 -3.94441 1.51409
0.716851 -4.13037 1.3132
1.49302 -3.70181 1.32351
1.67355 -3.42485 1.72616
1.44873 -3.69507 1.49837
1.39253 -3.81048 1.0504
1.07614 -3.60479 0.141402
0.553896 -4.19292 0.976729
0.662465 -4.1299 1.35418
1.41622 -3.72485 1.48421
