ply
format ascii 1.0
comment Created by Open3D
element vertex 250
property double x
property double y
property double z
end_header
0.919012 -0.794054 2.87075
1.56236 -1.74757 0.79141
-0.285455 -1.18926 2.17589
1.42311 -0.83287 2.75487
-0.0212557 -0.871228 3.00362
0.411357 -1.12433 2.2885
1.17668 -1.50689 1.58809
2.50847 -1.40358 1.48345
1.50177 -1.80915 0.565805
2.6287 -1.22544 0.4888
-0.561687 -1.23903 2.10543
2.08241 -1.35431 1.85066
-0.243777 -0.93698 2.9128
3.49142 -0.671288 0.715076
0.703321 -1.01341 2.50321
2.66013 -1.06393 2.29068
3.22785 -1.09586 1.87721
0.667311 -0.974944 2.57698
1.15737 -1.60919 1.37981
3.07218 -1.16582 1.85491
2.11624 -1.54206 1.14428
2.37664 -1.42112 1.53353
0.000882405 -1.19331 2.151
1.22867 -1.90423 0.66743
2.52306 -1.17005 0.239889
1.09829 -1.44405 1.71404
-0.161952 -1.03514 2.53347
1.77428 -1.14101 2.28672
1.18161 -1.41783 1.76588
2.09167 -1.33244 -0.00386526
3.09508 -1.20028 1.65274
3.42319 -1.00972 1.33265
1.35884 -1.87306 0.581564
-0.4929 -1.05217 2.60195
2.0655 -1.48708 0.319492
-0.647092 -1.46801 1.71596
0.58555 -0.612479 3.30257
3.46643 -0.6852 0.693225
1.90697 -1.51933 1.43391
0.566168 -0.832833 2.86662
0.924641 -0.83769 2.79919
2.84478 -1.2565 0.913114
0.645678 -1.47829 1.64739
-1.00941 -1.16055 2.58524
0.0554214 -0.817148 3.15306
2.07608 -1.47034 0.28809
-1.29456 -1.26613 2.44916
2.25629 -1.23463 0.0292204
0.701046 -1.29552 1.97699
1.89113 -1.42338 1.71344
2.70293 -1.33615 0.962454
-0.727946 -1.2185 2.1907
2.50251 -1.43108 1.11113
2.64966 -1.27375 0.63921
1.51653 -1.68972 1.06609
2.64993 -1.22971 0.527852
1.25234 -1.92642 0.573543
1.3968 -1.40073 1.80033
1.20953 -1.00265 2.51585
-0.136217 -0.948644 2.7906
3.23354 -0.954563 0.776339
2.94912 -0.960397 0.393586
1.75316 -1.53352 -0.119108
2.74724 -1.02639 0.257507
-0.0126725 -0.914652 2.84375
-1.29663 -1.38456 2.05758
2.01449 -1.39684 1.75841
2.81213 -1.29757 1.64718
2.07493 -1.00183 2.47864
-1.20705 -1.35546 2.06849
2.30549 -1.42556 1.56674
-0.563311 -1.46966 1.70246
1.65038 -0.852432 2.70884
3.43402 -1.00919 1.3744
-0.889465 -1.32952 1.99336
1.05392 -0.945772 2.61229
2.16886 -1.5178 0.672596
2.9216 -0.948979 0.340868
0.94774 -1.16858 2.22342
2.86202 -1.19039 0.739313
2.99143 -1.23983 1.17956
-0.319651 -1.08891 2.42266
3.46157 -1.004 1.5036
2.06499 -1.57151 0.954504
2.09348 -0.910531 2.59319
2.91897 -1.22118 1.83627
1.08003 -0.732351 2.93609
3.33714 -0.902012 0.841967
3.45294 -0.87022 0.989301
-0.960469 -1.25225 2.19315
1.39325 -0.970192 2.56244
1.37615 -1.06348 2.41661
1.0744 -1.63801 1.33316
1.66168 -0.885342 2.66608
-0.493902 -1.21876 2.13812
1.99204 -1.56119 0.444254
3.41494 -1.03884 1.57781
1.75459 -1.69229 0.630359
-0.872079 -1.32259 2.0021
-0.76952 -1.35372 1.91907
2.47522 -1.29728 0.445027
0.654071 -1.45116 1.69485
-0.583268 -1.42828 1.76639
0.849426 -1.85082 0.999383
1.82714 -1.39678 -0.259995
-0.785362 -1.15237 2.40358
1.81434 -1.5709 0.0884741
-0.188057 -1.20219 2.14073
2.02412 -1.56758 0.568049
0.749853 -1.53983 1.53941
3.16603 -1.13532 1.83307
1.7907 -1.64231 0.287253
0.345883 -0.687463 3.31346
0.245292 -1.68063 1.35019
-0.943702 -1.19108 2.36969
-0.584121 -1.04415 2.70593
0.0443719 -0.848395 3.03879
1.17421 -1.92807 0.664996
-0.114594 -1.08044 2.40777
2.42271 -1.14694 0.0779411
-0.77506 -1.10989 2.56523
3.08141 -1.0569 2.11579
1.40438 -1.76517 0.906238
1.51246 -1.54827 1.46247
0.473033 -1.0009 2.53576
1.72889 -0.864258 2.68691
-0.31904 -0.985234 2.75948
2.54203 -1.10044 2.26446
0.682966 -1.031 2.4704
2.89515 -1.15675 2.02846
0.383189 -1.23092 2.08193
0.748775 -1.52211 1.5705
-0.110442 -1.24098 2.05938
0.0530348 -1.4176 1.74527
2.01201 -1.14941 2.26152
1.61752 -0.944812 2.5894
1.63903 -1.33932 1.92249
1.68112 -1.66338 1.03296
2.78572 -1.08211 2.22138
0.663098 -0.897026 2.72536
1.62664 -1.71237 0.0968393
-0.276343 -0.967089 2.80504
2.31815 -1.18363 2.16783
1.44804 -1.12623 2.31332
2.67788 -1.10442 2.22112
1.78739 -1.39408 -0.323298
-0.433129 -1.24191 2.08063
1.13479 -1.45866 1.68541
-0.585275 -1.0123 2.93907
2.47799 -1.17282 2.15568
1.31946 -1.23989 2.10975
2.89175 -1.29346 1.48872
1.04584 -0.976481 2.56172
1.89391 -1.47079 -0.0146374
2.6514 -1.27363 1.87207
2.53117 -1.25671 0.427152
1.72378 -1.36093 1.87421
0.804965 -1.61269 1.40942
1.87928 -1.63628 0.84843
-0.805652 -1.16634 2.36802
1.75793 -1.33668 1.9236
0.991024 -0.743188 2.93689
0.77141 -1.48337 1.63906
3.3981 -0.949306 1.0606
2.52809 -1.30883 1.83488
2.31334 -1.39445 1.67292
3.42326 -1.0147 1.35983
0.285115 -1.64945 1.38955
-0.35657 -1.48123 1.66517
0.139071 -1.03312 2.49081
1.0772 -0.786578 2.85842
3.21011 -1.09328 1.07734
1.46826 -0.977866 2.54848
-0.892559 -1.11147 2.7358
0.948448 -1.73632 1.16898
0.625411 -1.81102 1.11866
2.29503 -1.20621 0.0268027
2.47465 -1.22715 2.05045
1.21848 -0.977258 2.55638
1.81601 -1.50027 1.52331
1.13225 -0.82778 2.79083
0.800222 -1.02238 2.48532
0.559534 -1.35913 1.85486
0.92385 -1.2737 2.02917
3.12697 -1.18988 1.31289
0.397277 -0.592841 3.53612
3.47888 -0.993942 1.56969
-0.595996 -1.37731 1.84948
2.22295 -1.51724 0.868635
0.635272 -0.795023 2.92506
0.813453 -0.635834 3.14884
2.0842 -1.54771 0.620547
1.02154 -0.703498 2.98859
2.94331 -1.25882 1.15298
2.10922 -1.52331 1.28051
-0.510353 -1.52791 1.61565
0.174596 -0.90394 2.80284
3.24967 -1.05945 1.9558
1.2712 -1.82524 0.839881
-0.0683085 -1.00235 2.60155
3.90602 -0.35639 1.84325
3.93817 -0.172915 1.25817
3.88926 -0.477133 1.62659
3.56993 -0.893179 1.363
3.89633 -0.316186 1.92295
3.63447 -0.795681 1.25601
3.95534 -0.240331 1.53906
3.82347 -0.578509 1.40415
3.72427 1.31428 1.30801
3.89991 -0.118322 1.99867
3.5803 -0.896294 1.42744
3.80788 -0.605753 1.83636
3.82445 0.94548 1.5322
3.66498 -0.809198 1.80689
3.86392 -0.527322 1.52122
3.97672 0.156329 1.43451
3.60886 -0.844801 1.88239
3.79182 1.08635 1.4041
3.94922 0.256217 1.15822
3.87442 0.753276 1.55934
3.61539 -0.875142 1.70738
3.82614 0.977325 1.32769
3.92131 -0.259537 1.86921
3.72961 -0.637971 1.17483
3.94792 0.0294464 1.16673
3.95104 0.373334 1.58973
3.90797 -0.276505 1.22502
3.90994 -0.290384 1.89252
3.79448 0.990313 1.66483
3.97397 0.076583 1.6556
3.85148 -0.251197 2.07933
3.88978 -0.469429 1.53552
3.68235 -0.608446 0.99786
3.95529 -0.163295 1.36349
3.93968 -0.080391 1.18458
3.89984 0.422537 1.85561
3.86522 0.149908 2.07463
3.94162 0.214196 1.81053
3.94883 0.383962 1.5969
3.95139 0.0320615 1.1863
3.97615 0.0148702 1.40776
3.93842 0.444943 1.21784
3.67454 0.77455 2.20241
3.73605 1.1224 1.75849
3.82516 0.916501 1.60216
3.94469 0.45292 1.36533
3.81024 0.829768 1.82008
3.70888 -0.693195 1.97639
3.95185 0.400949 1.50033
3.93056 0.512379 1.24718
