ply
format ascii 1.0
comment Created by Open3D
element vertex 200
property double x
property double y
property double z
end_header
1.47218 -1.23175 -1.65673
1.15158 -0.0988641 -2.2343
0.866571 -3.12762 -0.471315
1.17622 0.132093 -2.19176
1.54788 -0.552542 -1.53065
0.981034 0.104866 -2.67318
1.35489 -2.7055 -1.09585
1.49793 -2.13977 -0.502107
1.74791 -1.53386 0.0649646
1.51824 -2.19574 -1.18059
1.63871 -1.74512 -1.07883
1.19942 -2.91086 -1.91041
1.40998 -1.93535 -1.73962
0.671377 -0.612034 -3.17189
1.27737 -0.25772 -1.99141
1.60986 -1.40349 -1.33329
1.22421 -1.12132 -2.13033
1.24629 -1.98399 0.292148
0.954739 0.374448 -2.97763
1.37047 -0.142664 -1.82381
1.61375 -1.58624 -1.26607
1.38363 -2.33861 -0.470076
1.08681 -2.0399 -2.35927
1.29651 -2.69174 -0.776531
1.31942 0.961813 -2.03666
1.47766 -2.22991 -0.606913
1.62004 -1.89724 -0.506344
1.04005 -3.38654 -1.35369
1.58828 -2.00425 -0.669417
0.981151 -1.56529 -2.54014
1.44753 1.43455 -2.01885
0.788413 -0.634569 -2.93793
1.09812 -2.38278 -2.30029
1.61222 -1.7638 -0.10347
1.52697 -1.68994 0.245165
1.07331 -0.398728 -2.39069
1.33849 1.23382 -2.12514
1.23467 -2.55614 -0.411651
0.99422 0.0566588 -2.6211
1.64124 -1.78945 -0.278512
1.31618 -2.73202 -0.929969
1.20849 1.12028 -2.47494
1.28083 -2.44049 -0.358489
1.68663 -1.69702 -0.209749
0.918622 0.128338 -2.89724
1.15754 -2.43901 -0.115615
1.30584 -2.85989 -1.47002
1.27676 -1.25522 -2.03915
1.48374 0.455831 -1.67047
1.05158 -1.37884 -2.43584
1.01599 -3.02313 -0.587868
1.34631 -2.75726 -1.35516
1.02641 -2.30084 -2.41802
1.39788 0.443258 -1.79895
1.13291 -0.340389 -2.27081
1.54637 -2.12892 -1.06421
1.35527 -2.55866 -1.66233
1.06038 0.411951 -2.53469
1.6002 -1.43057 -1.35069
1.17323 -0.00133468 -2.19203
1.38921 0.558101 -1.82506
0.650089 -0.825734 -3.12202
1.47322 -1.97926 -0.13157
1.25091 -2.72105 -0.685391
1.56359 -1.94208 -0.33596
0.674166 -3.51038 -0.752191
1.28625 -1.86384 -2.02081
1.06545 -3.01548 -0.675335
1.60992 -1.792 -0.160924
1.49833 -2.29283 -1.06832
1.35381 0.70293 -1.90619
1.83646 -1.38797 -0.676963
1.72359 -1.49912 -0.964951
1.4407 -2.44654 -1.31828
0.718059 -0.646116 -3.06845
1.49732 -0.909595 -1.61322
1.63642 -0.402382 -1.39979
1.04425 0.625721 -2.75394
0.741658 -0.85499 -2.96757
1.03873 0.61436 -2.77345
1.13324 -1.7419 -2.30036
1.40839 -1.09665 -1.78302
1.65442 -1.82318 -0.849729
1.33951 -2.7774 -1.35143
1.14882 -0.426172 -2.24067
1.28628 0.0254222 -1.97218
1.43255 -2.29642 -1.54511
0.877773 -0.200813 -2.86406
1.28303 1.3346 -2.43012
1.79688 -0.298903 -1.19494
1.68275 -1.75405 -0.793824
1.58106 -1.7235 0.0670414
1.82031 -1.50585 -0.199214
0.841575 0.0813263 -3.22897
0.92659 -2.02427 -2.58142
1.09477 -0.0788985 -2.35638
1.00304 -2.89333 -0.39572
1.107 -3.07985 -2.01166
1.27811 -2.35672 -0.240761
1.41936 -2.52467 -1.32195
0.439734 -3.88704 -1.40103
0.50566 -3.85493 -1.84574
0.283 -3.94729 -1.61441
-0.935621 -3.81054 -1.6661
-0.326096 -3.89245 -1.94161
-0.929467 -3.83911 -1.23481
-0.797959 -3.85396 -1.6351
-0.0860174 -3.88326 -2.04294
0.444273 -3.83317 -2.00129
0.0126602 -3.88351 -2.0497
-0.633379 -3.83737 -1.91273
-0.109263 -3.96611 -1.71562
-0.816833 -3.82001 -1.79431
-0.769525 -3.84221 -1.75153
-0.459275 -3.91742 -1.73923
0.54175 -3.84439 -1.81742
0.0574698 -3.95484 -1.25735
0.612686 -3.63094 -0.890655
-0.377674 -3.95218 -1.29472
-1.0342 -3.80425 -1.45949
-0.827492 -3.86638 -1.31498
0.636658 -3.81058 -1.65525
0.0413188 -3.93315 -1.9017
-0.145221 -3.89118 -2.01147
0.555308 -3.70132 -0.961083
-0.563773 -3.84953 -1.92774
-0.492322 -3.93844 -1.37429
-0.245008 -3.78836 -2.2049
-0.221166 -3.94897 -1.14725
0.427506 -3.90129 -1.73641
0.392997 -3.84024 -2.02696
-0.789507 -3.74191 -2.05942
0.982053 -3.48583 -1.70799
-1.17576 -3.74718 -1.59508
0.636465 -3.57822 -0.820772
-0.985839 -3.67229 -2.08492
-1.28487 -3.72328 -1.49467
0.208705 -3.88167 -1.04641
-0.285834 -3.95123 -1.70377
-1.00955 -3.65703 -2.10197
0.715612 -3.6109 -1.0171
0.171156 -3.89582 -1.99758
-1.17008 -3.7215 -1.75567
-1.31444 -3.72398 -1.31689
-0.290807 -3.94902 -1.17142
-0.62635 -3.79595 -2.03485
-0.261314 -3.96782 -1.37113
0.642605 -3.71478 -1.14067
0.896362 -3.57114 -1.8183
-0.0186338 -3.94415 -1.85724
0.802526 -3.68559 -1.71239
-0.419273 -3.94996 -1.37651
0.401886 -3.85879 -1.97015
-1.25061 -3.72654 -1.56877
0.733655 -3.7453 -1.66028
-0.62738 -3.78654 -2.05685
-0.417031 -3.94696 -1.28965
0.604934 -3.81516 -1.44406
0.900196 -3.58973 -1.52644
0.782172 -3.69531 -1.46831
0.496494 -3.87499 -1.74247
-0.174387 -3.86397 -2.07213
0.210691 -3.95754 -1.67393
0.232199 -3.91209 -1.92259
0.784192 -3.59263 -1.11153
-1.02586 -3.81275 -1.28643
-1.10557 -3.78287 -1.45677
0.500513 -3.83001 -1.94749
-0.40038 -3.92557 -1.7547
0.928629 -3.55488 -1.49584
0.8804 -3.61295 -1.55551
0.490527 -3.7671 -1.0325
0.773522 -3.66542 -1.29588
0.571019 -3.82254 -1.85452
0.346094 -3.83369 -2.07288
-0.0280419 -3.95128 -1.18727
-0.0188903 -3.9633 -1.27319
-0.0148328 -3.91873 -1.95143
0.786078 -3.70131 -1.69681
0.101759 -3.83715 -2.14357
0.429086 -3.80806 -2.07251
-0.209323 -3.96461 -1.27633
-0.998337 -3.81742 -1.41395
-0.0764977 -3.96987 -1.69661
-0.0425324 -3.95836 -1.22745
0.828256 -3.63634 -1.84849
-0.0121709 -3.84122 -2.14066
-0.241865 -3.94543 -1.77451
0.0338094 -3.93152 -1.90817
0.43428 -3.8128 -1.08419
-0.285448 -3.91319 -1.89196
0.107914 -3.8673 -2.08102
-0.431187 -3.9483 -1.38172
-0.939764 -3.8353 -1.38466
-0.551498 -3.92437 -1.51416
-0.125615 -3.97175 -1.33103
0.676603 -3.59058 -0.906953
0.477394 -3.81523 -2.01431
0.101391 -3.83794 -2.14212
-0.513681 -3.93026 -1.54023
