ply
format ascii 1.0
comment Created by Open3D
element vertex 400
property double x
property double y
property double z
end_header
-2.66583 0.47128 1.59418
-2.97377 -0.47642 1.60591
-2.26699 0.0954594 1.70055
-0.88391 -1.62548 2.11856
-2.66014 0.474172 1.59594
-0.663417 0.450102 2.05138
-1.75367 0.527332 1.79035
-1.68494 -0.658465 1.82921
-1.79797 -0.641332 1.81441
-1.31157 -1.32943 1.97249
-2.61998 -0.931316 1.82728
-1.75483 -1.29218 1.94523
-2.46072 -1.04631 1.87631
-1.82385 0.994687 1.76825
-2.63094 0.81948 1.6039
-1.6631 0.598361 1.80477
-1.01382 0.0719764 1.94475
-1.79266 0.351043 1.78415
-2.41014 -1.07787 1.8883
-2.94569 -0.808499 1.74694
-2.6854 -0.256701 1.63561
-1.13735 0.0288782 1.91239
-1.90275 -1.123 1.89475
-2.85129 1.37253 1.5203
-2.70937 0.953951 1.5784
-2.38732 -0.357987 1.70847
-2.33886 -1.12401 1.90503
-2.61724 0.811455 1.60809
-1.03853 -0.770845 1.94895
-1.71667 -0.00956008 1.79791
-1.06006 -1.7318 2.12532
-1.7847 -1.30079 1.94854
-1.67214 0.639161 1.80265
-0.748205 -1.32816 2.08904
-1.77503 0.246929 1.78718
-1.83585 -1.13337 1.89832
-2.93107 -0.0793657 1.53453
-1.34549 -1.4013 1.98809
-1.86535 -0.948626 1.85409
-1.77221 -0.129839 1.79035
-0.956204 -1.44226 2.05269
-2.3634 0.801909 1.67493
-0.697834 -0.565707 2.0553
-2.43761 0.258165 1.66001
-0.795967 -0.581249 2.01718
-0.9969 0.617736 1.93301
-2.29461 -0.366232 1.724
-2.74603 0.315447 1.57122
-1.02898 -1.75934 2.14078
-2.60497 -0.514463 1.69827
-1.55011 0.70449 1.82099
-2.85017 0.044081 1.55065
-2.29621 1.29628 1.67757
-2.39833 0.786762 1.66682
-2.64804 -0.971756 1.84497
-1.52411 -1.14319 1.91389
-1.23342 -1.45074 2.01131
-1.77011 -0.784542 1.834
-2.48794 0.163349 1.65037
-2.48008 0.966565 1.64583
-1.04046 -1.7501 2.13538
-2.0871 -0.97609 1.85198
-2.16225 -1.23841 1.9431
-1.42464 0.809623 1.83672
-1.8396 0.741861 1.77375
-0.655595 0.15405 2.0688
-1.75341 0.97305 1.77937
-1.788 0.131487 1.78513
-2.57567 -0.977257 1.84774
-2.08773 -0.988507 1.85531
-1.11392 -1.82829 2.16367
-1.59383 0.283309 1.81863
-1.97547 -1.20322 1.9204
-1.11659 -1.20045 1.97422
-2.36011 0.661279 1.67586
-1.6327 0.133728 1.81182
-1.75632 -0.936209 1.85846
-2.64231 -0.165774 1.63457
-0.921784 -1.5064 2.07597
-1.13475 0.709483 1.89535
-2.79529 1.40006 1.54073
-2.20229 1.30392 1.69381
-1.85418 0.0236244 1.77471
-2.51917 1.47827 1.6191
-0.787382 -0.510241 2.01949
-1.9013 0.726418 1.76387
-0.966418 -1.34432 2.02982
-0.872687 -1.07084 2.01592
-1.58799 -1.1957 1.92156
-1.63152 -0.186316 1.81423
-2.46291 0.686282 1.65098
-1.21114 -0.951002 1.925
-2.90318 1.21646 1.50207
-1.35787 0.168348 1.86313
-1.76428 -1.09498 1.8905
-1.77108 -0.714878 1.82527
-1.91908 0.602215 1.76196
-1.51507 -0.169861 1.83399
-2.81738 1.41752 1.53185
-2.18562 -1.22454 1.93882
-0.709277 -1.20292 2.08546
-0.752009 -0.271076 2.03221
-2.80022 -0.000636396 1.57208
-0.856091 -0.285516 1.99411
-2.16708 -1.03214 1.86721
-1.0567 -1.01577 1.96269
-1.12081 -0.719022 1.92668
-2.58228 1.05394 1.6174
-1.73628 -1.3046 1.94903
-0.921163 -1.97517 2.26655
-2.57059 0.0237588 1.63637
-2.69632 -0.86057 1.79411
-1.41471 -0.405229 1.85615
-2.78796 0.836026 1.55042
-2.06904 0.835532 1.73372
-2.02954 0.635166 1.74246
-2.05441 -0.54694 1.77562
-2.34759 -0.00635689 1.68804
-1.54995 -0.816616 1.86122
-1.59778 -0.999573 1.88145
-2.0688 0.957578 1.73136
-2.29526 -1.2092 1.94016
-2.50323 1.09061 1.63839
-2.83535 0.363432 1.53736
-1.97575 -0.86197 1.83068
-2.38987 -0.996922 1.85555
-1.30249 -0.605524 1.88381
-2.70776 0.232942 1.58679
-1.16324 -0.618782 1.91291
-2.01112 -0.319718 1.76141
-2.50465 -0.913921 1.82333
-1.03592 0.304388 1.93603
-2.48366 -0.505263 1.71547
-1.34479 -0.950896 1.9033
-1.6397 -0.456353 1.82144
-2.81034 0.188981 1.55434
-0.725944 -0.571597 2.04384
-1.69127 -0.779373 1.84117
-0.769889 -0.371401 2.02537
-1.68964 0.753337 1.79734
-1.20209 -1.47298 2.0208
-2.63516 1.29509 1.59709
-2.65646 -0.947544 1.83369
-2.87977 -0.82776 1.76436
-2.72357 1.09143 1.57284
-0.785974 -0.818306 2.02729
-1.84649 -0.934767 1.85241
-1.06743 -1.80963 2.15873
-1.48017 -1.2243 1.93445
-2.55693 0.633638 1.62579
-0.939711 -0.83988 1.97906
-2.38995 -0.548298 1.73612
-2.10801 0.0723017 1.73076
-2.52443 -0.713202 1.75759
-2.1164 1.24495 1.71141
-1.56266 -0.523139 1.83627
-1.73943 -1.30672 1.94975
-1.35776 -0.903718 1.89613
-0.670664 0.184053 2.06149
-1.09724 -1.02209 1.95453
-1.07592 -0.473465 1.9301
-1.46065 -0.755621 1.86706
-2.91455 -0.782958 1.73858
-1.71791 -1.47514 2.0111
-2.67434 0.67255 1.59023
-0.78162 -1.48742 2.10927
-2.19011 -1.03974 1.86967
-1.17811 0.0336866 1.90253
-0.671501 -0.545646 2.06634
-2.39874 -0.407817 1.713
-2.67019 -0.687994 1.73396
-1.70824 -1.50742 2.02418
-0.983654 0.0679812 1.95337
-1.26505 -1.40334 1.99541
-0.795865 -0.714298 2.02006
-1.50102 -1.25704 1.94086
-0.781439 -0.341151 2.02094
-2.37039 -0.551861 1.73922
-1.5672 -1.04732 1.89226
-1.66462 0.740864 1.80162
-2.46563 0.443547 1.65084
-2.73652 -0.429666 1.65464
-2.40592 -0.100586 1.68147
-1.38817 -1.42145 1.99119
-2.88948 0.597003 1.51053
-2.37514 0.212719 1.67525
-2.36675 0.530358 1.67437
-1.29777 -0.232136 1.87626
-1.29184 -1.24677 1.95648
-2.33784 1.14882 1.67552
-2.16152 -1.30731 1.974
-2.02922 -0.115534 1.74901
-2.238 0.806413 1.70198
-1.83289 1.09569 1.76137
-0.68168 -1.14238 2.08953
-1.60061 0.0276691 1.81762
-2.25446 0.725251 1.69892
-2.41426 0.314521 1.66462
-1.43191 -0.762572 1.87183
-2.77962 0.329377 1.55909
-2.12215 0.29789 1.72577
-2.33197 0.928028 1.68116
-0.74228 -1.34788 2.09441
-0.832113 -1.07788 2.02912
-2.79177 0.818172 1.54898
-0.709121 -0.885446 2.05947
-1.65358 -0.562058 1.82563
-1.17009 0.0883035 1.90437
-2.82376 0.417349 1.54028
-2.8127 0.249149 1.55035
-1.24128 -1.15941 1.94725
-1.31417 -1.73761 2.11266
-1.15183 0.00318905 1.90886
-1.61185 -0.0626779 1.81611
-1.42088 -0.630478 1.86429
-2.37258 -0.300909 1.70455
-0.93271 -0.606683 1.97237
-1.89991 -1.17829 1.91098
-2.54505 0.601536 1.62917
-2.62853 -0.0927158 1.63057
-2.34791 1.27561 1.6685
-1.04151 -0.311191 1.93764
-1.16576 -0.407421 1.90718
-0.882095 -1.98336 2.27865
-1.45689 0.21711 1.84371
-2.73623 -0.0336017 1.59533
-1.00885 -0.0770534 1.94646
-1.15478 0.0384525 1.90812
-1.05801 -0.556486 1.93632
-2.76936 1.44256 1.54823
-0.863481 0.327949 1.98559
-2.91041 -0.341808 1.5892
-2.67244 -0.351114 1.65359
-0.959456 -0.0881621 1.9609
-1.44451 0.0663973 1.84611
-1.80655 0.425388 1.78172
-2.34356 0.232596 1.68182
-1.28581 0.488872 1.8744
-2.45033 -0.312619 1.69222
-2.7859 0.502626 1.55284
-1.00994 -0.740122 1.95489
-2.02386 -0.507865 1.77497
-0.876787 -1.66307 2.13245
-1.22612 -0.580959 1.898
-1.16811 -0.419569 1.90681
-1.5108 0.357336 1.83333
-1.56188 -0.162041 1.82568
-1.47977 -1.66162 2.08052
-2.8286 0.9245 1.5347
-1.93263 -0.828163 1.82729
-1.99038 -0.0827103 1.75431
-2.70073 -0.944122 1.83122
-0.784903 -1.29887 2.07194
-1.0378 -0.723858 1.94695
-1.80921 -0.913186 1.85075
-1.30296 -1.2682 1.95964
-2.1988 1.12716 1.70328
-2.42252 -0.724084 1.76987
-2.38393 0.155535 1.67465
-1.47703 -1.16835 1.92263
-1.47924 0.475925 1.83802
-1.25615 0.10229 1.88465
-2.44774 -0.564193 1.73161
-0.689038 0.168044 2.05419
-2.74135 -0.116835 1.60252
-1.99694 -1.26767 1.94462
-2.7577 -0.725697 1.73555
-1.00713 0.510128 1.93668
-2.54204 -0.372575 1.68352
-2.87346 1.14331 1.51557
-2.08131 -1.26776 1.94979
-1.7396 -0.466203 1.80781
-2.91452 0.538978 1.50047
-2.79637 1.43676 1.53884
-2.8865 -0.550617 1.65259
-1.99922 -0.596282 1.78753
-1.55999 0.766716 1.81727
-2.28971 0.381314 1.69189
-1.86011 -0.934795 1.85163
-1.25289 0.445025 1.88215
-2.48967 -0.800883 1.78595
-1.4782 0.191527 1.83972
-2.72831 0.536949 1.57291
-1.04523 0.137582 1.93574
-2.17345 1.17061 1.70598
-2.32398 0.358977 1.68463
-0.958899 -1.02406 1.9873
-2.45133 -0.0934866 1.67162
-2.17827 1.06511 1.70912
-1.35173 -0.509492 1.87084
-1.51844 -0.177038 1.83347
-1.53727 0.585223 1.8261
-1.78308 -0.581864 1.81058
-1.60764 -1.18618 1.91837
-1.63366 0.975185 1.79596
-0.829675 -0.914664 2.01718
-1.40039 -1.18121 1.93195
-1.52592 -1.15847 1.91693
-2.34905 -0.773822 1.78812
-2.09435 -0.638114 1.78326
-1.96487 0.459061 1.75428
-1.81143 -0.436391 1.79622
-2.92097 -0.803528 1.74767
-2.5955 -0.791698 1.77525
-2.83248 0.228466 1.54408
-0.737305 -1.36824 2.09972
-2.6863 0.779182 1.58625
-1.42514 -0.209198 1.85083
-0.860909 -0.378366 1.99266
-1.52002 -0.65068 1.85038
-2.60013 0.321295 1.61645
-0.856823 -0.533187 1.99524
-2.55997 0.246208 1.62944
-0.686492 -0.485542 2.05947
-2.71931 -0.429652 1.65839
-1.99852 -0.192878 1.75677
-0.787797 -1.15601 2.05179
-2.73989 -0.789365 1.76172
-0.849893 -1.07999 2.02375
-0.931835 0.35361 1.96374
-2.23757 -0.355151 1.73143
-0.820064 -0.739436 2.01232
-2.64336 -0.826976 1.78426
-2.90276 0.575168 1.50507
-2.57286 -0.400901 1.6823
-2.70666 -1.00235 1.86012
-2.44594 0.209417 1.65912
-0.761246 -0.658903 2.03146
-1.30572 0.632252 1.86592
-1.41103 -0.984229 1.89854
-1.97053 0.899298 1.74921
-2.44142 1.09881 1.65359
-2.53774 0.586319 1.63122
-1.70315 -0.947884 1.86434
-1.75266 -1.34812 1.96401
-2.52948 -0.222067 1.66651
-0.708147 -0.398985 2.05002
-2.00327 -1.24992 1.9382
-1.55125 -0.369492 1.83173
-1.24565 0.475494 1.88294
-0.950242 -0.441079 1.96456
-1.99296 -0.340649 1.76531
-0.875386 -1.15437 2.02419
-2.09716 0.135559 1.73171
-1.96451 -0.940813 1.84762
-2.13929 0.234059 1.72292
-0.706327 -0.891683 2.0609
-1.62042 -0.330714 1.81942
-2.15478 -0.270772 1.73699
-1.32053 -0.418381 1.87423
-1.41213 0.803372 1.83909
-1.04969 -1.00504 1.96321
-1.74741 -0.772309 1.8346
-2.35129 -0.000537401 1.68703
-0.826833 -1.42107 2.08106
-0.833889 0.518295 1.98551
-0.797101 -1.48466 2.10385
-0.781862 -1.13942 2.05197
-2.83549 0.483449 1.53431
-0.866367 -1.87714 2.22299
-2.39118 1.22098 1.66168
-2.27939 -0.290727 1.719
-0.67194 0.280983 2.05753
-1.54955 -0.0663125 1.82703
-1.00598 0.12211 1.94665
-2.26104 -0.663676 1.77142
-0.768558 -0.0706824 2.02558
-0.917661 0.300902 1.96954
-1.5837 0.718611 1.81513
-0.931714 0.0866277 1.96876
-1.17314 0.416472 1.90008
-2.49634 0.377206 1.64363
-0.65831 0.499034 2.04957
-1.13299 -1.06646 1.95239
-2.62319 0.0389474 1.62171
-2.81991 1.23512 1.53596
-2.85498 -0.811292 1.7592
-1.25927 0.408347 1.88156
-0.945067 0.476965 1.95494
-2.2496 0.100126 1.70384
-2.74667 1.38401 1.55853
-2.51148 -0.912783 1.82271
-0.781369 0.502194 2.0038
-2.72237 -0.268877 1.62822
-1.10945 -1.00742 1.95045
-2.75471 0.874076 1.56266
-1.5324 -0.903385 1.8736
-1.52519 0.432643 1.83026
-0.765421 -0.87822 2.03755
-2.5538 0.118129 1.63566
-2.75065 0.755819 1.56414
-1.31585 0.554336 1.86672
-0.858908 -0.353872 1.99326
-1.84116 0.939879 1.76809
-2.73409 0.736303 1.57002
-2.34059 -0.238592 1.70419
-1.00209 0.628066 1.93101
-1.95917 1.1879 1.73814
-1.97202 0.665239 1.75245
-1.71642 -1.49023 2.01735
