ply
format ascii 1.0
comment Created by Open3D
element vertex 400
property double x
property double y
property double z
end_header
-1.73009 -1.07069 -2.05907
-0.118985 -0.80089 -2.65908
-0.615664 -0.741684 -2.82793
-1.94598 -0.804624 -2.46114
-0.202565 -0.740348 -2.86535
-1.54059 -1.60988 -1.29045
-0.25086 -0.751266 -2.80805
-0.511139 -1.16226 -1.9524
-0.0782272 -1.14503 -2.03781
-1.47618 -1.2266 -1.8384
-1.0788 -1.50324 -1.44908
-1.55367 -1.01347 -2.16219
0.476795 -0.798217 -2.98925
-1.07666 -0.804115 -2.60924
-0.192298 -0.736685 -2.88636
-0.417257 -0.718244 -2.97322
-1.97045 -0.83276 -2.40134
-2.31454 -1.20319 -1.79262
-0.308489 -0.793239 -2.65699
0.450745 -0.914409 -2.58662
-1.77402 -1.08843 -2.02857
-0.618619 -1.51281 -1.47249
-0.893267 -0.816715 -2.5773
-0.484085 -1.3125 -1.7485
-0.670564 -1.12334 -2.00072
-1.24584 -0.947544 -2.2895
0.17141 -0.853655 -2.59552
-0.304289 -0.820322 -2.58288
-0.218298 -1.5284 -1.53624
-0.229824 -1.05865 -2.13628
-1.22013 -0.997021 -2.20103
-1.88523 -0.680421 -2.78867
-0.429864 -1.26665 -1.81585
-1.67554 -0.896519 -2.35279
-2.53105 -1.22743 -1.71029
-1.49463 -1.40767 -1.58002
0.131635 -1.14973 -2.08635
-0.14123 -0.94934 -2.32956
-0.737972 -1.38437 -1.62879
-1.68418 -1.63229 -1.25727
-0.624382 -1.38967 -1.63156
-0.559788 -0.756152 -2.76817
-0.334702 -0.749222 -2.80723
-1.78923 -1.04769 -2.08822
-2.62555 -1.57509 -1.27243
-1.12632 -1.35901 -1.64969
-0.84973 -0.920059 -2.34459
-0.664532 -0.734507 -2.86239
-1.53422 -1.17721 -1.90975
-0.911157 -1.60907 -1.31213
0.135425 -1.05455 -2.2199
-0.96525 -0.941279 -2.30342
-1.03122 -1.02683 -2.15059
-1.70679 -0.991972 -2.18448
-1.36996 -0.736027 -2.80606
-1.1935 -0.732131 -2.85373
-1.55433 -0.760875 -2.67918
-1.66331 -1.72106 -1.12195
-1.8471 -1.12185 -1.97282
-1.49968 -1.31121 -1.71659
-2.2682 -1.44456 -1.49544
-1.84163 -0.722069 -2.6876
-1.27918 -1.12362 -1.99406
-1.57232 -0.987786 -2.20358
-1.59651 -1.38596 -1.61021
-1.49138 -0.782916 -2.63027
-0.719 -1.40901 -1.59729
-2.33168 -1.37508 -1.57572
-0.51611 -1.33174 -1.71941
-2.28368 -1.33552 -1.63302
-1.00501 -0.958073 -2.27192
-1.49004 -1.67672 -1.19087
0.0311056 -0.919755 -2.41704
0.220193 -1.09759 -2.18572
-1.77756 -1.52073 -1.41858
-1.31607 -0.763428 -2.71524
-1.04421 -1.76041 -1.08351
-0.763718 -1.68467 -1.22662
-0.435677 -1.1159 -2.02663
0.0219627 -1.11874 -2.09731
-1.54832 -1.52725 -1.41025
-0.396107 -1.0079 -2.19936
-1.9356 -1.0673 -2.04065
-1.03286 -1.36056 -1.64882
-1.6936 -1.79013 -1.01033
-0.739068 -1.26712 -1.78916
-0.0843296 -0.731346 -2.94899
0.180666 -0.887476 -2.52302
-0.688298 -1.84713 -1.01977
-0.813463 -0.779154 -2.68623
-1.06025 -1.22219 -1.84607
0.45165 -0.831975 -2.80233
0.25767 -1.08029 -2.22332
-2.05747 -1.3723 -1.61135
-0.132434 -0.760387 -2.79079
0.14973 -1.26058 -1.95469
-2.09314 -1.22077 -1.8082
-1.97923 -0.630082 -2.8988
-1.75398 -1.40649 -1.57925
-1.69041 -1.38057 -1.61664
-1.69493 -1.63588 -1.25193
-0.81149 -1.11456 -2.01022
-2.17449 -1.35571 -1.62175
-1.08508 -1.64692 -1.24642
-2.39613 -1.54105 -1.35354
-2.55837 -1.25065 -1.67606
-0.806554 -1.12035 -2.00138
-0.00976514 -1.26293 -1.90228
-2.80555 -1.43379 -1.39713
0.113462 -1.07854 -2.17856
-0.212189 -1.06981 -2.12181
-2.50548 -1.61085 -1.24566
-1.35683 -1.45823 -1.50856
-0.708259 -0.852792 -2.4884
-2.35394 -1.13022 -1.87299
-2.79383 -1.69384 -1.07976
0.119763 -1.02417 -2.26137
-1.63144 -1.53243 -1.40278
-0.823801 -1.24592 -1.81565
-0.836684 -0.895346 -2.3947
0.106427 -0.86477 -2.54946
-1.89652 -0.655962 -2.87276
-1.83091 -1.20067 -1.8623
-2.05886 -1.25208 -1.77097
-1.41486 -1.12721 -1.98721
-0.849108 -1.28272 -1.76272
-0.0763817 -1.14503 -2.0382
-1.45637 -1.68936 -1.17193
-1.84494 -0.72757 -2.67119
-1.6237 -1.34736 -1.66423
-0.645977 -1.29851 -1.75161
0.0134916 -0.884774 -2.48259
-2.23159 -1.33789 -1.63756
-2.98505 -1.61062 -1.13328
-0.422178 -1.27095 -1.8111
-2.26049 -1.29274 -1.69071
-0.702998 -1.79508 -1.08814
-1.24283 -1.65121 -1.23325
-2.00427 -0.901766 -2.2759
-2.54112 -1.57541 -1.28719
-2.06561 -1.73185 -1.10247
-0.404112 -1.53806 -1.47872
-2.32834 -1.139 -1.86871
-1.26926 -1.60781 -1.29583
-2.70646 -1.63048 -1.18407
0.337283 -0.898089 -2.56229
-1.01156 -0.747483 -2.79881
0.46109 -0.832618 -2.80794
-2.00646 -0.724169 -2.59951
-1.4454 -1.46892 -1.49336
-1.96272 -1.38552 -1.60014
-1.66546 -0.959721 -2.24247
-2.02195 -1.11418 -1.96181
-0.402938 -1.55787 -1.45517
0.0617658 -1.30114 -1.87791
-1.79935 -0.701888 -2.77015
-0.654484 -0.779373 -2.68581
-2.28044 -1.75523 -1.05784
-0.467794 -1.57934 -1.41511
-0.60109 -0.92783 -2.33214
-1.51343 -0.877244 -2.41039
-0.294545 -1.67035 -1.3532
-0.876862 -1.34584 -1.67372
-1.01224 -0.946194 -2.29409
-2.16317 -1.16422 -1.87156
0.0356735 -0.735313 -2.97837
-0.915116 -0.803874 -2.61213
-1.04694 -1.78006 -1.05357
-2.47725 -1.12628 -1.84253
-1.68691 -0.67429 -2.97878
-0.875335 -0.78276 -2.67467
-2.0396 -1.29922 -1.71029
-0.885623 -0.747186 -2.80282
-0.328833 -1.54026 -1.49345
-1.00896 -0.731502 -2.87338
-0.74819 -0.719029 -2.95772
-2.13747 -1.71697 -1.12351
-1.44901 -1.52937 -1.40725
-0.690023 -1.59086 -1.36166
-0.879563 -1.46836 -1.50611
0.0594535 -0.751711 -2.88735
-0.910874 -0.777429 -2.6915
-0.42367 -0.779133 -2.69234
-1.01996 -0.758909 -2.75365
-2.55114 -1.26968 -1.65629
-0.804235 -1.38444 -1.62434
-0.61391 -0.826056 -2.55412
-2.56111 -1.64588 -1.18978
-2.33144 -1.03865 -1.99218
0.195338 -0.837165 -2.64503
-1.36128 -0.717275 -2.8962
-0.0311198 -0.769467 -2.77964
-0.99835 -1.72301 -1.14333
-1.26863 -1.53622 -1.39852
-1.51742 -0.937829 -2.29473
-2.01764 -0.638673 -2.82227
0.00131522 -1.13983 -2.06326
-0.354501 -0.746521 -2.81705
0.153096 -0.911807 -2.46495
-2.92718 -1.59863 -1.1669
-0.887822 -1.1531 -1.9502
-1.76774 -1.66889 -1.2023
-1.74895 -1.37447 -1.62395
0.353065 -0.86733 -2.63953
-2.54933 -1.53832 -1.33371
-0.590052 -1.57596 -1.39629
-1.6276 -0.882377 -2.38632
-1.74786 -0.678999 -2.8953
-2.41656 -1.05263 -1.94834
-0.748267 -0.890042 -2.40603
-1.67495 -1.75705 -1.06464
-0.917139 -0.911256 -2.36213
-1.73842 -0.665246 -2.98934
-0.46749 -0.77443 -2.7057
-0.687421 -1.52332 -1.45003
-2.26955 -1.01475 -2.04093
-0.905754 -0.918468 -2.34771
-0.586453 -1.25738 -1.81253
-1.56957 -1.53839 -1.39426
-0.454238 -0.717098 -2.97974
-0.192977 -1.24662 -1.87973
-0.986661 -1.75363 -1.09975
-1.65746 -0.851074 -2.44339
0.0248548 -0.820802 -2.63462
-2.18734 -1.1261 -1.91664
-2.32763 -0.919493 -2.14489
-0.144073 -1.15518 -2.01053
-1.9093 -0.834471 -2.41705
-1.98325 -1.30324 -1.70987
-2.05273 -0.9484 -2.19171
-0.769028 -1.62542 -1.30534
-2.0509 -0.783807 -2.45968
-0.0184484 -1.09597 -2.11961
-0.185142 -0.729671 -2.92919
-1.6592 -1.77873 -1.02932
-1.29591 -1.00321 -2.18924
-0.717784 -1.52916 -1.43881
-2.1959 -1.2633 -1.73824
-1.88496 -0.992071 -2.16022
-2.79275 -1.51318 -1.30938
-2.03948 -0.682994 -2.6762
-2.45002 -1.26287 -1.68994
-1.4118 -0.97037 -2.24292
-2.34672 -1.23049 -1.75217
-0.314938 -1.05119 -2.13719
-2.44498 -1.09653 -1.88727
-1.53834 -1.37735 -1.62271
-1.65887 -0.847107 -2.45122
-1.03676 -1.18201 -1.90557
-0.83387 -1.57465 -1.36611
-1.38378 -0.734755 -2.80826
-2.19975 -0.850558 -2.2901
-1.08458 -1.29384 -1.74241
-2.21294 -0.982829 -2.09956
-2.08813 -0.712665 -2.57902
-1.32165 -1.24075 -1.81861
-0.971197 -1.12267 -1.996
-1.72939 -0.799207 -2.53808
0.0266933 -0.748607 -2.88935
-1.76186 -1.20394 -1.86211
-1.17703 -0.854574 -2.48075
-0.717112 -1.35948 -1.6638
0.172421 -0.90603 -2.48238
-1.60952 -1.36477 -1.63992
-0.269613 -0.929966 -2.34847
-2.79637 -1.42237 -1.41281
-1.09623 -0.775413 -2.69393
-2.46558 -1.60145 -1.26389
-0.591785 -1.36047 -1.67336
-2.13588 -1.17957 -1.85612
-1.10136 -1.32003 -1.70501
-2.54308 -1.49579 -1.38858
-2.09698 -0.732746 -2.53385
-3.03205 -1.67448 -1.03693
-0.801817 -0.808647 -2.59906
-1.26712 -0.822238 -2.55353
-2.09388 -1.79445 -1.00118
-1.68487 -1.18807 -1.88877
-1.1457 -1.451 -1.52043
-1.97187 -1.35164 -1.64543
-0.554867 -1.35066 -1.69019
-0.519632 -1.75253 -1.18949
-0.210435 -0.835291 -2.55522
-1.62771 -1.76841 -1.04632
-1.59031 -0.953802 -2.2602
-1.21154 -1.19355 -1.88816
-2.07915 -0.958724 -2.16983
-1.74199 -1.39999 -1.58857
-1.67861 -1.27652 -1.7629
0.348151 -0.817712 -2.77579
-0.733432 -1.08747 -2.05409
-0.428648 -1.04657 -2.13375
-1.09283 -0.862246 -2.46527
-0.715231 -0.74708 -2.80375
-0.158526 -0.861942 -2.50025
-1.11795 -1.72294 -1.1333
0.222321 -1.14886 -2.11788
-1.97862 -0.81878 -2.42367
-1.70466 -1.00691 -2.16065
-2.1729 -1.661 -1.20588
0.0963504 -0.809439 -2.6864
-0.465566 -0.800311 -2.6268
-2.05324 -1.66466 -1.20508
-1.94994 -1.2152 -1.83214
-2.63242 -1.70806 -1.09155
-1.57488 -1.05498 -2.09417
-1.8716 -1.36018 -1.63944
0.377482 -0.828446 -2.75993
-1.51807 -1.44444 -1.52802
-1.5948 -1.20857 -1.86236
-2.6043 -1.62734 -1.20783
-0.482706 -0.763583 -2.74255
-1.65842 -1.54203 -1.38895
-0.761349 -1.73076 -1.16447
-0.703182 -1.3754 -1.64345
-1.19568 -0.911298 -2.36013
-0.143316 -1.42592 -1.67373
-2.0024 -0.830143 -2.39542
-2.81896 -1.5265 -1.28616
-1.87945 -0.899461 -2.31016
-1.27163 -0.857346 -2.47084
-1.99853 -0.841309 -2.37734
-0.719686 -1.35495 -1.66972
-1.94005 -0.62393 -2.99306
-0.0221537 -1.10551 -2.1052
-0.932165 -0.876445 -2.43489
0.04517 -0.858569 -2.54706
-0.484927 -1.5938 -1.39382
-2.0535 -1.08571 -1.99587
-0.293145 -0.898301 -2.40766
-1.48957 -0.765889 -2.67883
-1.41789 -1.56077 -1.3622
-1.69704 -0.671999 -2.98545
-2.61174 -1.29374 -1.61201
-0.582995 -1.66111 -1.28967
-2.10556 -1.6135 -1.27782
-2.7466 -1.55576 -1.27006
-2.32088 -1.59259 -1.2925
-1.99312 -1.72602 -1.11288
-0.438512 -0.802305 -2.62235
-1.55945 -0.908484 -2.34497
0.206291 -1.06444 -2.22784
-1.24567 -0.717197 -2.92717
-1.0609 -1.4452 -1.5303
-0.771256 -1.20358 -1.87824
-0.69247 -0.839067 -2.52105
-0.697709 -0.940148 -2.30671
-0.0549917 -0.749498 -2.85619
-1.49073 -0.96088 -2.25545
0.547046 -0.821729 -2.95204
-0.404508 -1.66911 -1.32226
-0.0893995 -1.06177 -2.15477
-1.72432 -1.68537 -1.17724
-0.961793 -0.726906 -2.90117
-1.18011 -0.934647 -2.31494
-2.61885 -1.47275 -1.40136
-0.5059 -1.3695 -1.67144
-0.848387 -1.60585 -1.32247
-0.821354 -1.56527 -1.37994
-0.456529 -1.15343 -1.96981
-0.00285671 -1.34265 -1.80976
-1.43605 -1.76413 -1.0555
-1.52221 -0.801131 -2.57777
-2.50969 -1.36084 -1.55982
-1.2188 -1.7941 -1.01678
-2.12633 -0.792405 -2.41222
-2.43031 -1.44889 -1.4672
-0.97172 -0.906087 -2.37257
-1.54492 -0.761384 -2.67996
0.17153 -0.755034 -2.93194
-0.973163 -1.67392 -1.21616
-1.93705 -1.50947 -1.43104
-1.90695 -0.836224 -2.41449
-2.01054 -1.41636 -1.55551
-0.787328 -1.52946 -1.4311
-2.13986 -1.25523 -1.7567
-1.08112 -0.964359 -2.26022
0.0736805 -0.910881 -2.4445
-1.13461 -0.72419 -2.90346
-0.886302 -0.998265 -2.19978
-0.350774 -1.75068 -1.24305
-1.07757 -1.07764 -2.06688
-2.04209 -1.49923 -1.44084
-1.93869 -0.648374 -2.86371
-0.672006 -0.717374 -2.97103
-0.371365 -0.741465 -2.83839
-1.06369 -0.758775 -2.75254
-1.41641 -0.952041 -2.27541
-0.821856 -1.68796 -1.21369
-0.493221 -0.721871 -2.94041
-2.15455 -1.02305 -2.06067
-1.52637 -0.748635 -2.72377
-0.989327 -0.776191 -2.69456
0.140728 -0.768017 -2.84788
-0.548694 -0.928622 -2.33221
-0.143939 -1.1527 -2.01397
-2.24574 -0.985276 -2.08657
-0.949319 -0.982129 -2.22819
-1.46665 -1.12788 -1.98522
-1.47438 -0.970935 -2.23879
