ply
format ascii 1.0
comment Created by Open3D
element vertex 200
property double x
property double y
property double z
end_header
-2.20586 0.879533 -0.888744
-1.34656 1.86062 -1.02608
-3.15633 -0.797248 0.39628
-1.14186 1.89937 -1.13724
-1.60464 0.992103 -1.21861
-1.28032 2.3631 -0.946488
-3.20768 -0.142524 -0.216407
-2.54816 -0.512004 -0.56505
-1.90235 -0.858296 -1.02787
-2.86275 0.0920673 -0.562401
-2.48177 0.139735 -0.846139
-3.63971 0.560199 0.00581897
-2.81615 0.716465 -0.562026
-1.9736 2.61574 -0.386056
-1.43368 1.56164 -1.08151
-2.27735 0.499828 -0.950228
-2.20517 1.39243 -0.70191
-2.02228 -1.15387 -0.392183
-1.15743 2.74354 -1.02536
-1.30425 1.43384 -1.21156
-2.40899 0.372547 -0.883885
-2.66521 -0.59516 -0.383362
-3.02826 1.29931 -0.223443
-3.0531 -0.424122 -0.167734
-0.42492 2.02845 -1.58705
-2.65803 -0.444076 -0.511826
-2.38594 -0.440225 -0.770673
-3.77635 -0.0989873 0.335092
-2.52845 -0.322747 -0.700389
-2.65502 1.64969 -0.307454
-0.0598945 2.16037 -1.88632
-1.94468 2.37448 -0.48556
-3.30236 1.12194 -0.10268
-2.1151 -0.764109 -0.814518
-1.8885 -1.04761 -0.764028
-1.63469 1.91056 -0.839026
-0.233352 2.20357 -1.70877
-2.77586 -0.704229 -0.162491
-1.3062 2.29601 -0.940222
-2.21424 -0.615709 -0.831517
-3.15315 -0.299487 -0.170492
-0.418164 2.50565 -1.54521
-2.67312 -0.719216 -0.249403
-2.12508 -0.653205 -0.908817
-1.32397 2.58755 -0.897809
-2.53532 -0.925024 -0.136061
-3.46531 0.15576 -0.112008
-2.30315 1.25316 -0.699224
-0.774766 1.48718 -1.54524
-2.48086 1.60893 -0.443874
-3.16458 -0.674506 0.218245
-3.34806 0.0800084 -0.18867
-3.25211 1.27017 -0.0677847
-0.804311 1.61402 -1.4611
-1.56008 1.8117 -0.916408
-2.77113 0.00405749 -0.613951
-3.29926 0.432692 -0.272952
-0.993261 2.33211 -1.13731
-2.30371 0.507742 -0.930938
-1.25479 1.85288 -1.08341
-0.713208 1.68001 -1.49703
-2.12939 2.49722 -0.28461
-2.26062 -0.79397 -0.60365
-3.02711 -0.51201 -0.114385
-2.33904 -0.605223 -0.701365
-3.5225 -0.644901 0.720515
-2.81897 1.01965 -0.475083
-3.209 -0.598236 0.169622
-2.16035 -0.720662 -0.801601
-2.89562 -0.0430676 -0.506849
-0.608123 1.81135 -1.51976
-2.09305 -0.134232 -1.16551
-2.25823 0.109065 -1.01871
-3.10211 0.141962 -0.394785
-1.97961 2.50128 -0.416142
-1.92312 0.949553 -1.03526
-1.45769 0.911323 -1.35787
-0.888999 2.61261 -1.20421
-2.12764 2.33078 -0.358013
-0.904211 2.62742 -1.19477
-2.76777 1.34344 -0.380384
-2.11632 1.05332 -0.881515
-2.46629 -0.101829 -0.830787
-3.36141 0.0704299 -0.174686
-1.6274 1.7512 -0.898286
-1.18779 1.64267 -1.1981
-3.05788 0.405797 -0.444698
-1.57777 2.4465 -0.734109
-0.244432 2.5291 -1.6961
-1.3477 0.735153 -1.54571
-2.3959 -0.133186 -0.883409
-2.00443 -0.902827 -0.801159
-2.00514 -0.614928 -1.10549
-1.4638 2.88868 -0.808636
-3.04329 1.53354 -0.0814039
-1.35615 1.98879 -0.981241
-2.97568 -0.804241 0.180537
-3.79003 0.607523 0.155877
-2.5556 -0.797968 -0.278938
-3.16265 0.120851 -0.345171
-4.00942 -0.144293 1.08124
-4.1755 0.268263 1.00805
-4.08708 0.0545002 1.2491
-3.5593 0.329064 2.32263
-3.95014 0.465377 1.79085
-3.42081 -0.0804012 2.32788
-3.63317 0.264914 2.21207
-4.06596 0.52709 1.56553
-4.19475 0.428659 1.05644
-4.10365 0.518798 1.47446
-3.78344 0.503175 2.05366
-4.00319 0.198793 1.61871
-3.65844 0.426771 2.21651
-3.67775 0.372474 2.1813
-3.84693 0.289085 1.92345
-4.16842 0.240546 0.970671
-3.87715 -0.245022 1.46036
-3.65666 -0.550599 0.823453
-3.73533 -0.145828 1.86136
-3.44001 0.154842 2.4113
-3.51082 -0.0309031 2.2441
-4.11106 0.0887768 0.87005
-4.09951 0.360314 1.46698
-4.03974 0.503877 1.62326
-3.7234 -0.502012 0.903396
-3.82417 0.50255 1.99401
-3.71352 -0.0506719 1.96202
-3.99072 0.733552 1.6761
-3.73149 -0.303865 1.71554
-4.1456 0.162315 1.09799
-4.19248 0.45738 1.10652
-3.7029 0.695314 2.16138
-3.97617 0.201727 0.426671
-3.39314 0.321016 2.52024
-3.59332 -0.600004 0.781308
-3.58381 0.772236 2.31612
-3.29573 0.252682 2.6119
-3.78744 -0.436186 1.29263
-3.92353 0.218972 1.77614
-3.56893 0.796856 2.33219
-3.72433 -0.441768 0.720692
-4.15024 0.443076 1.33274
-3.43468 0.477631 2.50517
-3.21785 0.0925117 2.63949
-3.71616 -0.271351 1.77989
-3.79731 0.629614 2.03132
-3.81906 -0.097806 1.75984
-3.83447 -0.353636 0.827894
-4.06091 0.286028 0.538488
-4.07069 0.324129 1.52658
-4.08489 0.161465 0.668978
-3.75003 -0.0633886 1.89894
-4.18971 0.397041 1.1054
-3.33899 0.314974 2.5815
-4.09156 0.102294 0.755454
-3.79733 0.653414 2.02867
-3.71503 -0.142904 1.89572
-4.02294 -0.103313 0.901114
-3.96644 0.00925518 0.542058
-3.99258 -0.0644972 0.691501
-4.14987 0.16711 1.0242
-4.02942 0.573819 1.63979
-4.09305 0.116452 1.31983
-4.15701 0.359104 1.28257
-3.76912 -0.35811 0.650341
-3.38399 -0.00927222 2.40684
-3.39549 0.170341 2.46905
-4.19135 0.371838 1.00327
-3.88063 0.291868 1.87215
-3.93504 -0.0108591 0.502454
-3.99038 0.0307973 0.569234
-3.78397 -0.4498 0.988418
-3.89802 -0.211962 0.688053
-4.17432 0.278259 0.935269
-4.18788 0.508993 1.14734
-3.81706 -0.29599 1.538
-3.86344 -0.222201 1.53414
-4.08638 0.419581 1.51334
-4.08652 0.143918 0.690187
-4.1315 0.608863 1.3744
-4.1952 0.505561 1.06086
-3.79843 -0.191869 1.71058
-3.4465 0.102858 2.38321
-4.01071 0.175103 1.58988
-3.83336 -0.259243 1.55409
-4.10404 0.300849 0.626361
-4.09358 0.621423 1.48121
-3.9612 0.27993 1.73331
-4.09794 0.367962 1.47329
-3.82287 -0.409968 1.05787
-3.96322 0.406225 1.76123
-4.13547 0.539513 1.38025
-3.7464 -0.0562438 1.90932
-3.47126 0.0609055 2.33593
-3.73412 0.0921899 2.01131
-3.85506 -0.156118 1.63598
-3.65104 -0.530632 0.748955
-4.19613 0.442179 1.01897
-4.13149 0.607299 1.37504
-3.76249 0.108657 1.97862
