ply
format ascii 1.0
comment Created by Open3D
element vertex 400
property double x
property double y
property double z
end_header
2.32895 1.56537 1.51442
2.09249 -1.11206 1.76067
2.25085 0.936614 1.2862
2.10418 -0.373819 0.428705
2.25148 1.36272 1.94582
2.28936 1.35683 1.67469
2.16852 0.338728 0.408786
2.20091 0.637899 1.59011
2.12336 -1.03363 1.86048
2.10217 -1.75292 1.49289
2.37754 1.86276 1.30286
2.12494 0.186239 1.13913
2.0004 -0.87801 0.928636
2.05852 -0.907156 1.6686
2.02705 -0.640412 1.40846
2.40012 2.28027 1.34037
2.35118 1.63922 1.34128
2.00064 -1.4815 1.14551
2.27074 1.1394 0.633483
2.0078 -1.015 0.810585
2.16155 0.369428 1.54951
2.11573 0.0139783 1.5966
2.02064 -0.718472 1.40484
2.14721 0.320761 1.07516
2.26167 1.0503 0.6916
2.18839 0.538704 1.72058
2.10714 -0.378718 0.412045
2.21994 -0.0240662 2.28021
2.03413 -0.474011 0.940042
2.21907 0.214029 2.33365
2.31804 1.76845 1.71478
2.01882 -0.597263 1.22986
2.13658 0.0444251 0.43533
2.02627 -0.892005 1.51194
2.1116 -0.0153106 0.631015
2.10676 0.0537029 0.90026
2.1905 -0.8974 2.04608
2.20719 0.252041 2.26807
2.30801 1.28372 1.1054
2.15062 0.210521 0.472206
2.02042 -0.593766 0.962068
2.20331 0.796268 2.15437
1.99611 -1.3029 1.2826
2.05111 -0.416847 1.43694
2.06899 -0.875678 1.70988
2.18814 0.507984 0.341844
2.19315 0.426809 2.12193
2.05452 -0.282357 1.05384
2.26891 0.196572 2.56357
2.07476 -0.136012 1.10134
2.05136 -1.72828 1.29327
2.14634 0.217291 0.549641
1.99926 -0.972516 0.893302
2.1016 -1.61949 1.59036
1.99512 -1.42234 1.13526
2.16251 0.33939 1.68929
2.26004 1.2164 1.81256
2.30335 1.75499 1.78397
2.19084 0.576305 0.916128
2.15301 0.32523 0.742137
1.99731 -1.33385 0.942842
2.21458 0.897 2.03757
2.11106 -0.00521058 0.654434
2.33218 1.84963 1.66445
2.20128 0.756631 2.18242
1.9892 -1.30671 1.17574
2.21295 0.356906 2.34412
2.22131 0.766072 1.43847
2.0008 -0.801262 1.21526
2.1951 0.313349 2.17368
2.18722 0.275784 2.10641
2.17844 0.431913 0.406692
2.29319 1.24467 1.4491
2.07299 -1.75107 1.38381
2.03644 -0.976899 1.57285
2.25555 1.22337 1.85576
2.34626 1.56003 1.22349
2.39066 1.94109 1.14944
2.12089 -0.141617 1.79381
2.19927 0.614122 2.15332
2.18182 -0.0924072 2.11471
2.2466 0.103048 2.42343
2.15627 -0.388344 2.01759
2.16252 0.256098 1.84715
2.06743 -1.09981 1.68492
2.23718 0.860652 0.843105
2.26392 1.03466 1.40673
2.11228 -0.40415 1.84058
2.27767 1.09324 1.17362
2.29977 1.48064 1.69102
2.22242 -0.526762 2.19394
2.04111 -0.526588 1.44801
2.12458 -0.000957244 0.506147
1.99635 -0.945701 1.2816
2.18779 -0.128855 2.13985
2.29206 1.18523 1.20396
2.0766 -0.728471 1.73423
2.35226 1.78784 1.50345
2.19097 0.794508 2.35404
2.08014 -0.630641 1.73729
2.15592 -0.194876 2.00507
2.12606 -0.291243 1.88097
2.0625 -0.427575 0.666929
2.29611 1.28282 1.48967
2.35942 1.6505 1.10477
2.152 0.0604049 1.90626
2.05881 -0.930439 1.66956
2.2115 0.782701 1.9572
2.18358 0.43775 1.92768
2.04954 -0.534057 0.694662
2.24297 0.902791 0.794873
2.03908 -0.90242 1.58197
1.98692 -1.26327 1.07123
2.08945 -0.179329 0.659193
2.19705 0.554554 2.11617
2.27358 1.24998 1.71677
2.0137 -0.776589 1.37597
1.98608 -1.13818 1.04628
2.13906 -0.214582 0.29376
2.19853 0.917666 2.22709
2.13399 0.196637 0.739245
2.40237 2.15483 1.25486
2.00852 -0.681152 1.11726
2.30931 0.188191 2.70259
2.26623 -0.232918 2.37205
2.18172 0.258772 0.161312
2.08548 -0.0668599 1.0374
2.38015 2.14326 1.46519
2.23238 -0.47655 2.2281
2.40139 2.25508 1.32121
2.27173 -0.308954 2.36343
2.2549 0.0956622 2.45263
2.26904 1.07474 1.43625
2.17429 0.437029 0.553353
2.32227 1.37869 1.12347
2.11362 0.106756 1.26763
2.22886 0.802052 0.972944
2.02222 -0.843864 1.47512
2.30037 1.27115 0.84338
1.99257 -1.34362 1.01176
2.04902 -0.793774 0.603664
2.33053 1.48384 0.858647
2.18894 0.486804 0.255181
2.19839 0.583867 2.13945
2.1061 -0.814992 1.84096
2.01267 -1.03759 0.77564
1.99348 -1.21228 1.28637
2.12577 -0.231489 0.358758
2.05986 -0.807946 1.67001
2.19988 0.581117 2.23673
2.39255 2.36948 1.40691
2.30716 1.28853 0.971261
2.27815 1.16585 0.697957
2.19966 0.629232 1.74656
2.14236 0.207253 0.596013
2.03214 -1.65632 1.25694
2.1189 -0.294404 0.375955
2.39627 2.00689 1.14844
2.13998 -0.168088 0.300655
2.35454 1.61918 1.02482
2.24838 0.916858 1.01525
2.05479 -0.54728 0.648778
2.13335 -0.210015 0.324406
2.19889 0.598 2.15204
2.09122 -0.0418524 1.28103
2.3193 1.69533 1.68081
2.14672 0.0054351 0.325312
2.31519 0.159612 2.69768
2.25834 0.989277 1.34681
2.06889 -0.511542 0.575295
2.33913 1.49674 1.12535
2.30809 1.57674 1.69259
2.19223 0.584533 0.908986
2.29164 1.17918 1.08344
2.20655 0.707492 1.91083
2.22891 0.840815 1.62272
2.16913 0.35971 1.78068
2.14905 -0.441471 1.99219
2.1484 0.322335 0.950111
2.01682 -0.605163 1.19152
2.18099 0.505872 1.51244
2.04294 -0.373436 1.03635
2.08736 -0.0678494 0.941209
2.08748 -0.471517 1.73578
2.18552 0.431775 1.97964
2.05975 -0.672661 1.64788
2.08392 -1.66681 1.50412
2.01673 -1.58952 1.20653
2.25251 0.982519 0.706492
2.02412 -1.6297 1.22095
2.32049 1.41488 1.37875
2.31222 1.35471 0.842737
2.18632 0.453234 0.258299
2.1994 0.618122 2.16505
2.21186 0.122739 2.27217
2.1783 0.161021 2.06445
2.22071 1.1084 2.06919
2.14963 0.307915 1.45248
2.003 -1.36548 1.31315
2.27905 1.15587 0.741698
2.31181 1.31957 0.971833
2.14604 0.16702 1.75206
2.18702 0.207856 2.11996
2.02438 -0.556481 0.95813
2.18115 0.268621 2.05023
2.19084 0.927993 2.29484
2.23429 0.232165 2.42562
2.05928 -0.307662 0.842772
2.17966 0.512356 1.12522
2.24008 1.22697 1.97176
2.0965 -0.199295 0.572417
2.23564 0.158047 2.39878
2.03073 -0.953779 1.54375
1.99131 -1.30708 1.0024
2.19238 0.571724 0.513515
2.28104 1.53972 1.8379
2.00189 -0.759448 1.11652
2.28845 0.221522 2.65846
2.17942 -0.775414 2.04582
2.29582 1.20803 1.0322
2.1838 -0.311575 2.11559
2.07332 -0.335983 1.57041
2.11493 -0.383725 0.372801
2.20142 0.649094 1.90607
2.03754 -0.479898 1.35084
2.13038 0.219233 1.06977
2.27403 1.45573 1.84764
2.23861 1.2633 1.99292
2.00803 -0.792405 1.32491
2.05938 -0.274078 0.920526
2.16221 0.234202 1.86882
2.17407 0.366621 1.86329
2.09214 -0.464644 0.463721
2.31746 1.65423 1.67277
2.17351 0.376413 1.83384
2.19982 0.946504 2.21354
2.25537 0.276833 2.5633
2.33277 1.45128 1.11794
2.14021 0.21341 0.653084
2.11929 0.147944 1.00756
2.14878 0.236841 1.67197
2.00915 -1.06544 1.42387
2.31959 0.0711802 2.6473
2.23282 0.8861 1.68511
2.13718 -0.994452 1.90314
2.18048 0.487063 1.64972
2.13659 0.254192 1.2175
2.01279 -0.635576 1.09997
2.38064 1.88072 1.27879
2.16392 0.131174 1.96342
2.33211 1.47241 0.924669
2.22054 0.498242 2.57166
2.1203 0.126987 0.826233
2.06601 -0.288582 1.44086
2.22196 0.111333 2.31937
2.06621 -0.403883 0.655028
2.19927 0.653381 2.25944
2.02896 -0.880156 0.695878
1.99828 -1.44762 1.1738
2.26012 0.994849 1.30018
2.36777 1.98902 1.49872
2.15357 -0.399421 2.00801
2.39119 2.04854 1.32357
2.08483 -0.0682482 1.0976
2.00568 -1.23649 1.38302
2.24487 0.0337154 2.39061
2.21175 0.741047 1.81374
2.22092 -0.315521 2.22985
2.1849 0.427632 1.97288
2.19756 0.891496 2.23921
2.1669 0.271935 0.335543
2.22757 0.793986 0.98425
2.05152 -0.328553 1.28085
2.29465 -0.0343283 2.52084
2.03146 -0.758317 0.712226
2.26884 0.244255 2.59888
2.26533 1.11178 0.604555
2.23336 0.412285 2.56249
2.03611 -1.33388 1.51225
2.16624 0.396757 0.644881
2.11161 -0.0430108 1.6295
2.31925 1.54555 1.58552
2.20898 0.294858 2.29036
2.20818 0.692114 1.64737
2.05679 -1.04632 1.65448
2.37515 1.79291 1.19102
2.3005 1.24016 1.00869
2.22021 0.752704 0.907197
2.19237 0.0760413 2.16456
2.10646 -1.29645 1.74967
2.25425 0.0805188 2.44353
2.10933 -1.36771 1.73209
2.22831 1.08493 2.0012
2.14571 0.304143 1.29359
2.12032 -1.02072 1.85508
2.33601 1.73676 1.59359
2.03981 -0.883098 1.58377
2.26437 -0.234334 2.36684
2.15507 0.295766 0.573266
2.3913 1.96507 1.2104
2.05949 -0.748546 1.66133
2.25824 0.974129 1.14261
1.98764 -1.00837 1.12432
2.35853 1.65995 0.985169
2.00169 -1.05156 1.36768
2.09135 -0.111708 1.48466
2.39931 2.18086 1.31438
2.22049 0.751111 1.03669
2.00503 -0.725134 1.1551
2.31974 1.385 1.30263
1.98528 -1.19721 1.12673
2.21714 1.09111 2.09109
2.1822 0.48365 1.74721
2.18827 0.529245 0.439325
2.25584 1.07045 1.6835
2.21379 0.722065 1.50742
2.19811 0.643669 2.46165
2.03827 -0.650266 0.711689
2.03516 -0.783054 0.681191
2.25038 0.389473 2.65423
2.36007 2.10682 1.57622
2.37391 1.87198 1.36495
2.00469 -1.00605 1.38583
2.21269 0.731912 0.516004
2.14284 0.251609 0.718498
2.19648 0.607949 1.52857
2.02381 -1.30534 1.46642
2.13198 -1.25861 1.82373
1.99567 -1.42152 1.05925
2.17505 0.48032 1.32923
2.21894 0.778886 1.69169
2.27399 0.0155747 2.48268
2.03139 -0.649338 0.766369
2.24277 0.0590361 2.39154
2.10067 -0.283056 0.485662
2.22617 -0.218845 2.26347
2.10691 0.00922009 1.47459
2.08059 -0.661312 1.74374
2.07509 -0.563662 1.69849
2.09228 -1.81325 1.39387
2.08306 -0.177976 0.735179
2.14731 0.159342 0.443844
2.32911 1.51941 1.45224
2.264 1.2927 1.83415
2.27363 1.15904 1.58301
2.09884 -0.0339846 0.784125
2.03188 -0.472154 1.00246
2.15389 0.189578 1.81931
2.08657 -0.319452 1.66128
2.19927 0.625936 1.75503
2.14298 0.188152 1.67552
2.03769 -1.53458 1.41759
2.19089 0.544978 1.8353
2.34254 1.52872 1.01662
2.22071 0.891181 1.94042
2.32215 1.3778 1.11403
2.13593 -0.121141 0.339715
2.31168 1.72841 1.73583
1.98722 -1.02631 1.14002
2.21463 0.724137 0.773723
2.1695 0.420573 0.649923
2.13145 0.0995584 0.557052
2.20162 0.641986 1.50511
2.01477 -0.872556 0.790849
2.117 -0.242295 0.404366
2.20241 0.645338 1.24705
2.02195 -0.820549 0.755643
2.32433 1.7143 1.65863
2.01505 -0.75896 0.843628
2.10785 -0.158412 1.70855
2.25511 1.04285 0.582359
2.35138 1.80486 1.52217
2.14336 -0.0818022 1.91219
2.2212 1.15967 2.07727
2.39484 2.33144 1.39045
2.1307 -1.1855 1.84235
2.09888 -0.188871 1.66005
2.20323 0.767551 2.14234
2.05571 -0.279177 1.01144
2.30654 1.43566 1.59352
2.03643 -0.766075 1.54318
2.33457 1.557 1.43992
2.32223 1.38833 0.9864
2.10968 -1.00264 1.82955
2.19492 0.59603 1.59046
1.98769 -1.07833 1.01999
2.05653 -0.781618 1.65215
2.36549 1.74492 1.30223
1.98867 -1.02898 1.19783
2.278 1.10776 1.30588
2.25901 1.29082 1.86963
2.01217 -1.34579 1.38791
2.04955 -0.397024 0.830688
2.15431 -0.712736 1.9916
2.3764 1.80163 1.04466
2.06984 -0.205792 0.889646
2.25723 1.0115 1.5018
2.15348 -0.142879 1.98537
1.99212 -1.28874 1.24251
2.06328 -0.428027 0.660431
