ply
format ascii 1.0
comment Created by Open3D
element vertex 200
property double x
property double y
property double z
end_header
2.35725 -0.802456 -0.478235
2.47158 0.453233 -0.117724
1.32101 -2.44763 -1.73757
2.41989 0.586488 0.0702364
2.20634 -0.412648 0.0769432
2.69306 0.898487 -0.243826
2.04679 -2.07935 -1.35769
1.57827 -2.03303 -0.671112
1.18818 -1.99748 0.102035
2.13909 -1.75164 -0.936013
2.06576 -1.53651 -0.516175
2.63382 -1.75226 -1.88519
2.48505 -1.23759 -1.02606
3.00909 0.779083 -1.10662
2.37388 0.158146 -0.0591237
2.20408 -1.15206 -0.392284
2.57399 -0.369197 -0.729796
0.775404 -2.18512 -0.445924
2.8828 1.25428 -0.184982
2.27881 0.113105 0.138173
2.17826 -1.31834 -0.490327
1.51339 -2.13542 -0.868431
2.80413 -0.850549 -1.52378
1.75594 -2.19676 -1.27292
2.26444 1.03714 0.781395
1.66253 -2.03666 -0.782496
1.61947 -1.91664 -0.429234
2.16268 -2.28815 -2.11426
1.74582 -1.89827 -0.580063
2.82013 -0.368487 -1.33275
2.25945 1.30545 1.19151
2.89435 0.590784 -0.96408
2.81159 -1.1317 -1.72889
1.27496 -2.01371 -0.20105
0.936576 -2.08895 -0.0822864
2.59222 0.352491 -0.427239
2.30823 1.26673 0.947378
1.40972 -2.24706 -1.09139
2.666 0.831836 -0.249738
1.43517 -1.96091 -0.261745
1.89547 -2.16044 -1.34194
2.52675 1.42013 0.662997
1.37828 -2.21259 -0.964284
1.39407 -1.95038 -0.145421
2.83185 1.05569 -0.347157
1.11201 -2.26945 -0.956579
2.33795 -1.98336 -1.62649
2.55081 -0.53604 -0.754889
2.13946 0.41298 0.672212
2.75226 -0.320034 -1.12382
1.48708 -2.38914 -1.61175
2.25578 -1.9856 -1.49008
2.85195 -0.979821 -1.76082
2.19329 0.509081 0.563101
2.52345 0.306482 -0.306905
2.05347 -1.77432 -0.831364
2.47829 -1.69695 -1.45784
2.58633 1.01265 0.0649616
2.21607 -1.15828 -0.423062
2.43697 0.492076 -0.0225359
2.19299 0.608764 0.626418
2.98665 0.611418 -1.24802
1.24586 -2.08648 -0.446794
1.66058 -2.23992 -1.28992
1.45671 -2.00436 -0.435738
1.4855 -2.49088 -2.22077
2.62669 -0.987659 -1.15629
1.5848 -2.36526 -1.60571
1.32337 -2.00478 -0.242022
2.05143 -1.86658 -0.975149
2.21671 0.770098 0.67352
1.81149 -1.57347 -0.00418047
1.99043 -1.45702 -0.254076
2.2384 -1.82658 -1.20508
2.95875 0.680971 -1.06326
2.29234 -0.604296 -0.22758
2.13298 -0.412222 0.282201
2.72188 1.28162 0.122494
2.92131 0.469709 -1.15451
2.73578 1.2857 0.104327
2.74281 -0.687798 -1.27044
2.40168 -0.612043 -0.471953
1.90317 -1.71244 -0.47818
2.25162 -1.99857 -1.50682
2.52073 0.222168 -0.344378
2.32426 0.348109 0.145988
2.39356 -1.60364 -1.1884
2.82735 0.822747 -0.585542
2.50485 1.5157 0.872488
2.04935 -0.517023 0.52805
1.86556 -1.70399 -0.393206
1.11506 -2.05269 -0.133354
1.43745 -1.88389 0.0741809
3.05774 1.22202 -0.545891
2.88508 -0.651693 -1.69457
2.53282 0.555296 -0.183785
1.30813 -2.38328 -1.46385
2.6839 -1.77881 -2.09529
1.2711 -2.20851 -0.867435
2.2397 -1.87049 -1.27322
1.91793 -2.32915 -2.85691
2.3068 -2.12116 -2.94997
2.00452 -2.1909 -3.07398
1.3114 -1.4663 -3.78176
1.9003 -1.69114 -3.54348
0.975036 -1.70074 -3.64475
1.37354 -1.58059 -3.71194
2.12075 -1.75337 -3.41889
2.39179 -1.99918 -3.02958
2.18409 -1.7989 -3.35809
1.68923 -1.51409 -3.69313
1.85762 -1.96154 -3.37445
1.48469 -1.46902 -3.75725
1.48144 -1.52923 -3.72685
1.66423 -1.74236 -3.57444
2.30393 -2.1452 -2.90961
1.58844 -2.25967 -3.09769
1.57667 -2.47964 -2.39121
1.36247 -2.02491 -3.38852
1.08789 -1.51417 -3.76773
1.10263 -1.73145 -3.62616
2.22559 -2.24695 -2.76833
2.08981 -1.92111 -3.32113
2.062 -1.74527 -3.45117
1.60898 -2.46756 -2.50083
1.74375 -1.54982 -3.66201
1.35672 -1.91959 -3.48093
2.14334 -1.5275 -3.51369
1.33627 -2.17187 -3.2337
2.18021 -2.16942 -2.99303
2.38315 -1.96644 -3.07639
1.70126 -1.29669 -3.78031
2.42504 -2.1578 -2.3443
1.10497 -1.33701 -3.86775
1.52753 -2.48758 -2.31537
1.59664 -1.13731 -3.86804
0.957514 -1.31509 -3.88606
1.49876 -2.38472 -2.87623
1.74246 -1.86955 -3.47352
1.59419 -1.1063 -3.87892
1.73512 -2.45416 -2.35619
2.23727 -1.9114 -3.24626
1.23279 -1.24283 -3.90341
0.798473 -1.38793 -3.84267
1.31468 -2.12575 -3.28699
1.78497 -1.42805 -3.70362
1.49388 -2.05619 -3.35145
1.80532 -2.4325 -2.51742
2.47463 -2.12301 -2.49635
2.0207 -1.9212 -3.35139
2.35107 -2.21087 -2.59701
1.40297 -1.96282 -3.44264
2.34565 -2.01194 -3.06321
1.03718 -1.29811 -3.89248
2.27741 -2.24535 -2.66342
1.8006 -1.41002 -3.70565
1.3346 -2.00423 -3.40845
2.03918 -2.33785 -2.71716
2.24671 -2.28095 -2.40335
2.14581 -2.32715 -2.53039
2.22187 -2.18155 -2.93299
2.08947 -1.68164 -3.47284
2.01097 -2.13353 -3.14843
2.21556 -1.98987 -3.19161
1.84814 -2.42867 -2.33311
0.955952 -1.609 -3.70697
1.04085 -1.46492 -3.79806
2.38145 -2.05094 -2.97229
1.71227 -1.76971 -3.54763
2.23414 -2.28486 -2.35057
2.26152 -2.27369 -2.44213
1.6371 -2.44804 -2.61242
1.99905 -2.38566 -2.45465
2.34765 -2.12578 -2.88907
2.39133 -1.91614 -3.11829
1.48186 -2.24921 -3.1254
1.55743 -2.22037 -3.15808
2.0945 -1.85873 -3.36495
2.33118 -2.22169 -2.61275
2.30478 -1.76359 -3.30253
2.43617 -1.9388 -3.04743
1.44835 -2.12586 -3.28237
1.07445 -1.56359 -3.73756
1.86222 -1.9897 -3.34925
1.50639 -2.22751 -3.15373
2.46784 -2.12158 -2.59511
2.23616 -1.71176 -3.37743
1.82387 -1.85248 -3.46635
2.09033 -1.91308 -3.32713
1.65168 -2.42793 -2.6979
1.88746 -1.75037 -3.51394
2.26272 -1.8189 -3.29697
1.3999 -1.95321 -3.45101
1.08797 -1.61966 -3.70176
1.43156 -1.81191 -3.5588
1.5421 -2.14555 -3.25282
1.62155 -2.47414 -2.32848
2.41911 -1.99624 -3.00071
2.30352 -1.76469 -3.30279
1.47538 -1.82205 -3.54774
