ply
format ascii 1.0
comment Created by Open3D
element vertex 400
property double x
property double y
property double z
end_header
-1.12629 1.78568 1.98045
-2.22121 1.5393 0.65045
-2.06266 1.93664 0.95979
-1.16961 2.31097 1.94497
-2.295 1.75722 0.66674
-0.947127 0.877845 2.22772
-2.23579 1.73539 0.70861
-1.70611 1.055 1.18327
-1.97435 0.90755 0.86497
-1.17515 1.42474 1.91115
-1.23687 0.812437 1.82578
-1.2588 1.799 1.81524
-2.75123 1.47621 0.22728
-1.70874 1.98128 1.32991
-2.31316 1.76877 0.65689
-2.25288 1.95189 0.80292
-1.12916 2.26685 1.98217
-0.711901 1.82325 2.48741
-2.12115 1.6364 0.77904
-2.51159 1.14644 0.32786
-1.09162 1.77721 2.02406
-1.4883 0.594111 1.50715
-1.78415 1.8607 1.20914
-1.65059 0.822167 1.27038
-1.64111 1.18834 1.26848
-1.46977 1.76807 1.55096
-2.34784 1.32278 0.48242
-2.08439 1.56836 0.79522
-1.74134 0.431236 1.2351
-1.92499 1.09616 0.91109
-1.44481 1.66792 1.56776
-1.36948 2.57429 1.81419
-1.70239 0.865605 1.19962
-1.27416 2.05318 1.81872
-0.557547 1.86117 2.65765
-1.07376 1.16072 2.05223
-2.11595 0.834591 0.7199
-2.0513 1.24319 0.77115
-1.47493 0.828531 1.50072
-0.86308 0.914968 2.3451
-1.53633 0.771043 1.42415
-2.05557 1.85921 0.93051
-2.19227 1.77775 0.76645
-1.10582 1.84737 2.00601
-0.374512 1.42498 2.9703
-1.28285 1.05016 1.75739
-1.69304 1.62271 1.25143
-2.059 1.98903 0.98927
-1.1719 1.5289 1.91727
-1.27677 0.578859 1.78207
-2.16469 0.974718 0.64992
-1.61678 1.64075 1.34812
-1.5185 1.52289 1.45526
-1.18725 1.90207 1.90831
-1.66722 2.30115 1.48916
-1.78721 2.24858 1.36163
-1.49774 2.2912 1.6371
-0.82221 0.764467 2.39311
-1.03237 1.75762 2.09937
-1.11958 1.30805 1.9876
-0.645617 1.46925 2.62532
-1.34064 2.4602 1.81281
-1.33223 1.4878 1.69904
-1.2659 1.85043 1.81027
-1.03332 1.24386 2.10893
-1.50565 2.21411 1.60817
-1.47446 0.78445 1.50473
-0.635901 1.5925 2.62107
-1.62362 0.80799 1.30663
-0.68064 1.6288 2.55916
-1.58302 1.62996 1.38811
-0.93541 0.748734 2.23924
-2.18454 1.23368 0.62837
-2.20443 0.886648 0.62041
-0.87467 1.13151 2.33224
-1.64364 2.19629 1.47043
-1.12426 0.408057 1.98317
-1.32783 0.406876 1.73127
-1.77316 1.09293 1.09713
-2.05337 0.91267 0.77554
-0.986661 1.00773 2.17476
-1.86108 1.24929 0.99278
-1.00881 1.87711 2.12337
-1.32974 1.00204 1.6924
-0.762678 0.666144 2.46337
-1.52915 1.0011 1.41859
-2.40876 1.76174 0.57677
-2.31812 1.24997 0.49979
-1.3005 0.141669 1.79282
-1.8823 1.91661 1.12615
-1.38634 1.2244 1.61393
-2.62336 1.33973 0.26893
-2.2411 0.903145 0.58168
-0.79681 1.48198 2.42521
-2.28736 1.65941 0.63132
-2.08733 0.677019 0.78549
-0.842405 1.71478 2.34329
-1.37519 2.72433 1.84506
-0.942955 1.29044 2.23479
-0.988217 1.29806 2.17151
-0.855719 0.914777 2.35524
-1.57297 1.26991 1.36192
-0.737357 1.55614 2.49623
-1.16227 0.600433 1.93181
-0.529559 1.38464 2.78401
-0.531292 1.83902 2.69338
-1.57209 1.25829 1.36253
-1.9717 0.718534 0.89993
-0.302041 1.6738 2.99767
-2.13647 0.944475 0.68241
-1.92916 1.07154 0.90651
-0.433499 1.32813 2.91068
-1.11741 1.01601 1.99055
-1.83183 1.6873 1.10383
-0.712544 1.93626 2.46367
-0.213511 1.3135 3.17326
-2.17099 1.02707 0.63951
-0.942411 1.04142 2.23719
-1.49492 1.0728 1.46351
-1.72264 1.66398 1.22473
-2.28834 1.31714 0.53623
-1.41107 2.65163 1.80488
-1.00172 1.63197 2.14365
-0.848875 1.65566 2.34119
-1.26134 1.549 1.79751
-1.46324 1.02963 1.50743
-1.97555 0.9069 0.86367
-0.945175 0.712184 2.22437
-1.33013 2.4475 1.81904
-1.03862 1.31496 2.10086
-1.56484 0.912309 1.37496
-2.20459 1.30632 0.61609
-0.711081 1.60478 2.524
-0.114134 1.48857 3.24963
-1.70503 0.856257 1.19722
-0.711639 1.67939 2.51251
-1.31547 0.223389 1.76641
-1.07623 0.667848 2.0464
-1.05805 2.16056 2.05488
-0.427326 1.39304 2.91083
-0.612687 0.946441 2.68521
-1.61259 0.478641 1.37332
-0.726708 1.91605 2.45178
-1.08556 0.747016 2.0344
-0.299276 1.37525 3.06668
-2.4295 1.19413 0.39655
-1.84702 2.1111 1.24383
-2.63237 1.33866 0.26271
-1.19698 2.47928 1.93085
-1.06772 1.04421 2.06073
-0.842871 1.42007 2.36756
-1.2328 1.93853 1.85628
-0.933324 1.84109 2.21758
-1.60643 0.451495 1.3865
-2.00934 0.64643 0.87637
-1.41006 2.50752 1.76864
-1.9616 1.83671 1.01389
-0.485401 1.01061 2.85365
-1.55641 0.444862 1.44754
-1.81244 1.4857 1.08111
-1.38631 2.0225 1.69046
-1.64476 0.268955 1.38939
-1.41799 0.949008 1.57169
-1.58914 1.65519 1.38482
-0.823921 1.82286 2.35282
-2.49152 1.72053 0.49472
-1.79143 1.90268 1.21551
-1.11154 0.378429 1.99899
-0.62738 1.97835 2.54808
-1.60001 2.61263 1.66962
-1.84499 1.93756 1.17245
-0.839166 1.57955 2.3609
-1.91267 2.05111 1.15457
-1.66174 0.450314 1.32165
-1.89306 2.17051 1.23069
-2.07684 2.106 1.03748
-0.58419 1.00469 2.7255
-1.03525 0.954898 2.10603
-1.41326 0.512419 1.61283
-1.35938 0.770584 1.66023
-2.44725 1.63608 0.4895
-1.83646 1.9699 1.19381
-2.0815 1.72604 0.85051
-1.8166 2.07765 1.25785
-0.530443 1.8119 2.70173
-1.43869 0.858477 1.54763
-1.91211 1.69996 1.01821
-0.38369 1.29891 2.97479
-0.762289 2.05508 2.38301
-2.38657 1.35407 0.45384
-1.72592 2.36992 1.46976
-2.33468 1.59633 0.5661
-1.17078 0.446128 1.92429
-1.1227 0.855104 1.98333
-1.33283 1.91241 1.73612
-1.30616 2.68513 1.8783
-2.02952 0.888374 0.80505
-2.18797 1.79595 0.77854
-2.27543 1.21053 0.53649
-0.160846 1.4894 3.20023
-1.51164 1.24636 1.44315
-0.800728 0.899581 2.43006
-0.961064 1.33555 2.20859
-2.47663 1.25623 0.36364
-0.437572 1.44858 2.89041
-1.48028 0.494374 1.5316
-1.31477 2.05999 1.77482
-1.51285 2.58172 1.71605
-0.695722 2.05965 2.45309
-1.77221 1.63043 1.15846
-0.793869 0.71176 2.42679
-1.66734 1.67322 1.29287
-1.57719 2.65037 1.69965
-2.06669 1.75975 0.87817
-1.44328 0.607376 1.56323
-0.815754 2.07056 2.32235
-1.66644 1.65372 1.28992
-1.61712 0.946187 1.30379
-0.970299 1.00148 2.19766
-2.23842 1.97556 0.82826
-1.85599 0.802347 1.01795
-1.16113 0.394155 1.93768
-1.32455 2.13093 1.7738
-2.28579 1.44013 0.56282
-0.824649 1.88589 2.34295
-0.8126 2.22073 2.29606
-1.92721 0.916106 0.91871
-1.1717 2.24653 1.94014
-0.869055 1.54907 2.3239
-0.997607 2.10194 2.12212
-1.35121 0.494819 1.69313
-1.10571 2.3728 2.00444
-2.03755 0.960032 0.78801
-2.34351 1.79899 0.64687
-0.787604 0.668074 2.43098
-1.40168 1.69438 1.62573
-1.42308 0.611704 1.58883
-0.76282 1.69542 2.44602
-1.08106 1.97395 2.03437
-0.286088 1.56565 3.04475
-1.21412 2.5706 1.92508
-0.601394 1.78854 2.62541
-1.36527 1.8067 1.68445
-0.680859 1.79708 2.52947
-1.87935 1.14309 0.966
-0.660275 2.00873 2.50423
-1.06693 1.22793 2.0617
-1.32739 2.13915 1.77199
-1.42007 1.27481 1.56891
-1.33638 0.595596 1.70308
-1.66123 2.31025 1.49803
-0.944751 2.29394 2.15689
-1.3367 1.12744 1.6818
-0.869557 2.09967 2.25975
-1.13591 2.51137 1.98046
-1.2455 1.32641 1.81189
-1.48712 1.33565 1.48059
-1.3296 2.25979 1.78799
-2.43073 1.65543 0.51047
-1.03775 1.59567 2.09714
-1.59293 1.91538 1.43656
-1.49767 0.855302 1.46837
-2.29453 1.21608 0.51874
-1.03722 1.28198 2.10314
-1.9908 1.33044 0.84823
-0.312004 1.68601 2.9831
-1.74449 2.0653 1.32345
-0.461642 1.32577 2.87582
-1.56759 0.798903 1.38045
-0.834322 1.79063 2.34438
-1.31496 1.09629 1.71218
-0.458226 1.50552 2.85591
-1.10958 2.47382 2.00092
-0.0544331 1.41201 3.32802
-1.84123 1.8344 1.13877
-1.58318 2.02806 1.4774
-0.558225 0.857657 2.74946
-1.08716 1.58396 2.03147
-1.22776 0.922456 1.83614
-0.853379 1.47361 2.35008
-1.59304 0.797249 1.34741
-1.45755 0.224648 1.60666
-2.11924 1.49439 0.73944
-0.81021 0.66951 2.40142
-1.27995 1.91646 1.79896
-1.32614 1.34413 1.70066
-0.974089 2.09451 2.1481
-0.952289 1.29429 2.22171
-1.04551 1.4476 2.08959
-2.54571 1.37985 0.33203
-1.62948 1.27544 1.28757
-1.81775 1.19983 1.04314
-1.62792 1.8585 1.38245
-1.99847 1.96663 1.03401
-2.11965 1.41624 0.72158
-1.10386 0.498871 2.00881
-2.18316 0.811978 0.65516
-1.13387 2.29371 1.97806
-1.17894 1.87668 1.91737
-0.596734 1.10864 2.71098
-2.35247 1.44668 0.50423
-2.0248 1.69006 0.89511
-0.657829 1.04641 2.62895
-0.928148 1.66289 2.23809
-0.309663 1.23402 3.06918
-1.22085 1.74076 1.85959
-0.903548 1.41497 2.28521
-2.55453 1.3486 0.31888
-1.04365 1.11729 2.09481
-1.12377 1.51001 1.98228
-0.365581 1.34255 2.99222
-2.07971 1.79884 0.88126
-0.923941 1.04033 2.26306
-1.30811 0.338697 1.76219
-1.4982 0.825986 1.46978
-1.52667 1.81106 1.48986
-1.82481 0.542202 1.10962
-1.10769 2.27995 2.00291
-0.26322 1.55568 3.0727
-1.14353 2.12353 1.96499
-1.54001 1.95429 1.50541
-1.10242 2.25964 2.00807
-1.4983 0.863038 1.46699
-1.45835 2.77447 1.81301
-2.03028 0.946922 0.79738
-1.69387 1.74959 1.27888
-2.25291 1.34917 0.57516
-1.54001 0.431144 1.46988
-0.927399 1.89519 2.21976
-2.00505 1.39989 0.84248
-1.53238 2.25606 1.59485
-1.03466 0.891782 2.10623
-1.59851 2.62355 1.67516
-0.480861 1.79887 2.76159
-1.45099 0.372879 1.58682
-0.657524 1.14959 2.62977
-0.302649 1.49349 3.04223
-0.54979 1.27808 2.76724
-0.653374 0.920476 2.62983
-2.03618 1.67239 0.87739
-1.33266 1.98363 1.74509
-2.21068 0.939957 0.6068
-1.80558 2.33406 1.38796
-1.27423 0.889936 1.77208
-1.54428 1.11195 1.39642
-1.85595 1.70935 1.08296
-1.75231 1.50987 1.15814
-2.36688 1.67238 0.56886
-1.32992 1.85977 1.73355
-2.77179 1.40302 0.19423
-1.56728 0.302677 1.46627
-2.00984 1.03747 0.814
-0.812961 0.851908 2.41101
-1.93399 2.16888 1.19409
-1.51418 1.75964 1.49536
-0.417858 1.56396 2.8932
-1.61369 0.750085 1.32611
-1.31386 0.556394 1.73541
-1.34772 0.603806 1.6876
-1.74131 1.04442 1.13841
-1.94959 0.609795 0.95142
-0.910393 0.58231 2.26287
-1.46222 2.1833 1.64285
-0.528534 1.67738 2.73688
-1.00662 0.431321 2.13044
-1.03873 2.37266 2.06386
-0.546756 1.52818 2.74301
-1.64484 1.71048 1.32781
-1.50325 2.28678 1.6308
-2.53648 1.60991 0.4126
-1.21033 0.509577 1.87177
-0.798111 1.22568 2.43706
-1.17194 2.24267 1.93972
-0.802821 1.397 2.42319
-1.38301 0.640872 1.63822
-0.799858 1.68449 2.40069
-1.53984 1.6566 1.44637
-2.2208 1.23624 0.59199
-1.84785 2.25827 1.31437
-1.61146 1.4995 1.33259
-1.57892 0.179018 1.48595
-1.46154 1.46147 1.52396
-0.747398 1.29026 2.50409
-1.37979 2.67011 1.82933
-2.12352 2.07815 0.98244
-2.19209 1.82199 0.78689
-1.79388 2.0988 1.28868
-1.37677 1.84114 1.67475
-1.29126 0.425155 1.77471
-2.19351 1.96486 0.8592
-0.891365 2.02286 2.2469
-1.53713 2.31486 1.60867
-1.79877 2.01191 1.24841
-2.46813 1.55938 0.44356
-1.83909 1.45916 1.04462
-1.92847 0.919713 0.91686
-0.845198 2.10566 2.28467
-1.59197 1.55916 1.36574
-1.23438 1.57315 1.83461
-1.33134 1.83479 1.7291
