ply
format ascii 1.0
comment Created by Open3D
element vertex 400
property double x
property double y
property double z
end_header
0.919981 -2.59042 -1.61593
-1.5231 -1.51762 -2.02291
0.48598 -2.08869 -1.73179
-0.225277 -0.721092 -2.0446
0.519964 -2.84663 -1.52927
0.656054 -2.622 -1.6067
0.402301 -1.04588 -1.93096
0.0717431 -2.19906 -1.71416
-1.50153 -1.64638 -2.01823
-1.9348 -0.998537 -2.2316
1.28672 -2.55792 -1.61907
-0.0994121 -1.58868 -1.82041
-0.920794 -0.891397 -1.9981
-1.30714 -1.5242 -1.95266
-0.954 -1.41622 -1.89394
1.62763 -2.78643 -1.53081
1.07284 -2.48195 -1.6441
-1.54431 -0.800714 -2.11745
0.988344 -1.62923 -1.79572
-0.97761 -0.729866 -2.05672
-0.142878 -2.03185 -1.74955
-0.476526 -1.8981 -1.78767
-1.01976 -1.37585 -1.90785
0.0506571 -1.60113 -1.81747
0.881904 -1.63584 -1.8008
-0.079995 -2.26195 -1.70788
-0.220695 -0.705373 -2.0511
-0.835546 -2.49027 -1.79681
-0.576723 -1.09423 -1.92772
-0.659165 -2.6445 -1.72862
0.991548 -2.85154 -1.52538
-0.829076 -1.28144 -1.90143
0.133148 -0.926028 -1.97007
-1.2206 -1.38935 -1.94094
-0.0193394 -1.05951 -1.93244
-0.0957635 -1.31966 -1.87113
-1.46823 -1.88386 -2.02125
-0.595667 -2.60292 -1.71736
0.88102 -2.10731 -1.7262
0.258539 -1.03694 -1.93659
-0.691961 -1.05487 -1.94131
-0.0748614 -2.75368 -1.59423
-1.46107 -0.998234 -2.04839
-0.773893 -1.54874 -1.85691
-1.29938 -1.57644 -1.94876
0.583116 -1.07102 -1.91723
-0.375481 -2.55456 -1.68163
-0.467051 -1.28407 -1.88266
-0.781728 -2.84523 -1.74702
-0.362923 -1.39657 -1.85848
-1.8214 -0.826705 -2.20604
0.224973 -1.10506 -1.91946
-0.98396 -0.817753 -2.02582
-1.86973 -1.14258 -2.18342
-1.4895 -0.81762 -2.09887
-0.238267 -2.13767 -1.73751
0.462964 -2.66815 -1.59356
0.943309 -2.90077 -1.50455
0.354685 -1.59311 -1.81863
0.221834 -1.32037 -1.87067
-1.31743 -0.694383 -2.10703
0.0711703 -2.70285 -1.59694
-0.0225072 -1.08398 -1.92597
1.08807 -2.84922 -1.52598
-0.123015 -2.75899 -1.5981
-1.41191 -0.903551 -2.05837
-0.543341 -2.71721 -1.68551
0.259954 -2.13331 -1.72386
-0.998541 -1.17123 -1.93732
-0.497916 -2.54736 -1.70428
-0.497499 -2.47081 -1.71598
0.48434 -1.08917 -1.91747
0.673668 -2.37913 -1.67144
-1.88295 -0.898975 -2.21919
-1.32203 -1.40507 -1.96298
0.446651 -2.70709 -1.58119
1.06342 -2.34397 -1.67644
1.43221 -2.46606 -1.63451
-0.707185 -1.9966 -1.80263
-0.230397 -2.66851 -1.63606
-0.816708 -2.30823 -1.80165
-0.794753 -2.67728 -1.76957
-1.02449 -2.08368 -1.86539
-0.388286 -2.23433 -1.73523
-1.47844 -1.4523 -2.00695
0.640688 -1.67234 -1.80259
0.511316 -2.23965 -1.70214
-0.955916 -1.91436 -1.85317
0.679883 -2.07089 -1.73479
0.755091 -2.69514 -1.58332
-1.22112 -2.18746 -1.93749
-0.874564 -1.50553 -1.87315
0.0572474 -0.962732 -1.95957
-1.15565 -1.16071 -1.95946
-0.859517 -2.31453 -1.81279
0.74534 -2.14243 -1.72112
-1.18479 -1.66642 -1.91567
1.11877 -2.68857 -1.58423
-0.178007 -2.92022 -1.55362
-1.1023 -1.71463 -1.89416
-0.853146 -2.16134 -1.81853
-0.877725 -2.0039 -1.83221
-0.396376 -0.889438 -1.98326
0.686374 -2.43192 -1.65876
1.20193 -2.28729 -1.6838
-0.586418 -2.19271 -1.76543
-1.32745 -1.51445 -1.95861
0.0133431 -2.58123 -1.63434
-0.270419 -2.39137 -1.69818
-0.503029 -0.861195 -1.99341
0.70162 -1.65188 -1.80466
-1.26263 -1.44756 -1.94555
-1.3229 -0.833635 -2.06063
-0.176671 -1.00305 -1.94812
-0.262994 -2.60902 -1.65427
0.541495 -2.60512 -1.61215
-1.05594 -1.3229 -1.91997
-1.20379 -0.869301 -2.03221
-0.0167796 -0.687418 -2.05793
-0.00830143 -2.87004 -1.54866
0.110733 -1.25437 -1.88503
1.56365 -2.65667 -1.57685
-0.845891 -1.14442 -1.92903
-0.852474 -2.97016 -1.76742
-1.05295 -2.48476 -1.87988
0.459725 -0.801406 -1.99982
-0.270355 -1.37628 -1.86082
1.44535 -2.82535 -1.52767
-1.19389 -2.24206 -1.92947
1.6159 -2.75888 -1.54113
-1.11274 -2.44402 -1.90541
-0.814439 -2.7009 -1.77509
0.531518 -2.28444 -1.6927
0.414768 -1.21566 -1.89073
0.955139 -2.16971 -1.71346
-0.233161 -1.65919 -1.81063
0.524532 -1.7543 -1.79026
-1.1617 -1.37891 -1.93042
1.00018 -1.87601 -1.7604
-1.36093 -0.747556 -2.09483
-0.679289 -0.664674 -2.07117
1.17851 -1.99381 -1.73386
0.608487 -0.987568 -1.93598
-0.249418 -2.64262 -1.64481
-1.30769 -1.72534 -1.94991
-0.978706 -0.69093 -2.07215
-1.38599 -1.04221 -2.02266
-0.0656549 -0.731847 -2.03992
-1.22297 -1.57109 -1.92893
-0.300188 -2.72477 -1.63268
1.6694 -2.88211 -1.49152
0.95207 -1.99481 -1.74382
0.97976 -1.6982 -1.78675
-0.0140644 -2.32832 -1.69223
0.192637 -1.13906 -1.91137
-1.74463 -0.823782 -2.17498
-0.128962 -0.716047 -2.04655
1.48969 -2.49668 -1.62358
0.0195939 -0.714786 -2.04618
1.21446 -2.20352 -1.69867
0.60423 -1.84777 -1.77404
-0.490605 -0.817298 -2.00846
-0.0290409 -0.714235 -2.04683
-0.243577 -2.65996 -1.63991
-0.369987 -1.5971 -1.82438
0.9463 -2.78944 -1.54983
0.156363 -0.816834 -2.00564
-0.873553 -2.95437 -1.78092
0.501721 -2.16637 -1.71691
-0.421294 -0.774438 -2.02378
1.05743 -2.2295 -1.69981
0.837547 -2.74248 -1.56703
0.365482 -1.59112 -1.81895
0.800374 -2.0367 -1.73988
-0.0283903 -2.50603 -1.6552
0.232737 -2.32665 -1.68545
-0.265646 -2.22661 -1.72539
-1.05819 -2.0359 -1.87549
0.1147 -1.49541 -1.83652
-0.816942 -1.2446 -1.90711
-0.0050346 -2.06744 -1.73948
-0.537741 -1.22462 -1.8969
-0.222831 -1.2942 -1.87695
-0.964649 -1.78792 -1.86162
-0.301213 -2.43347 -1.69393
-1.09645 -1.61401 -1.89824
-1.86959 -1.04292 -2.19096
-1.66466 -0.807438 -2.15091
0.815259 -1.61527 -1.8068
-1.70508 -0.803228 -2.16592
0.858124 -2.40371 -1.66532
1.07356 -1.91662 -1.75095
0.57789 -0.97423 -1.94141
-0.232829 -2.68038 -1.63347
-0.707404 -2.54849 -1.75355
-0.575783 -2.3803 -1.74228
0.236697 -2.82799 -1.54533
-0.148613 -1.91793 -1.76774
-1.52875 -0.997429 -2.06615
0.94951 -1.7312 -1.78371
0.978961 -2.01065 -1.74043
-0.419187 -2.10833 -1.75565
-0.562284 -2.45127 -1.73078
-0.657588 -1.06954 -1.93635
-0.476413 -2.41806 -1.72019
-0.0344856 -2.93067 -1.5288
-0.687442 -2.7351 -1.72519
-0.382417 -1.09354 -1.92444
0.193917 -1.73955 -1.79329
0.389453 -2.80388 -1.54849
-0.149291 -0.921616 -1.97257
-0.737088 -2.67864 -1.74894
-1.28858 -1.38938 -1.95599
-1.32524 -0.755959 -2.08587
0.552307 -1.24775 -1.88021
0.729338 -2.84282 -1.52912
-0.91332 -1.10633 -1.94238
-0.805013 -2.94251 -1.74559
-1.3656 -1.93663 -1.98018
0.851229 -2.00719 -1.74417
-1.00393 -2.20929 -1.8582
-0.768356 -1.70518 -1.8384
-0.204205 -0.671536 -2.06555
-0.0766079 -2.47399 -1.66559
-0.786649 -1.44304 -1.87229
-0.0357725 -1.54592 -1.82753
0.651747 -2.81099 -1.54198
0.409669 -2.83817 -1.53491
-1.04474 -1.27067 -1.92598
-0.392614 -1.17528 -1.90476
-0.417858 -2.24275 -1.73723
-0.300329 -2.30152 -1.71629
-0.322073 -0.706452 -2.05065
0.914975 -2.76332 -1.55953
-0.277327 -2.28072 -1.71762
0.023278 -2.87199 -1.54467
-0.715069 -2.8783 -1.71404
1.0214 -2.20081 -1.70617
0.169041 -1.19005 -1.89941
-0.0671398 -1.45746 -1.84385
-0.319146 -2.07257 -1.75255
-1.32711 -1.23061 -1.98081
-0.923199 -2.87205 -1.81461
0.24077 -2.40158 -1.66874
-1.48741 -1.70416 -2.01541
-0.0898026 -2.17589 -1.72359
-0.0788848 -1.68954 -1.8031
-0.797715 -1.15155 -1.92427
1.31454 -2.54637 -1.62107
-0.552844 -2.27682 -1.75078
1.13597 -2.04533 -1.72856
-0.535365 -2.97794 -1.62412
0.00578413 -1.29336 -1.8766
-0.664192 -1.61444 -1.83853
-0.739259 -2.58609 -1.75916
-0.369661 -0.891035 -1.98262
-0.249948 -2.77704 -1.6107
-0.802064 -0.698885 -2.06007
-1.52988 -0.839754 -2.10258
0.530054 -2.12955 -1.72406
1.29513 -2.78038 -1.54947
-1.02955 -2.06975 -1.86699
1.43694 -2.66394 -1.58266
-0.301737 -1.42687 -1.85173
-1.4532 -1.1167 -2.02623
-0.837773 -2.61714 -1.79005
0.049554 -2.4398 -1.666
-1.05899 -2.3143 -1.87798
-0.301461 -2.42565 -1.69536
-0.0368403 -2.86818 -1.5525
0.381675 -0.952434 -1.95684
0.511804 -1.75994 -1.78938
-0.620423 -1.45597 -1.85808
-0.953675 -2.70964 -1.83564
-0.705876 -0.769157 -2.0296
-0.75869 -2.89714 -1.72987
0.978438 -1.59056 -1.80168
-0.602271 -2.93402 -1.65922
-1.59648 -1.19009 -2.06078
0.33345 -1.27336 -1.87969
-0.542224 -1.89911 -1.79315
0.8661 -2.63962 -1.60119
-0.570006 -2.64197 -1.7051
0.0904531 -2.27453 -1.69919
-1.41912 -1.44811 -1.98785
1.28266 -2.42994 -1.65062
0.891096 -2.00298 -1.74406
0.514017 -1.67346 -1.80395
-0.696309 -2.43042 -1.76233
-1.67294 -1.42744 -2.08399
-0.82291 -2.68605 -1.77958
-1.72455 -1.38057 -2.10713
0.25178 -2.76114 -1.56843
-0.0729593 -1.7796 -1.7882
-1.48826 -1.64691 -2.01289
1.02772 -2.7381 -1.56824
-1.24693 -1.45812 -1.94115
-1.05183 -2.4792 -1.87921
0.281421 -1.16328 -1.90473
1.42229 -2.52922 -1.6202
-1.16798 -1.59074 -1.915
0.59088 -1.98512 -1.75051
-1.13177 -0.995646 -1.98982
1.26967 -2.1893 -1.69811
-1.28826 -1.18713 -1.97843
-0.531405 -1.73901 -1.81215
1.55566 -2.7186 -1.5587
0.447952 -1.78333 -1.78565
-0.902862 -1.15573 -1.93115
0.870569 -2.32489 -1.68322
-1.29451 -0.910787 -2.03442
0.21047 -2.8379 -1.54303
-0.141209 -2.25797 -1.71181
0.55254 -1.16398 -1.89775
0.402294 -2.49023 -1.64492
0.186811 -2.17017 -1.71756
-0.359514 -2.9449 -1.58241
-0.612383 -0.819792 -2.00919
-0.710932 -0.732283 -2.04387
-0.665119 -3.00615 -1.66779
1.3558 -2.89845 -1.5013
1.26301 -2.61423 -1.6042
-1.25805 -1.22418 -1.96727
0.690766 -1.32817 -1.85924
0.169324 -1.264 -1.8828
0.0762968 -2.13174 -1.72642
-1.55101 -1.16094 -2.04858
-1.67393 -1.51433 -2.08811
-1.45071 -0.753257 -2.11032
0.0638942 -1.89789 -1.76701
0.143932 -2.35472 -1.68129
-0.895027 -2.69472 -1.80898
-0.639939 -0.865169 -1.99436
-0.816935 -2.62899 -1.78157
-0.176798 -0.81032 -2.01021
-0.992516 -2.3885 -1.85391
-0.420877 -1.78959 -1.79828
-1.13164 -1.70623 -1.90131
-1.02647 -1.71087 -1.87826
-1.93823 -0.883967 -2.25172
-0.214444 -1.06693 -1.93054
0.228551 -0.988508 -1.95037
0.911864 -2.51637 -1.63668
0.517864 -2.72244 -1.57511
0.530768 -2.4494 -1.65452
-0.113703 -1.17847 -1.90247
-0.606676 -1.1478 -1.91595
-0.43241 -2.17801 -1.74767
-0.797737 -1.79361 -1.83364
-0.0211708 -2.33395 -1.69143
-0.363333 -2.0519 -1.75865
-1.72023 -1.01794 -2.12633
-0.131635 -2.36336 -1.6919
1.13959 -2.15216 -1.711
0.115676 -2.6188 -1.61849
0.959084 -2.16122 -1.71495
0.0395414 -0.768573 -2.02485
0.945918 -2.84961 -1.52622
-1.155 -1.00074 -1.9916
0.555553 -1.54508 -1.82529
0.351736 -1.28937 -1.87612
0.118596 -1.05384 -1.93356
0.117832 -2.12855 -1.72627
-0.845141 -0.779874 -2.03068
-0.0989667 -0.763645 -2.02756
0.249842 -1.91001 -1.76398
-0.782095 -0.775391 -2.0297
0.974322 -2.78042 -1.55316
-0.774529 -0.876918 -1.99481
-0.680802 -1.91289 -1.80683
0.929202 -1.53755 -1.81238
1.1238 -2.71211 -1.57639
-0.712028 -2.1306 -1.79184
0.276486 -2.85845 -1.5318
1.6455 -2.85126 -1.50563
-1.62103 -1.56332 -2.06588
-0.683864 -1.85533 -1.81296
-0.0933664 -2.73026 -1.6031
-0.44296 -1.24963 -1.88921
0.76644 -2.59304 -1.61533
-1.12725 -1.47612 -1.91461
0.950917 -2.52441 -1.63431
1.0319 -2.05712 -1.73108
-1.46163 -1.63073 -2.00191
0.0349523 -2.17872 -1.71885
-1.13931 -0.874627 -2.02264
-1.19205 -1.56705 -1.92177
1.18469 -2.50051 -1.63709
-1.18597 -1.04923 -1.98519
0.6262 -2.19051 -1.71211
0.497796 -2.75062 -1.56561
-1.54798 -1.07253 -2.05905
-0.454076 -1.03994 -1.93924
-1.28867 -1.91272 -1.94843
1.36348 -2.30931 -1.67108
-0.317357 -1.18275 -1.90222
0.443031 -2.30854 -1.6876
-0.799271 -2.16768 -1.80608
-1.42953 -0.969488 -2.04689
-0.393399 -0.883879 -1.98507
