ply
format ascii 1.0
comment Created by Open3D
element vertex 400
property double x
property double y
property double z
end_header
1.79676 -2.27761 1.20596
2.62672 -2.06488 0.697023
1.91627 -1.73369 1.16724
2.65062 0.36853 0.866121
1.79275 -2.27394 1.20974
1.03913 -0.490895 1.87886
1.39913 -1.49832 1.53501
2.22268 -0.841068 0.985346
2.25968 -0.94828 0.964727
2.58208 -0.165916 0.826834
2.88217 -1.50303 0.710338
2.76374 -0.56688 0.757276
2.90837 -1.30242 0.71801
1.0927 -1.79515 1.73954
1.53796 -2.4205 1.39347
1.31083 -1.45442 1.5961
1.42839 -0.616533 1.54747
1.54018 -1.44437 1.43586
2.91139 -1.24171 0.719877
2.91801 -1.85422 0.655467
2.34202 -1.92426 0.874458
1.50445 -0.705169 1.4802
2.69283 -0.785122 0.777117
1.21527 -2.89735 1.56636
1.46934 -2.55841 1.42745
2.30103 -1.60851 0.929662
2.91674 -1.15535 0.721525
1.53888 -2.40418 1.39504
2.03881 -0.215597 1.12603
1.76405 -1.19719 1.27843
2.81726 0.272328 0.792928
2.78642 -0.587585 0.751421
1.28544 -1.48285 1.61336
2.35777 0.331379 1.00945
1.6065 -1.37682 1.38897
2.6685 -0.722303 0.784782
2.28892 -2.23741 0.840877
2.65766 -0.156652 0.799243
2.5305 -0.846336 0.835079
1.87309 -1.18557 1.2037
2.52428 0.20557 0.890912
1.45213 -2.17295 1.48449
1.77658 -0.0117945 1.36926
1.86626 -1.96661 1.18901
1.81758 -0.0933664 1.31458
1.02815 -0.876692 1.8128
2.26827 -1.52298 0.952374
1.93557 -2.27151 1.09669
2.82892 0.314889 0.796909
2.5154 -1.71754 0.810846
1.1874 -1.40867 1.67955
2.16924 -2.22773 0.928205
1.07028 -2.3624 1.74377
1.47625 -2.19638 1.46488
2.93364 -1.50418 0.701103
2.52736 -0.449027 0.838812
2.64819 -0.0328734 0.810762
2.35681 -0.850034 0.913914
1.95365 -1.96357 1.126
1.37949 -2.35914 1.52488
2.82543 0.299679 0.795233
2.65974 -1.02219 0.787073
2.92836 -0.941831 0.722684
1.05819 -1.35183 1.76392
1.2821 -1.68137 1.61551
1.25327 -0.333641 1.74685
1.07834 -1.72258 1.74853
1.69359 -1.33047 1.3276
2.90273 -1.43925 0.711321
2.6705 -1.01603 0.783609
2.93159 0.280212 0.76953
1.5059 -1.23574 1.46054
2.79874 -0.803323 0.748253
2.39425 -0.0637315 0.921353
1.55039 -2.0997 1.41544
1.6277 -1.19513 1.37424
2.46939 -0.758846 0.86098
2.25566 -1.93309 0.925348
2.56406 0.270426 0.883756
1.01337 -1.04575 1.80634
1.17802 -2.86032 1.60576
1.02604 -2.28368 1.7752
1.79774 -1.33455 1.25509
1.02384 -2.65227 1.7522
1.76423 -0.121205 1.35331
1.31893 -1.72776 1.59033
2.4487 0.144533 0.918871
2.2015 0.0857579 1.05748
2.60026 -0.47618 0.80975
1.85462 -1.03374 1.21646
1.57167 -2.20359 1.39166
2.24053 -0.276359 0.990225
1.34246 -2.86628 1.46516
1.49146 -0.970341 1.4756
2.60166 -0.681559 0.807778
2.30367 -0.886966 0.941159
1.41469 -1.68111 1.52399
1.79464 -0.939681 1.2586
1.17228 -2.88921 1.60368
2.9281 -0.969344 0.722536
2.24796 0.301461 1.07472
1.58379 -0.208731 1.48893
2.1866 -2.1596 0.931451
1.62699 -0.295931 1.43395
2.74698 -1.0602 0.760331
2.22795 -0.106639 1.01263
2.03217 -0.315002 1.12088
1.35459 -2.49423 1.52934
2.76515 -0.544281 0.757021
2.99051 0.53325 0.812133
2.08668 -1.96637 1.03216
2.85373 -1.60843 0.706216
1.92197 -0.733086 1.17453
1.57803 -2.57063 1.33309
1.31057 -1.92991 1.59458
1.43687 -1.79472 1.50765
2.30176 -1.22004 0.941258
2.02231 -1.75341 1.09386
2.28302 -0.642088 0.953357
2.44642 -0.588468 0.872146
1.22297 -1.99106 1.65363
2.97274 -1.0704 0.715302
1.29963 -2.44201 1.57717
1.92937 -2.3767 1.07871
2.51272 -0.987326 0.842256
2.82764 -1.26968 0.735363
2.02132 -0.533102 1.11443
1.98256 -2.19531 1.07434
1.97562 -0.403355 1.15303
2.11234 -1.29879 1.04908
2.81023 -1.41387 0.732548
1.27074 -0.752878 1.653
2.45684 -1.61608 0.847892
2.29643 -0.393675 0.952176
2.05326 -0.904651 1.08639
2.04871 -2.26564 1.00964
1.78907 -0.034521 1.35241
2.31732 -0.784273 0.934166
1.66025 -0.174832 1.43031
1.2108 -1.55565 1.66336
2.653 0.00638517 0.812331
1.20036 -2.6629 1.62484
2.91509 -1.52512 0.702355
2.90738 -1.78578 0.670358
1.37645 -2.64009 1.48936
1.98526 0.0351715 1.20614
2.51043 -0.837412 0.843338
2.89268 0.309847 0.781459
2.57302 -0.367957 0.822245
1.64331 -2.2612 1.33007
2.05327 -0.0923269 1.13167
2.45074 -1.51155 0.857721
1.86826 -1.58199 1.20473
2.64532 -1.54074 0.7739
1.03359 -2.17831 1.77332
2.06938 -0.80333 1.07694
2.76858 -0.545802 0.756123
2.26597 -0.429376 0.967753
1.23593 -0.362576 1.7534
2.24861 -0.139272 0.996568
1.8378 -0.398964 1.25315
2.19816 -0.595504 1.00192
2.8802 -1.84163 0.66567
2.90759 -0.434234 0.727429
1.65672 -2.38608 1.30197
2.49721 0.385451 0.942199
2.7651 -1.07569 0.755261
1.5165 -0.743806 1.46822
1.75475 0.00226981 1.39257
2.34424 -1.59268 0.906942
2.68856 -1.68122 0.744986
2.93212 -0.407923 0.723872
1.42044 -0.587528 1.55724
2.62254 -0.0858993 0.816256
1.91305 -0.0263327 1.25053
2.6098 -0.368452 0.808287
1.64242 -0.200465 1.43997
2.44503 -1.49262 0.861447
2.4703 -0.536913 0.86197
1.20925 -1.52743 1.66444
1.7446 -2.08456 1.26977
2.4994 -1.87862 0.796733
2.11482 -1.75705 1.03259
2.6948 -0.182547 0.785567
1.77786 -2.54362 1.16466
1.87478 -1.88834 1.18844
1.64554 -2.04012 1.34775
1.75116 -0.716879 1.29536
2.50576 -0.19275 0.857388
1.19434 -2.32451 1.66219
2.99217 -0.902226 0.714715
1.97081 -1.41815 1.13793
1.39977 -2.06421 1.52819
1.02236 -1.85437 1.78285
2.19339 0.295344 1.11251
1.68955 -1.11386 1.33087
1.46386 -2.03812 1.48259
1.81704 -1.97419 1.22454
2.19109 -0.566803 1.00672
1.93645 -2.30892 1.08839
1.71332 -1.70759 1.3112
1.35035 -2.20827 1.55747
2.37144 0.347083 1.00505
2.19279 0.125844 1.07116
1.59184 -2.56516 1.32238
2.0104 0.139053 1.2113
2.13704 -0.863031 1.03508
1.47479 -0.764001 1.49827
1.88691 -2.39334 1.10985
2.00535 -2.29832 1.03598
2.41409 -0.194631 0.900592
2.94209 0.0564837 0.74201
1.52809 -0.705198 1.46223
1.7583 -1.0785 1.28276
2.0884 -0.624538 1.06795
2.25134 -1.62504 0.957012
1.88153 -0.20393 1.24359
2.73862 -0.752673 0.763746
1.66176 -2.23451 1.31864
2.19511 -1.95844 0.960484
1.10621 -2.39752 1.71812
1.70962 -0.449628 1.34576
1.82456 -0.51203 1.25345
2.98282 0.572467 0.824083
1.49678 -1.08208 1.46891
2.18954 -2.08509 0.944186
1.53214 -0.537528 1.47514
1.50426 -0.725456 1.47879
1.89066 -0.341257 1.21957
1.13875 -2.85834 1.63721
1.19264 -0.610219 1.73233
2.4915 -2.08055 0.759348
2.41129 -1.86335 0.844498
1.52252 -0.487699 1.48915
1.59836 -0.995811 1.39741
1.49334 -1.49376 1.46892
1.84822 -1.87035 1.20862
1.23442 -1.06745 1.65603
2.29233 -1.68736 0.929244
1.81396 -2.40182 1.16876
2.00576 -0.20569 1.15064
2.25853 -1.2136 0.964713
2.68059 0.395442 0.860224
1.97286 -0.478124 1.15
1.83414 -0.508014 1.24671
1.41939 -1.19973 1.52227
1.80836 -0.984759 1.24857
2.95509 -0.127562 0.72832
1.52793 -2.65186 1.35796
2.46556 -0.967923 0.862578
1.93083 -1.40063 1.16456
2.93357 -1.56498 0.695475
2.34686 0.282906 1.00413
2.00422 -0.238769 1.14791
2.4757 -0.816623 0.858173
2.52805 -0.191067 0.847743
1.15402 -2.19093 1.69542
2.6082 -1.44651 0.793869
1.91931 -1.86733 1.15805
2.52598 -0.394983 0.840587
1.3221 -1.23141 1.59018
1.49807 -0.84734 1.47583
2.48862 -1.55359 0.837462
1.25279 -0.371323 1.73648
2.25455 -2.04679 0.907953
2.86716 -0.785871 0.73356
2.75977 -1.73683 0.71468
1.11119 -0.831084 1.76063
2.37623 -1.73694 0.87841
1.38607 -2.80236 1.44447
2.91199 -0.857091 0.725569
2.10336 -0.986994 1.0552
1.82638 -2.53745 1.12339
1.15166 -2.87988 1.62234
2.65889 -1.94645 0.712552
2.31501 -1.14652 0.934831
1.14648 -1.44876 1.70604
1.72117 -1.89727 1.29946
2.51687 -0.849136 0.840665
1.25284 -1.01628 1.64555
2.70412 -1.46307 0.759362
1.52353 -1.08806 1.44959
1.77093 -2.36688 1.21149
1.3932 -0.677465 1.56798
1.11197 -2.19062 1.72316
1.75047 -1.91642 1.27707
2.19722 -0.0154079 1.04381
2.12758 -1.8008 1.02108
1.19055 -2.14153 1.67238
1.97155 -0.625054 1.14416
1.80114 -0.939045 1.25408
1.26787 -1.33733 1.62615
2.20827 -0.965865 0.993372
2.60176 -0.498178 0.808909
1.02525 -1.61899 1.7813
2.07019 0.0445689 1.14293
2.50141 -0.321776 0.853336
2.54059 -0.442493 0.833495
2.61576 -1.35627 0.795332
2.39002 -1.20743 0.896343
1.53497 -1.64974 1.43915
2.1124 -1.06491 1.04969
2.9025 -1.8355 0.662198
2.74519 -1.55957 0.739323
2.02673 -2.30578 1.01739
2.386 0.362286 1.00012
1.58531 -2.45019 1.35014
1.78591 -0.840785 1.26648
1.69433 -0.25383 1.38558
2.1453 -0.701096 1.03146
1.8811 -2.14328 1.15959
1.80305 -0.172555 1.31097
1.92061 -2.06955 1.13901
1.71631 -0.0415849 1.41456
2.49266 -1.86338 0.802467
2.01403 -1.35214 1.11038
2.23722 0.206058 1.05794
2.80897 -1.68596 0.707793
2.20049 0.110938 1.06292
1.19775 -0.684593 1.7165
2.23563 -1.47874 0.972611
1.93905 -0.0355533 1.22781
2.79857 -1.58146 0.722366
1.79721 -2.54483 1.14714
2.41106 -1.74925 0.858696
2.99216 -1.53669 0.690157
1.90445 -1.94947 1.16266
1.86227 -0.0228113 1.29303
1.13875 -1.15737 1.71757
2.35074 -0.434241 0.921749
1.22397 -1.87544 1.65411
1.27053 -2.39112 1.60329
1.66989 -2.22037 1.31385
2.454 -0.70676 0.867952
2.8116 -0.534311 0.745651
2.25502 -1.80396 0.940989
1.66121 -0.10473 1.44661
2.85456 -0.801095 0.736027
1.95276 -0.871078 1.15156
1.22807 -1.02523 1.66251
1.76929 -0.30284 1.31716
2.12001 -1.27225 1.0446
2.26605 0.126431 1.02238
1.81858 -1.60421 1.23877
2.57132 -0.935828 0.818943
1.7656 -1.69071 1.27434
2.01413 0.144766 1.20981
1.95377 -0.951306 1.15031
2.13735 -1.44946 1.03167
1.89322 -0.643481 1.19717
1.05754 -1.33769 1.76464
2.21712 -0.105939 1.01946
2.33711 -0.836684 0.92387
2.01954 -1.75962 1.09536
2.45879 0.30955 0.944673
1.04321 -0.680145 1.83177
2.50029 0.370064 0.936683
2.22261 0.202855 1.06725
1.84305 -2.43728 1.13609
2.87202 0.524631 0.831996
1.16307 -2.40814 1.67864
2.20477 -1.54848 0.988083
1.16605 -0.41271 1.7983
1.73518 -1.0219 1.29939
1.38997 -0.634628 1.57531
2.48552 -1.33866 0.849044
1.44705 -0.324025 1.58105
1.23083 -0.645292 1.69717
1.19128 -1.44526 1.67669
1.38898 -0.550263 1.58731
1.24212 -0.931309 1.65826
1.80326 -2.07866 1.22595
1.00107 -0.511266 1.90253
2.29679 -0.147913 0.967322
2.09491 -2.02102 1.01953
1.30457 -2.79957 1.51562
2.88076 -1.7736 0.677825
1.28167 -1.00348 1.62577
1.11274 -0.758853 1.76873
1.90592 -1.72069 1.17494
1.17396 -2.80819 1.62005
2.81253 -1.42037 0.731587
1.03748 -0.624587 1.84702
2.36542 -1.9508 0.856653
2.2423 -0.157628 0.998633
1.54062 -2.55948 1.36744
2.34179 -0.581906 0.923114
1.3718 -1.25012 1.55518
2.02248 0.084174 1.18795
2.0112 -1.99933 1.08119
1.62295 -2.49667 1.31016
1.19931 -1.12694 1.67781
1.67631 -0.264281 1.39864
1.14003 -1.78254 1.70947
1.63141 -2.47192 1.30785
2.1911 -1.62895 0.992552
1.02244 -0.886578 1.8155
1.00868 -2.01166 1.79063
1.39184 -1.7592 1.53963
2.92064 -0.424504 0.725435
