ply
format ascii 1.0
comment Created by Open3D
element vertex 400
property double x
property double y
property double z
end_header
-1.98045 2.05907 0.46626
-0.65045 2.65908 -0.48218
-0.95979 2.82793 -0.08911
-1.94497 2.46114 0.80706
-0.66674 2.86535 -0.38027
-2.22772 1.29045 -0.04899
-0.70861 2.80805 -0.35384
-1.18327 1.9524 -0.46041
-0.86497 2.03781 -0.75434
-1.91115 1.8384 0.17648
-1.82578 1.44908 -0.30012
-1.81524 2.16219 0.38198
-0.22728 2.98925 -0.90157
-1.32991 2.60924 0.19272
-0.65689 2.88636 -0.38494
-0.80292 2.97322 -0.21283
-1.98217 2.40134 0.80447
-2.48741 1.79262 0.78584
-0.77904 2.65699 -0.34277
-0.32786 2.58662 -0.96531
-2.02406 2.02857 0.48479
-1.50715 1.47249 -0.63229
-1.20914 2.5773 0.05413
-1.27038 1.7485 -0.58578
-1.26848 2.00072 -0.32016
-1.55096 2.2895 0.21093
-0.48242 2.59552 -0.72483
-0.79522 2.58288 -0.36489
-1.2351 1.53624 -0.92638
-0.91109 2.13628 -0.58607
-1.56776 2.20103 0.15776
-1.81419 2.78867 0.85193
-1.19962 1.81585 -0.5917
-1.81872 2.35279 0.55085
-2.65765 1.71029 0.9218
-2.05223 1.58002 0.06149
-0.7199 2.08635 -0.90606
-0.77115 2.32956 -0.57142
-1.50072 1.62879 -0.45707
-2.3451 1.25727 0.03669
-1.42415 1.63156 -0.54114
-0.93051 2.76817 -0.13885
-0.76645 2.80723 -0.29311
-2.00601 2.08822 0.52435
-2.9703 1.27243 0.74279
-1.75739 1.64969 -0.16454
-1.25143 2.34459 -0.04973
-0.98927 2.86239 -0.04948
-1.91727 1.90975 0.25244
-1.78207 1.31213 -0.4935
-0.64992 2.2199 -0.84144
-1.34812 2.30342 0.01695
-1.45526 2.15059 0.0031
-1.90831 2.18448 0.50545
-1.48916 2.80606 0.44826
-1.36163 2.85373 0.32624
-1.6371 2.67918 0.56106
-2.39311 1.12195 -0.04083
-2.09937 1.97282 0.51283
-1.9876 1.71659 0.13327
-2.62532 1.49544 0.5824
-1.81281 2.6876 0.79165
-1.69904 1.99406 0.11
-1.81027 2.20358 0.41333
-2.10893 1.61021 0.14888
-1.60817 2.63027 0.50096
-1.50473 1.59729 -0.48791
-2.62107 1.57572 0.67642
-1.30663 1.71941 -0.57674
-2.55916 1.63302 0.67045
-1.38811 2.27192 0.03319
-2.23924 1.19087 -0.132
-0.62837 2.41704 -0.67236
-0.62041 2.18572 -0.93181
-2.33224 1.41858 0.18161
-1.47043 2.71524 0.39078
-1.98317 1.08351 -0.50643
-1.73127 1.22662 -0.65121
-1.09713 2.02663 -0.48099
-0.77554 2.09731 -0.8066
-2.17476 1.41025 0.0149
-0.99278 2.19936 -0.4326
-2.12337 2.04065 0.61398
-1.6924 1.64882 -0.23172
-2.46337 1.01033 -0.06826
-1.41859 1.78916 -0.37339
-0.57677 2.94899 -0.45751
-0.49979 2.52302 -0.75529
-1.79282 1.01977 -0.81942
-1.12615 2.68623 0.02426
-1.61393 1.84607 -0.11451
-0.26893 2.80233 -0.90766
-0.58168 2.22332 -0.94608
-2.42521 1.61135 0.48449
-0.63132 2.79079 -0.44403
-0.78549 1.95469 -0.99724
-2.34329 1.8082 0.61686
-1.84506 2.8988 0.95399
-2.23479 1.57925 0.24571
-2.17151 1.61664 0.21909
-2.35524 1.25193 0.04176
-1.36192 2.01022 -0.2143
-2.49623 1.62175 0.57897
-1.93181 1.24642 -0.39728
-2.78401 1.35354 0.60463
-2.69338 1.67606 0.9247
-1.36253 2.00138 -0.22189
-0.89993 1.90228 -0.88612
-2.99767 1.39713 0.96998
-0.68241 2.17856 -0.84287
-0.90651 2.12181 -0.60643
-2.91068 1.24566 0.6326
-1.99055 1.50856 -0.0717
-1.10383 2.4884 -0.1022
-2.46367 1.87299 0.8653
-3.17326 1.07976 0.77781
-0.63951 2.26137 -0.80888
-2.23719 1.40278 0.07001
-1.46351 1.81565 -0.29848
-1.22473 2.3947 -0.04148
-0.53623 2.54946 -0.68674
-1.80488 2.87276 0.87721
-2.14365 1.8623 0.44565
-2.34119 1.77097 0.57048
-1.79751 1.98721 0.2034
-1.50743 1.76272 -0.30661
-0.86367 2.0382 -0.75565
-2.22437 1.17193 -0.16475
-1.81904 2.67119 0.7901
-2.10086 1.66423 0.1954
-1.37496 1.75161 -0.46141
-0.61609 2.48259 -0.63517
-2.524 1.63756 0.63194
-3.24963 1.13328 0.97187
-1.19722 1.8111 -0.60017
-2.51251 1.69071 0.6843
-1.76641 1.08814 -0.77222
-2.0464 1.23325 -0.28877
-2.05488 2.2759 0.77959
-2.91083 1.28719 0.68286
-2.68521 1.10247 0.236
-1.37332 1.47872 -0.80182
-2.45178 1.86871 0.84099
-2.0344 1.29583 -0.23939
-3.06668 1.18407 0.76083
-0.39655 2.56229 -0.87354
-1.24383 2.79881 0.18673
-0.26271 2.80794 -0.91479
-1.93085 2.59951 0.90672
-2.06073 1.49336 -0.01663
-2.36756 1.60014 0.40814
-1.85628 2.24247 0.49903
-2.21758 1.96181 0.64189
-1.3865 1.45517 -0.81666
-0.87637 1.87791 -0.96372
-1.76864 2.77015 0.77602
-1.01389 2.68581 -0.08831
-2.85365 1.05784 0.37138
-1.44754 1.41511 -0.78598
-1.08111 2.33214 -0.23104
-1.69046 2.41039 0.44985
-1.38939 1.3532 -0.97284
-1.57169 1.67372 -0.33162
-1.38482 2.29409 0.0467
-2.35282 1.87156 0.70636
-0.49472 2.97837 -0.54517
-1.21551 2.61213 0.07866
-1.99899 1.05357 -0.51839
-2.54808 1.84253 0.95528
-1.66962 2.97878 0.71603
-1.17245 2.67467 0.06546
-2.3609 1.71029 0.52353
-1.15457 2.80282 0.09789
-1.32165 1.49345 -0.85661
-1.23069 2.87338 0.19619
-1.03748 2.95772 0.02062
-2.7255 1.12351 0.29734
-2.10603 1.40725 -0.05682
-1.61283 1.36166 -0.63699
-1.66023 1.50611 -0.41634
-0.4895 2.88735 -0.57358
-1.19381 2.6915 0.09436
-0.85051 2.69234 -0.25135
-1.25785 2.75365 0.18459
-2.70173 1.65629 0.90613
-1.54763 1.62434 -0.41027
-1.01821 2.55412 -0.15001
-2.97479 1.18978 0.64716
-2.38301 1.99218 0.91414
-0.45384 2.64503 -0.73009
-1.46976 2.8962 0.45538
-0.5661 2.77964 -0.52209
-1.92429 1.14333 -0.51241
-1.98333 1.39852 -0.18922
-1.73612 2.29473 0.40983
-1.8783 2.82227 0.97508
-0.80505 2.06326 -0.80691
-0.77854 2.81705 -0.2772
-0.53649 2.46495 -0.753
-3.20023 1.1669 0.93943
-1.44315 1.9502 -0.18758
-2.43006 1.2023 0.0699
-2.20859 1.62395 0.2648
-0.36364 2.63953 -0.86295
-2.89041 1.33371 0.71489
-1.5316 1.39629 -0.69714
-1.77482 2.38632 0.52695
-1.71605 2.8953 0.7558
-2.45309 1.94834 0.96444
-1.15846 2.40603 -0.10025
-2.42679 1.06464 -0.05806
-1.29287 2.36213 0.00416
-1.69965 2.98934 0.75885
-0.87817 2.7057 -0.21704
-1.56323 1.45003 -0.59107
-2.32235 2.04093 0.88728
-1.28992 2.34771 -0.00899
-1.30379 1.81253 -0.47442
-2.19766 1.39426 0.02205
-0.82826 2.97974 -0.18587
-1.01795 1.87973 -0.74504
-1.93768 1.09975 -0.54233
-1.7738 2.44339 0.5702
-0.56282 2.63462 -0.59797
-2.34295 1.91664 0.75041
-2.29606 2.14489 0.9957
-0.91871 2.01053 -0.71496
-1.94014 2.41705 0.76002
-2.3239 1.70987 0.48084
-2.12212 2.19171 0.78088
-1.69313 1.30534 -0.60556
-2.00444 2.45968 0.89597
-0.78801 2.11961 -0.76192
-0.64687 2.92919 -0.38504
-2.43098 1.02932 -0.08452
-1.62573 2.18924 0.20697
-1.58883 1.43881 -0.57373
-2.44602 1.73824 0.65945
-2.03437 2.16022 0.63137
-3.04475 1.30938 0.90479
-1.92508 2.6762 0.95918
-2.62541 1.68994 0.83944
-1.68445 2.24292 0.31214
-2.52947 1.75217 0.78929
-0.966 2.13719 -0.52061
-2.50423 1.88727 0.9535
-2.0617 1.62271 0.11384
-1.77199 2.45122 0.574
-1.56891 1.90557 -0.10271
-1.70308 1.36611 -0.52381
-1.49803 2.80826 0.45893
-2.15689 2.2901 0.95402
-1.6818 1.74241 -0.14797
-2.25975 2.09956 0.86982
-1.98046 2.57902 0.9726
-1.81189 1.81861 0.05721
-1.48059 1.996 -0.10711
-1.78799 2.53808 0.65774
-0.51047 2.88935 -0.54822
-2.09714 1.86211 0.39451
-1.43656 2.48075 0.22801
-1.46837 1.6638 -0.45422
-0.51874 2.48238 -0.76258
-2.10314 1.63992 0.17307
-0.84823 2.34847 -0.46694
-2.9831 1.41281 0.97157
-1.32345 2.69393 0.22685
-2.87582 1.26389 0.61103
-1.38045 1.67336 -0.54354
-2.34438 1.85612 0.67621
-1.71218 1.70501 -0.15462
-2.85591 1.38858 0.74055
-2.00092 2.53385 0.96466
-3.32802 1.03693 0.95995
-1.13877 2.59906 -0.00483
-1.4774 2.55353 0.31458
-2.74946 1.00118 0.21173
-2.03147 1.88877 0.35129
-1.83614 1.52043 -0.21588
-2.35008 1.64543 0.43857
-1.34741 1.69019 -0.56271
-1.60666 1.18949 -0.87179
-0.73944 2.55522 -0.44184
-2.40142 1.04632 -0.09949
-1.79896 2.2602 0.45008
-1.70066 1.88816 0.01272
-2.1481 2.16983 0.79226
-2.22171 1.58857 0.24183
-2.08959 1.7629 0.28432
-0.33203 2.77579 -0.82439
-1.28757 2.05409 -0.25034
-1.04314 2.13375 -0.43694
-1.38245 2.46527 0.16305
-1.03401 2.80375 -0.02252
-0.72158 2.50025 -0.49739
-2.00881 1.1333 -0.42779
-0.65516 2.11788 -0.96957
-1.97806 2.42367 0.82013
-1.91737 2.16065 0.49338
-2.71098 1.20588 0.36197
-0.50423 2.6864 -0.64049
-0.89511 2.6268 -0.2367
-2.62895 1.20508 0.27477
-2.23809 1.83214 0.51954
-3.06918 1.09155 0.65362
-1.85959 2.09417 0.36763
-2.28521 1.63944 0.36163
-0.31888 2.75993 -0.85272
-2.09481 1.52802 0.05207
-1.98228 1.86236 0.27311
-2.99222 1.20783 0.69082
-0.88126 2.74255 -0.19861
-2.26306 1.38895 0.0823
-1.76219 1.16447 -0.68548
-1.46978 1.64345 -0.47533
-1.48986 2.36013 0.20109
-1.10962 1.67373 -0.90694
-2.00291 2.39542 0.82891
-3.0727 1.28616 0.91391
-1.96499 2.31016 0.69296
-1.50541 2.47084 0.29294
-2.00807 2.37734 0.81828
-1.46699 1.66972 -0.4492
-1.81301 2.99306 0.93064
-0.79738 2.1052 -0.76605
-1.27888 2.43489 0.0394
-0.57516 2.54706 -0.63904
-1.46988 1.39382 -0.78409
-2.21976 1.99587 0.68433
-0.84248 2.40766 -0.42791
-1.59485 2.67883 0.51172
-2.10623 1.3622 -0.10103
-1.67516 2.98545 0.72481
-2.76159 1.61201 0.93197
-1.58682 1.28967 -0.76234
-2.62977 1.27782 0.34794
-3.04223 1.27006 0.84205
-2.76724 1.2925 0.51498
-2.62983 1.11288 0.18887
-0.87739 2.62235 -0.25724
-1.74509 2.34497 0.4603
-0.6068 2.22784 -0.89854
-1.38796 2.92717 0.37369
-1.77208 1.5303 -0.27174
-1.39642 1.87824 -0.3057
-1.08296 2.52105 -0.10366
-1.15814 2.30671 -0.17143
-0.56886 2.85619 -0.49109
-1.73355 2.25545 0.37466
-0.19423 2.95204 -0.96787
-1.46627 1.32226 -0.89421
-0.814 2.15477 -0.68757
-2.41101 1.17724 0.02754
-1.19409 2.90117 0.16609
-1.49536 2.31494 0.17357
-2.8932 1.40136 0.81042
-1.32611 1.67144 -0.61066
-1.73541 1.32247 -0.53561
-1.6876 1.37994 -0.52603
-1.13841 1.96981 -0.49278
-0.95142 1.80976 -0.94738
-2.26287 1.0555 -0.23199
-1.64285 2.57777 0.50988
-2.73688 1.55982 0.81236
-2.13044 1.01678 -0.4068
-2.06386 2.41222 0.94323
-2.74301 1.4672 0.69397
-1.32781 2.37257 0.04641
-1.6308 2.67996 0.55404
-0.4126 2.93194 -0.65518
-1.87177 1.21616 -0.49551
-2.43706 1.43104 0.30234
-1.93972 2.41449 0.75712
-2.42319 1.55551 0.42015
-1.63822 1.4311 -0.52477
-2.40069 1.7567 0.62553
-1.44637 2.26022 0.08256
-0.59199 2.4445 -0.69619
-1.31437 2.90346 0.29021
-1.33259 2.19978 -0.07917
-1.48595 1.24305 -0.98988
-1.52396 2.06688 -5e-05
-2.50409 1.44084 0.38386
-1.82933 2.86371 0.91239
-0.98244 2.97103 -0.03208
-0.78689 2.83839 -0.2617
-1.28868 2.75254 0.21561
-1.67475 2.27541 0.32836
-1.77471 1.21369 -0.61243
-0.8592 2.94041 -0.16168
-2.2469 2.06067 0.80009
-1.60867 2.72377 0.54994
-1.24841 2.69456 0.15071
-0.44356 2.84788 -0.64258
-1.04462 2.33221 -0.26865
-0.91686 2.01397 -0.7133
-2.28467 2.08657 0.89128
-1.36574 2.22819 -0.0232
-1.83461 1.98522 0.23955
-1.7291 2.23879 0.35599
