ply
format ascii 1.0
comment Created by Open3D
element vertex 400
property double x
property double y
property double z
end_header
-2.05907 1.73009 1.07069
-2.65908 0.118985 0.80089
-2.82793 0.615664 0.741684
-2.46114 1.94598 0.804624
-2.86535 0.202565 0.740348
-1.29045 1.54059 1.60988
-2.80805 0.25086 0.751266
-1.9524 0.511139 1.16226
-2.03781 0.0782272 1.14503
-1.8384 1.47618 1.2266
-1.44908 1.0788 1.50324
-2.16219 1.55367 1.01347
-2.98925 -0.476795 0.798217
-2.60924 1.07666 0.804115
-2.88636 0.192298 0.736685
-2.97322 0.417257 0.718244
-2.40134 1.97045 0.83276
-1.79262 2.31454 1.20319
-2.65699 0.308489 0.793239
-2.58662 -0.450745 0.914409
-2.02857 1.77402 1.08843
-1.47249 0.618619 1.51281
-2.5773 0.893267 0.816715
-1.7485 0.484085 1.3125
-2.00072 0.670564 1.12334
-2.2895 1.24584 0.947544
-2.59552 -0.17141 0.853655
-2.58288 0.304289 0.820322
-1.53624 0.218298 1.5284
-2.13628 0.229824 1.05865
-2.20103 1.22013 0.997021
-2.78867 1.88523 0.680421
-1.81585 0.429864 1.26665
-2.35279 1.67554 0.896519
-1.71029 2.53105 1.22743
-1.58002 1.49463 1.40767
-2.08635 -0.131635 1.14973
-2.32956 0.14123 0.94934
-1.62879 0.737972 1.38437
-1.25727 1.68418 1.63229
-1.63156 0.624382 1.38967
-2.76817 0.559788 0.756152
-2.80723 0.334702 0.749222
-2.08822 1.78923 1.04769
-1.27243 2.62555 1.57509
-1.64969 1.12632 1.35901
-2.34459 0.84973 0.920059
-2.86239 0.664532 0.734507
-1.90975 1.53422 1.17721
-1.31213 0.911157 1.60907
-2.2199 -0.135425 1.05455
-2.30342 0.96525 0.941279
-2.15059 1.03122 1.02683
-2.18448 1.70679 0.991972
-2.80606 1.36996 0.736027
-2.85373 1.1935 0.732131
-2.67918 1.55433 0.760875
-1.12195 1.66331 1.72106
-1.97282 1.8471 1.12185
-1.71659 1.49968 1.31121
-1.49544 2.2682 1.44456
-2.6876 1.84163 0.722069
-1.99406 1.27918 1.12362
-2.20358 1.57232 0.987786
-1.61021 1.59651 1.38596
-2.63027 1.49138 0.782916
-1.59729 0.719 1.40901
-1.57572 2.33168 1.37508
-1.71941 0.51611 1.33174
-1.63302 2.28368 1.33552
-2.27192 1.00501 0.958073
-1.19087 1.49004 1.67672
-2.41704 -0.0311056 0.919755
-2.18572 -0.220193 1.09759
-1.41858 1.77756 1.52073
-2.71524 1.31607 0.763428
-1.08351 1.04421 1.76041
-1.22662 0.763718 1.68467
-2.02663 0.435677 1.1159
-2.09731 -0.0219627 1.11874
-1.41025 1.54832 1.52725
-2.19936 0.396107 1.0079
-2.04065 1.9356 1.0673
-1.64882 1.03286 1.36056
-1.01033 1.6936 1.79013
-1.78916 0.739068 1.26712
-2.94899 0.0843296 0.731346
-2.52302 -0.180666 0.887476
-1.01977 0.688298 1.84713
-2.68623 0.813463 0.779154
-1.84607 1.06025 1.22219
-2.80233 -0.45165 0.831975
-2.22332 -0.25767 1.08029
-1.61135 2.05747 1.3723
-2.79079 0.132434 0.760387
-1.95469 -0.14973 1.26058
-1.8082 2.09314 1.22077
-2.8988 1.97923 0.630082
-1.57925 1.75398 1.40649
-1.61664 1.69041 1.38057
-1.25193 1.69493 1.63588
-2.01022 0.81149 1.11456
-1.62175 2.17449 1.35571
-1.24642 1.08508 1.64692
-1.35354 2.39613 1.54105
-1.67606 2.55837 1.25065
-2.00138 0.806554 1.12035
-1.90228 0.00976514 1.26293
-1.39713 2.80555 1.43379
-2.17856 -0.113462 1.07854
-2.12181 0.212189 1.06981
-1.24566 2.50548 1.61085
-1.50856 1.35683 1.45823
-2.4884 0.708259 0.852792
-1.87299 2.35394 1.13022
-1.07976 2.79383 1.69384
-2.26137 -0.119763 1.02417
-1.40278 1.63144 1.53243
-1.81565 0.823801 1.24592
-2.3947 0.836684 0.895346
-2.54946 -0.106427 0.86477
-2.87276 1.89652 0.655962
-1.8623 1.83091 1.20067
-1.77097 2.05886 1.25208
-1.98721 1.41486 1.12721
-1.76272 0.849108 1.28272
-2.0382 0.0763817 1.14503
-1.17193 1.45637 1.68936
-2.67119 1.84494 0.72757
-1.66423 1.6237 1.34736
-1.75161 0.645977 1.29851
-2.48259 -0.0134916 0.884774
-1.63756 2.23159 1.33789
-1.13328 2.98505 1.61062
-1.8111 0.422178 1.27095
-1.69071 2.26049 1.29274
-1.08814 0.702998 1.79508
-1.23325 1.24283 1.65121
-2.2759 2.00427 0.901766
-1.28719 2.54112 1.57541
-1.10247 2.06561 1.73185
-1.47872 0.404112 1.53806
-1.86871 2.32834 1.139
-1.29583 1.26926 1.60781
-1.18407 2.70646 1.63048
-2.56229 -0.337283 0.898089
-2.79881 1.01156 0.747483
-2.80794 -0.46109 0.832618
-2.59951 2.00646 0.724169
-1.49336 1.4454 1.46892
-1.60014 1.96272 1.38552
-2.24247 1.66546 0.959721
-1.96181 2.02195 1.11418
-1.45517 0.402938 1.55787
-1.87791 -0.0617658 1.30114
-2.77015 1.79935 0.701888
-2.68581 0.654484 0.779373
-1.05784 2.28044 1.75523
-1.41511 0.467794 1.57934
-2.33214 0.60109 0.92783
-2.41039 1.51343 0.877244
-1.3532 0.294545 1.67035
-1.67372 0.876862 1.34584
-2.29409 1.01224 0.946194
-1.87156 2.16317 1.16422
-2.97837 -0.0356735 0.735313
-2.61213 0.915116 0.803874
-1.05357 1.04694 1.78006
-1.84253 2.47725 1.12628
-2.97878 1.68691 0.67429
-2.67467 0.875335 0.78276
-1.71029 2.0396 1.29922
-2.80282 0.885623 0.747186
-1.49345 0.328833 1.54026
-2.87338 1.00896 0.731502
-2.95772 0.74819 0.719029
-1.12351 2.13747 1.71697
-1.40725 1.44901 1.52937
-1.36166 0.690023 1.59086
-1.50611 0.879563 1.46836
-2.88735 -0.0594535 0.751711
-2.6915 0.910874 0.777429
-2.69234 0.42367 0.779133
-2.75365 1.01996 0.758909
-1.65629 2.55114 1.26968
-1.62434 0.804235 1.38444
-2.55412 0.61391 0.826056
-1.18978 2.56111 1.64588
-1.99218 2.33144 1.03865
-2.64503 -0.195338 0.837165
-2.8962 1.36128 0.717275
-2.77964 0.0311198 0.769467
-1.14333 0.99835 1.72301
-1.39852 1.26863 1.53622
-2.29473 1.51742 0.937829
-2.82227 2.01764 0.638673
-2.06326 -0.00131522 1.13983
-2.81705 0.354501 0.746521
-2.46495 -0.153096 0.911807
-1.1669 2.92718 1.59863
-1.9502 0.887822 1.1531
-1.2023 1.76774 1.66889
-1.62395 1.74895 1.37447
-2.63953 -0.353065 0.86733
-1.33371 2.54933 1.53832
-1.39629 0.590052 1.57596
-2.38632 1.6276 0.882377
-2.8953 1.74786 0.678999
-1.94834 2.41656 1.05263
-2.40603 0.748267 0.890042
-1.06464 1.67495 1.75705
-2.36213 0.917139 0.911256
-2.98934 1.73842 0.665246
-2.7057 0.46749 0.77443
-1.45003 0.687421 1.52332
-2.04093 2.26955 1.01475
-2.34771 0.905754 0.918468
-1.81253 0.586453 1.25738
-1.39426 1.56957 1.53839
-2.97974 0.454238 0.717098
-1.87973 0.192977 1.24662
-1.09975 0.986661 1.75363
-2.44339 1.65746 0.851074
-2.63462 -0.0248548 0.820802
-1.91664 2.18734 1.1261
-2.14489 2.32763 0.919493
-2.01053 0.144073 1.15518
-2.41705 1.9093 0.834471
-1.70987 1.98325 1.30324
-2.19171 2.05273 0.9484
-1.30534 0.769028 1.62542
-2.45968 2.0509 0.783807
-2.11961 0.0184484 1.09597
-2.92919 0.185142 0.729671
-1.02932 1.6592 1.77873
-2.18924 1.29591 1.00321
-1.43881 0.717784 1.52916
-1.73824 2.1959 1.2633
-2.16022 1.88496 0.992071
-1.30938 2.79275 1.51318
-2.6762 2.03948 0.682994
-1.68994 2.45002 1.26287
-2.24292 1.4118 0.97037
-1.75217 2.34672 1.23049
-2.13719 0.314938 1.05119
-1.88727 2.44498 1.09653
-1.62271 1.53834 1.37735
-2.45122 1.65887 0.847107
-1.90557 1.03676 1.18201
-1.36611 0.83387 1.57465
-2.80826 1.38378 0.734755
-2.2901 2.19975 0.850558
-1.74241 1.08458 1.29384
-2.09956 2.21294 0.982829
-2.57902 2.08813 0.712665
-1.81861 1.32165 1.24075
-1.996 0.971197 1.12267
-2.53808 1.72939 0.799207
-2.88935 -0.0266933 0.748607
-1.86211 1.76186 1.20394
-2.48075 1.17703 0.854574
-1.6638 0.717112 1.35948
-2.48238 -0.172421 0.90603
-1.63992 1.60952 1.36477
-2.34847 0.269613 0.929966
-1.41281 2.79637 1.42237
-2.69393 1.09623 0.775413
-1.26389 2.46558 1.60145
-1.67336 0.591785 1.36047
-1.85612 2.13588 1.17957
-1.70501 1.10136 1.32003
-1.38858 2.54308 1.49579
-2.53385 2.09698 0.732746
-1.03693 3.03205 1.67448
-2.59906 0.801817 0.808647
-2.55353 1.26712 0.822238
-1.00118 2.09388 1.79445
-1.88877 1.68487 1.18807
-1.52043 1.1457 1.451
-1.64543 1.97187 1.35164
-1.69019 0.554867 1.35066
-1.18949 0.519632 1.75253
-2.55522 0.210435 0.835291
-1.04632 1.62771 1.76841
-2.2602 1.59031 0.953802
-1.88816 1.21154 1.19355
-2.16983 2.07915 0.958724
-1.58857 1.74199 1.39999
-1.7629 1.67861 1.27652
-2.77579 -0.348151 0.817712
-2.05409 0.733432 1.08747
-2.13375 0.428648 1.04657
-2.46527 1.09283 0.862246
-2.80375 0.715231 0.74708
-2.50025 0.158526 0.861942
-1.1333 1.11795 1.72294
-2.11788 -0.222321 1.14886
-2.42367 1.97862 0.81878
-2.16065 1.70466 1.00691
-1.20588 2.1729 1.661
-2.6864 -0.0963504 0.809439
-2.6268 0.465566 0.800311
-1.20508 2.05324 1.66466
-1.83214 1.94994 1.2152
-1.09155 2.63242 1.70806
-2.09417 1.57488 1.05498
-1.63944 1.8716 1.36018
-2.75993 -0.377482 0.828446
-1.52802 1.51807 1.44444
-1.86236 1.5948 1.20857
-1.20783 2.6043 1.62734
-2.74255 0.482706 0.763583
-1.38895 1.65842 1.54203
-1.16447 0.761349 1.73076
-1.64345 0.703182 1.3754
-2.36013 1.19568 0.911298
-1.67373 0.143316 1.42592
-2.39542 2.0024 0.830143
-1.28616 2.81896 1.5265
-2.31016 1.87945 0.899461
-2.47084 1.27163 0.857346
-2.37734 1.99853 0.841309
-1.66972 0.719686 1.35495
-2.99306 1.94005 0.62393
-2.1052 0.0221537 1.10551
-2.43489 0.932165 0.876445
-2.54706 -0.04517 0.858569
-1.39382 0.484927 1.5938
-1.99587 2.0535 1.08571
-2.40766 0.293145 0.898301
-2.67883 1.48957 0.765889
-1.3622 1.41789 1.56077
-2.98545 1.69704 0.671999
-1.61201 2.61174 1.29374
-1.28967 0.582995 1.66111
-1.27782 2.10556 1.6135
-1.27006 2.7466 1.55576
-1.2925 2.32088 1.59259
-1.11288 1.99312 1.72602
-2.62235 0.438512 0.802305
-2.34497 1.55945 0.908484
-2.22784 -0.206291 1.06444
-2.92717 1.24567 0.717197
-1.5303 1.0609 1.4452
-1.87824 0.771256 1.20358
-2.52105 0.69247 0.839067
-2.30671 0.697709 0.940148
-2.85619 0.0549917 0.749498
-2.25545 1.49073 0.96088
-2.95204 -0.547046 0.821729
-1.32226 0.404508 1.66911
-2.15477 0.0893995 1.06177
-1.17724 1.72432 1.68537
-2.90117 0.961793 0.726906
-2.31494 1.18011 0.934647
-1.40136 2.61885 1.47275
-1.67144 0.5059 1.3695
-1.32247 0.848387 1.60585
-1.37994 0.821354 1.56527
-1.96981 0.456529 1.15343
-1.80976 0.00285671 1.34265
-1.0555 1.43605 1.76413
-2.57777 1.52221 0.801131
-1.55982 2.50969 1.36084
-1.01678 1.2188 1.7941
-2.41222 2.12633 0.792405
-1.4672 2.43031 1.44889
-2.37257 0.97172 0.906087
-2.67996 1.54492 0.761384
-2.93194 -0.17153 0.755034
-1.21616 0.973163 1.67392
-1.43104 1.93705 1.50947
-2.41449 1.90695 0.836224
-1.55551 2.01054 1.41636
-1.4311 0.787328 1.52946
-1.7567 2.13986 1.25523
-2.26022 1.08112 0.964359
-2.4445 -0.0736805 0.910881
-2.90346 1.13461 0.72419
-2.19978 0.886302 0.998265
-1.24305 0.350774 1.75068
-2.06688 1.07757 1.07764
-1.44084 2.04209 1.49923
-2.86371 1.93869 0.648374
-2.97103 0.672006 0.717374
-2.83839 0.371365 0.741465
-2.75254 1.06369 0.758775
-2.27541 1.41641 0.952041
-1.21369 0.821856 1.68796
-2.94041 0.493221 0.721871
-2.06067 2.15455 1.02305
-2.72377 1.52637 0.748635
-2.69456 0.989327 0.776191
-2.84788 -0.140728 0.768017
-2.33221 0.548694 0.928622
-2.01397 0.143939 1.1527
-2.08657 2.24574 0.985276
-2.22819 0.949319 0.982129
-1.98522 1.46665 1.12788
-2.23879 1.47438 0.970935
