ply
format ascii 1.0
comment Created by Open3D
element vertex 400
property double x
property double y
property double z
end_header
-1.51548 2.74453 -0.202579
-2.04444 2.53524 -1.02081
-1.73577 2.23177 -0.215725
-2.75049 0.251982 -0.53206
-1.5147 2.74138 -0.196808
-1.62307 1.09173 1.01225
-1.52131 2.02271 0.391222
-2.13732 1.37683 -0.393466
-2.13267 1.47971 -0.445266
-2.54042 0.743644 -0.609591
-2.40903 2.03823 -1.05489
-2.56344 1.13662 -0.818512
-2.48505 1.85198 -1.03206
-1.27905 2.31305 0.675547
-1.34457 2.89027 0.0659449
-1.48484 1.98303 0.493943
-1.77243 1.18614 0.516362
-1.60987 1.96694 0.243968
-2.50366 1.79478 -1.02309
-2.32674 2.36589 -1.17107
-1.9177 2.40331 -0.706415
-1.78445 1.26529 0.407936
-2.45742 1.34008 -0.798082
-1.02896 3.34263 0.305031
-1.26705 3.02072 0.109065
-1.98688 2.10891 -0.59256
-2.53057 1.71332 -1.01171
-1.35015 2.87518 0.0692148
-2.20105 0.786432 -0.0898559
-1.7908 1.72378 0.0338633
-2.83522 0.350163 -0.691942
-2.57494 1.1583 -0.837882
-1.46395 2.01084 0.517207
-2.55675 0.280486 -0.268735
-1.66194 1.90027 0.180679
-2.45586 1.27831 -0.770175
-1.77873 2.68687 -0.754388
-2.59463 0.738949 -0.669575
-2.33005 1.38939 -0.676409
-1.85261 1.70995 -0.0827449
-2.61324 0.395648 -0.471594
-1.3748 2.66353 0.222801
-2.13935 0.613777 0.278716
-1.64481 2.45281 -0.206246
-2.12896 0.684186 0.199603
-1.48705 1.44286 0.90486
-1.99068 2.02793 -0.544268
-1.58554 2.73171 -0.364353
-2.85763 0.312131 -0.688141
-2.08829 2.21495 -0.817127
-1.42907 1.94203 0.633589
-1.71892 2.6819 -0.61859
-1.12003 2.85375 0.607293
-1.38057 2.68458 0.190574
-2.44845 2.04456 -1.08867
-2.42841 1.00959 -0.613467
-2.62276 0.621972 -0.636881
-2.21691 1.3872 -0.522815
-1.69136 2.44695 -0.303279
-1.28472 2.84119 0.266336
-2.85008 0.325758 -0.690054
-2.37446 1.56462 -0.807757
-2.5944 1.51095 -0.985258
-1.37156 1.8898 0.778534
-1.41246 2.20089 0.491645
-1.78482 0.93958 0.815535
-1.28904 2.24374 0.701025
-1.71981 1.85332 0.0915396
-2.44297 1.98044 -1.05499
-2.3836 1.55944 -0.815193
-2.92408 0.353511 -0.767924
-1.64406 1.7684 0.312732
-2.53007 1.3658 -0.87834
-2.44884 0.641966 -0.420034
-1.44543 2.59054 0.125468
-1.71872 1.7258 0.184115
-2.3116 1.30318 -0.610933
-1.86504 2.41184 -0.62109
-2.66014 0.33761 -0.488094
-1.42922 1.60088 0.881976
-1.02443 3.31159 0.362709
-1.11632 2.77978 0.66777
-1.77454 1.85435 -0.0230273
-1.01177 3.1265 0.595257
-2.09417 0.712699 0.255258
-1.42079 2.24438 0.444938
-2.54625 0.449988 -0.418878
-2.38392 0.504692 -0.185577
-2.47056 1.03899 -0.6787
-1.88063 1.56512 -0.0403868
-1.42674 2.68715 0.0793109
-2.29596 0.840179 -0.315527
-1.09903 3.30622 0.159606
-1.70496 1.51604 0.371668
-2.41951 1.23527 -0.711161
-2.17477 1.42158 -0.478399
-1.48386 2.19718 0.34727
-1.87222 1.47684 0.0393497
-1.01135 3.33788 0.359568
-2.58723 1.53721 -0.989284
-2.48538 0.309357 -0.162497
-1.98027 0.803952 0.448421
-1.75225 2.62005 -0.614523
-1.97021 0.879992 0.367119
-2.4272 1.60709 -0.87977
-2.33789 0.681497 -0.265261
-2.16818 0.879314 -0.105487
-1.23173 2.96795 0.262805
-2.57017 1.11514 -0.816125
-3.0571 0.130606 -0.723963
-1.76131 2.44565 -0.450308
-2.35652 2.13391 -1.05962
-1.99412 1.27674 -0.0658166
-1.31364 3.02474 -0.0276079
-1.36506 2.4377 0.423148
-1.46692 2.30508 0.305594
-2.08992 1.74011 -0.526137
-1.78781 2.24782 -0.334268
-2.22394 1.18723 -0.421801
-2.3397 1.13953 -0.564966
-1.30199 2.49817 0.508394
-2.59676 1.63866 -1.03258
-1.21973 2.92189 0.338756
-1.54573 2.82698 -0.392012
-2.28291 1.52352 -0.68204
-2.43226 1.81316 -0.972089
-2.10144 1.08486 -0.137507
-1.63448 2.66007 -0.395773
-2.11252 0.963634 -0.0627077
-1.95784 1.81469 -0.350929
-2.38007 1.94791 -0.986903
-1.65202 1.31993 0.665294
-2.0806 2.11853 -0.741368
-2.29695 0.951137 -0.393134
-2.023 1.43814 -0.23182
-1.64378 2.7209 -0.494373
-2.13663 0.633147 0.254766
-2.2089 1.32354 -0.476154
-2.02721 0.76805 0.365121
-1.4049 2.08208 0.586543
-2.6374 0.585494 -0.632197
-1.10157 3.13068 0.396734
-2.42796 2.06219 -1.0814
-2.34159 2.30254 -1.14302
-1.19565 3.10076 0.196389
-2.25465 0.558607 0.0420259
-2.31893 1.37997 -0.658017
-2.90373 0.322431 -0.733947
-2.48007 0.934546 -0.638566
-1.44534 2.73738 -0.0175162
-2.24679 0.67198 -0.074211
-2.10602 2.02005 -0.714622
-1.74985 2.08892 -0.137503
-2.22649 2.05553 -0.887732
-1.14824 2.67957 0.677821
-2.05777 1.34116 -0.233111
-2.57231 1.11687 -0.818829
-2.26915 0.984741 -0.369837
-1.76578 0.966371 0.825556
-2.34003 0.711741 -0.294077
-2.04174 0.964278 0.0923025
-2.18536 1.14235 -0.331097
-2.30228 2.35085 -1.14162
-2.70574 1.02327 -0.896488
-1.41272 2.85185 -0.0664889
-2.65855 0.23234 -0.38794
-2.43647 1.62331 -0.895426
-1.7796 1.30104 0.386028
-2.13489 0.602947 0.311589
-2.01733 2.09441 -0.631239
-2.21506 2.18909 -0.954604
-2.73163 1.00079 -0.907935
-1.77736 1.15966 0.532926
-2.59012 0.670341 -0.627132
-2.19793 0.617996 0.107015
-2.50496 0.936916 -0.668943
-2.01 0.792385 0.378521
-2.10758 2.00203 -0.705814
-2.36832 1.09114 -0.578042
-1.41113 2.05511 0.592375
-1.54839 2.56808 -0.0937646
-2.02791 2.36325 -0.844764
-1.83785 2.24954 -0.433355
-2.61361 0.765753 -0.70361
-1.41397 2.98604 -0.267334
-1.67139 2.379 -0.199532
-1.51059 2.53053 0.0288347
-1.90761 1.26642 0.125097
-2.48253 0.76579 -0.549281
-1.1981 2.81526 0.481181
-2.65512 1.4804 -1.01817
-1.84781 1.93042 -0.221801
-1.37727 2.56271 0.302212
-1.224 2.37026 0.739012
-2.45455 0.316665 -0.10386
-1.77201 1.64622 0.128071
-1.41765 2.53573 0.235064
-1.61714 2.46174 -0.152423
-2.18869 1.11505 -0.31926
-1.57315 2.76556 -0.377356
-1.63487 2.21305 0.012445
-1.31246 2.70067 0.330812
-2.57033 0.266355 -0.27703
-2.39276 0.468471 -0.163673
-1.3219 3.01885 -0.0428563
-2.30444 0.464152 0.0490688
-2.08146 1.39775 -0.311408
-1.75268 1.32178 0.429577
-1.51957 2.84447 -0.346632
-1.61065 2.7524 -0.454996
-2.42356 0.764966 -0.466844
-2.86453 0.562301 -0.829428
-1.7964 1.26429 0.380769
-1.81753 1.61043 0.0578074
-2.11459 1.17058 -0.224109
-1.95283 2.1243 -0.546791
-2.12346 0.781623 0.0908396
-2.4985 1.31239 -0.827638
-1.46253 2.71169 -0.0325865
-1.82308 2.43602 -0.564537
-1.13019 2.88622 0.562294
-1.962 1.01715 0.22802
-2.00231 1.07063 0.0826178
-3.06581 0.0949331 -0.704175
-1.67851 1.62209 0.346935
-1.77921 2.55235 -0.594211
-1.84768 1.10763 0.41432
-1.77857 1.28433 0.403859
-2.08594 0.908392 0.0456607
-1.00578 3.31181 0.40948
-1.65729 1.19178 0.792949
-1.95359 2.54602 -0.902295
-1.97835 2.34768 -0.757703
-1.85833 1.06203 0.438384
-1.7541 1.53652 0.247747
-1.57266 2.01561 0.288378
-1.66243 2.36295 -0.166399
-1.54376 1.61645 0.639976
-1.95955 2.183 -0.600114
-1.4821 2.85664 -0.261123
-2.18657 0.778264 -0.0508704
-2.06535 1.73348 -0.483559
-2.7801 0.229139 -0.548137
-2.09008 1.03404 -0.0748606
-2.00841 1.06651 0.0726702
-1.60743 1.7367 0.413945
-1.86807 1.51949 0.0173237
-2.82336 0.736933 -0.874566
-1.26194 3.10136 0.00677386
-2.2568 1.50312 -0.638272
-1.83024 1.91445 -0.176522
-2.43062 2.10133 -1.10235
-2.53289 0.32395 -0.274923
-2.17573 0.809016 -0.0572743
-2.30126 1.3587 -0.624945
-2.49757 0.765032 -0.568412
-1.21227 2.68981 0.549264
-2.22749 1.9649 -0.838328
-1.70075 2.35783 -0.244662
-2.44155 0.958109 -0.603348
-1.54751 1.76975 0.515916
-1.74146 1.39934 0.386575
-2.11858 2.06077 -0.75701
-1.77025 0.972982 0.801402
-1.82771 2.51616 -0.652034
-2.58612 1.35544 -0.922536
-2.24809 2.24516 -1.02422
-1.54549 1.39832 0.825489
-1.99553 2.23003 -0.692713
-1.14277 3.24626 0.129502
-2.60293 1.42817 -0.962201
-2.03092 1.51649 -0.295551
-1.43806 2.97693 -0.325914
-1.00462 3.33059 0.387179
-2.1086 2.43049 -1.0063
-2.11667 1.67008 -0.527482
-1.39623 1.98103 0.670787
-1.58878 2.39282 -0.0292782
-2.32027 1.39147 -0.665236
-1.56749 1.56755 0.629314
-2.28945 1.98617 -0.918166
-1.69102 1.6269 0.316195
-1.47364 2.82758 -0.198019
-1.73654 1.24443 0.542543
-1.18914 2.69029 0.594011
-1.59877 2.40984 -0.0658409
-2.34873 0.597475 -0.209919
-1.83255 2.2904 -0.455961
-1.24527 2.64212 0.518569
-2.04956 1.17301 -0.100714
-1.87585 1.47606 0.0323301
-1.49119 1.87218 0.558227
-2.09749 1.49617 -0.397687
-2.46595 1.06006 -0.683389
-1.2846 2.14502 0.770715
-2.3006 0.546248 -0.0530145
-2.44471 0.887631 -0.56946
-2.4389 1.00395 -0.623664
-2.25718 1.87999 -0.827642
-2.14788 1.72973 -0.606757
-1.55559 2.16356 0.21931
-2.01664 1.59101 -0.316183
-2.32126 2.34738 -1.15483
-2.29122 2.07953 -0.969937
-1.61853 2.75803 -0.482645
-2.58431 0.252706 -0.286285
-1.35776 2.91479 0.00094199
-1.89309 1.38288 0.0649212
-2.0161 0.837467 0.298331
-2.12734 1.24306 -0.29492
-1.59986 2.61672 -0.264652
-2.09511 0.756947 0.192187
-1.64261 2.5468 -0.291174
-2.10117 0.644789 0.343158
-2.02859 2.34911 -0.834267
-1.88861 1.86668 -0.257265
-2.44469 0.394898 -0.185427
-2.29965 2.20196 -1.04725
-2.39184 0.481804 -0.176743
-1.63582 1.25976 0.765995
-1.98313 1.98587 -0.504196
-2.20743 0.624947 0.0732664
-2.32356 2.10406 -1.01431
-1.42217 2.98566 -0.292143
-2.01317 2.24199 -0.728759
-2.48527 2.08151 -1.13204
-1.66964 2.43542 -0.245326
-2.1749 0.617813 0.169194
-1.46775 1.70389 0.727169
-2.31926 0.990311 -0.452201
-1.33197 2.38777 0.525238
-1.21956 2.87545 0.38306
-1.47082 2.69814 -0.0386725
-2.31468 1.25281 -0.589659
-2.60712 1.10955 -0.847595
-1.90392 2.29207 -0.588509
-2.053 0.705167 0.388813
-2.57269 1.36878 -0.916359
-1.9754 1.40758 -0.12103
-1.55186 1.57673 0.654869
-2.03655 0.878245 0.195268
-1.96897 1.7893 -0.354698
-2.43314 0.466442 -0.241856
-1.71745 2.11142 -0.0868685
-2.33515 1.47698 -0.723697
-1.66687 2.19534 -0.0426814
-2.30837 0.458859 0.0467731
-1.95564 1.4842 -0.134346
-1.93356 1.95821 -0.400358
-2.00233 1.19243 -0.0189936
-1.37487 1.87635 0.781546
-2.33195 0.68095 -0.253907
-2.20798 1.37403 -0.502512
-1.78458 2.25374 -0.332508
-2.60791 0.299977 -0.377733
-1.55771 1.26169 0.942301
-2.65481 0.246139 -0.396441
-2.43568 0.398153 -0.170642
-1.48314 2.88666 -0.308745
-2.96289 0.126469 -0.649027
-1.15802 2.89484 0.498606
-1.94643 2.05196 -0.485773
-1.71412 1.01535 0.89148
-1.81955 1.55703 0.0918514
-1.74784 1.20479 0.556684
-2.17496 1.8575 -0.714097
-1.87684 0.917304 0.578532
-1.66504 1.22216 0.738709
-1.42193 1.9769 0.623853
-1.77357 1.1269 0.579776
-1.58539 1.48783 0.657964
-1.5799 2.56007 -0.159632
-1.59631 1.11157 1.0485
-2.36562 0.719756 -0.344395
-1.7489 2.496 -0.473205
-1.10643 3.24944 0.23139
-2.32532 2.28886 -1.12156
-1.58625 1.55458 0.599886
-1.56857 1.33144 0.842203
-1.7337 2.21974 -0.20208
-1.04053 3.26467 0.384571
-2.37997 1.95422 -0.989824
-1.57368 1.21149 0.966321
-1.92289 2.4277 -0.737199
-2.331 0.728902 -0.291848
-1.3002 3.01717 0.0220447
-2.27533 1.13067 -0.468186
-1.56926 1.78619 0.458455
-2.29036 0.51261 0.0150688
-1.71106 2.4784 -0.375538
-1.35999 2.9548 -0.0588105
-1.50888 1.67369 0.667407
-2.00408 0.848094 0.316952
-1.30885 2.3004 0.628059
-1.37234 2.93177 -0.0613887
-1.91669 2.12809 -0.486908
-1.48094 1.45216 0.908573
-1.17656 2.52075 0.729461
-1.45199 2.27248 0.36061
-2.7184 1.01537 -0.90329
