ply
format ascii 1.0
comment Created by Open3D
element vertex 400
property double x
property double y
property double z
end_header
0.603985 -2.19679 1.78568
-1.11069 -2.03057 1.5393
-0.779846 -2.13719 1.93664
0.548261 -2.20234 2.31097
-1.15135 -2.09427 1.75722
0.905516 -2.24496 0.877845
-1.07988 -2.08201 1.73539
-0.369707 -2.0431 1.055
-0.784449 -2.0077 0.90755
0.520427 -2.18235 1.42474
0.416421 -2.16562 0.812437
0.393464 -2.17367 1.799
-1.7847 -2.10612 1.47621
-0.267872 -2.14865 1.98128
-1.17116 -2.10014 1.76877
-1.02527 -2.16078 1.95189
0.603171 -2.20004 2.26685
1.25547 -2.26225 1.82325
-0.949016 -2.05074 1.6364
-1.54413 -2.0078 1.14644
0.659337 -2.20312 1.77721
0.013326 -2.11811 0.594111
-0.406594 -2.11658 1.8607
-0.268846 -2.06543 0.822167
-0.263489 -2.05739 1.18834
0.0574093 -2.13598 1.76807
-1.31905 -2.0013 1.32278
-0.91158 -2.03619 1.56836
-0.357962 -2.10466 0.431236
-0.716937 -2.00541 1.09616
0.0869387 -2.13021 1.66792
0.314456 -2.2512 2.57429
-0.355516 -2.05203 0.865605
0.385059 -2.187 2.05318
1.485 -2.27349 1.86117
0.691881 -2.21041 1.16072
-0.987159 -2.00525 0.834591
-0.905205 -1.99578 1.24319
0.0182393 -2.1041 0.828531
1.04795 -2.26853 0.914968
-0.0793239 -2.09338 0.771043
-0.79554 -2.11148 1.85921
-1.00821 -2.09213 1.77775
0.636528 -2.2004 1.84737
1.8355 -2.36514 1.42498
0.335547 -2.14978 1.05016
-0.312265 -2.08205 1.62271
-0.756415 -2.15545 1.98903
0.52706 -2.18437 1.5289
0.357299 -2.16293 0.578859
-1.07111 -1.99023 0.974718
-0.18997 -2.0965 1.64075
-0.0447208 -2.10277 1.52289
0.509864 -2.18889 1.90207
-0.125905 -2.2319 2.30115
-0.300927 -2.22656 2.24858
0.0985445 -2.21666 2.2912
1.11079 -2.27357 0.764467
0.754484 -2.21447 1.75762
0.613785 -2.19711 1.30805
1.39986 -2.3129 1.46925
0.333875 -2.22983 2.4602
0.259373 -2.14343 1.4878
0.384929 -2.17518 1.85043
0.760574 -2.2219 1.24386
0.0724929 -2.2018 2.21411
0.0214048 -2.1066 0.78445
1.40373 -2.30303 1.5925
-0.224148 -2.072 0.80799
1.32831 -2.29088 1.6288
-0.137823 -2.10091 1.62996
0.921947 -2.24482 0.748734
-1.10038 -1.98902 1.23368
-1.12007 -1.99746 0.886648
1.03066 -2.26763 1.13151
-0.122479 -2.20198 2.19629
0.607343 -2.19728 0.408057
0.285278 -2.16311 0.406876
-0.478022 -2.0296 1.09293
-0.903565 -2.00034 0.91267
0.840113 -2.23546 1.00773
-0.613979 -2.01798 1.24929
0.788114 -2.21478 1.87711
0.256438 -2.13698 1.00204
1.20257 -2.28116 0.666144
-0.0781804 -2.08437 1.0011
-1.29541 -2.11109 1.76174
-1.28575 -1.99256 1.24997
0.34812 -2.18731 0.141669
-0.534677 -2.12729 1.91661
0.160931 -2.12151 1.2244
-1.66483 -2.04516 1.33973
-1.17339 -1.99601 0.903145
1.15145 -2.27831 1.48198
-1.171 -2.06382 1.65941
-0.92054 -2.03139 0.677019
1.06129 -2.25263 1.71478
0.332249 -2.27706 2.72433
0.913465 -2.24701 1.29044
0.836714 -2.23426 1.29806
1.06032 -2.27049 0.914777
-0.149237 -2.07528 1.26991
1.24371 -2.28649 1.55614
0.544146 -2.18785 0.600433
1.59414 -2.34305 1.38464
1.52883 -2.28019 1.83902
-0.148181 -2.07509 1.25829
-0.757853 -2.03055 0.718534
1.9061 -2.33325 1.6738
-1.02818 -1.99325 0.944475
-0.723121 -2.00512 1.07154
1.75163 -2.36469 1.32813
0.617401 -2.19766 1.01601
-0.514774 -2.07583 1.6873
1.23823 -2.24592 1.93626
2.09286 -2.39481 1.3135
-1.08292 -1.98733 1.02707
0.915547 -2.24832 1.04142
-0.0222072 -2.09192 1.0728
-0.352075 -2.0841 1.66398
-1.23893 -1.99727 1.31714
0.278468 -2.27402 2.65163
0.807464 -2.22411 1.63197
1.05523 -2.25572 1.65566
0.379127 -2.16294 1.549
0.031249 -2.10058 1.02963
-0.786218 -2.00763 0.9069
0.904527 -2.24121 0.712184
0.345711 -2.2268 2.4475
0.751117 -2.21995 1.31496
-0.134266 -2.07875 0.912309
-1.12324 -1.99452 1.30632
1.28193 -2.28755 1.60478
2.21713 -2.37854 1.48857
-0.359073 -2.0522 0.856257
1.27341 -2.27982 1.67939
0.31886 -2.17922 0.223389
0.686013 -2.20803 0.667848
0.704865 -2.20117 2.16056
1.7561 -2.36043 1.39304
1.4655 -2.33197 0.946441
-0.169186 -2.11135 0.478641
1.21981 -2.24753 1.91605
0.670928 -2.20615 0.747016
1.95685 -2.38009 1.37525
-1.43751 -1.99832 1.19413
-0.426519 -2.18556 2.1111
-1.6756 -2.04713 1.33866
0.518922 -2.21171 2.47928
0.702161 -2.21215 1.04421
1.07812 -2.27012 1.42007
0.440868 -2.18431 1.93853
0.908106 -2.22803 1.84109
-0.155511 -2.11632 0.451495
-0.801128 -2.0405 0.64643
0.253552 -2.24768 2.50752
-0.670132 -2.10399 1.83671
1.67461 -2.36107 1.01061
-0.0769796 -2.12411 0.444862
-0.51713 -2.04605 1.4857
0.215066 -2.17561 2.0225
-0.180573 -2.14547 0.268955
0.108683 -2.11402 0.949008
-0.144479 -2.10291 1.65519
1.08109 -2.24629 1.82286
-1.41195 -2.11159 1.72053
-0.40724 -2.12623 1.90268
0.627519 -2.19948 0.378429
1.35814 -2.24539 1.97835
0.0492246 -2.31197 2.61263
-0.475558 -2.13365 1.93756
1.07603 -2.26279 1.57955
-0.536061 -2.16887 2.05111
-0.240482 -2.10958 0.450314
-0.468366 -2.20882 2.17051
-0.734941 -2.20216 2.106
1.51413 -2.3403 1.00469
0.757153 -2.22122 0.954898
0.141118 -2.13977 0.512419
0.212735 -2.13518 0.770584
-1.38434 -2.07659 1.63608
-0.454419 -2.14272 1.9699
-0.870444 -2.07325 1.72604
-0.395096 -2.17396 2.07765
1.53533 -2.28549 1.8119
0.0770347 -2.11164 0.858477
-0.632082 -2.07205 1.69996
1.83218 -2.3748 1.29891
1.14602 -2.22406 2.05508
-1.36665 -2.00847 1.35407
-0.181133 -2.25969 2.36992
-1.25057 -2.05116 1.59633
0.532809 -2.18855 0.446128
0.608556 -2.1963 0.855104
0.285172 -2.17007 1.91241
0.404564 -2.25175 2.68513
-0.865829 -2.00434 0.888374
-0.996614 -2.09764 1.79595
-1.22962 -1.98833 1.21053
2.14917 -2.37664 1.4894
-0.0484288 -2.08935 1.24636
1.15211 -2.28451 0.899581
0.882134 -2.24128 1.33555
-1.49411 -2.00837 1.25623
1.73442 -2.35324 1.44858
0.0362897 -2.12972 0.494374
0.325302 -2.18467 2.05999
0.143681 -2.28318 2.58172
1.24265 -2.22655 2.05965
-0.433985 -2.07229 1.63043
1.15465 -2.27735 0.71176
-0.264788 -2.09318 1.67322
0.086589 -2.31708 2.65037
-0.84041 -2.08233 1.75975
0.0848205 -2.12592 0.607376
1.06532 -2.21897 2.07056
-0.266239 -2.09046 1.65372
-0.221556 -2.06539 0.946187
0.867875 -2.24009 1.00148
-0.997137 -2.16847 1.97556
-0.592586 -2.03218 0.802347
0.549107 -2.19119 0.394155
0.317671 -2.19086 2.13093
-1.21832 -2.01427 1.44013
1.0736 -2.23983 1.88589
1.04896 -2.19815 2.22073
-0.713119 -2.01237 0.916106
0.543371 -2.2004 2.24653
1.02873 -2.25776 1.54907
0.79515 -2.20598 2.10194
0.241774 -2.15267 0.494819
0.635498 -2.19921 2.3728
-0.883558 -1.99797 0.960032
-1.19971 -2.11452 1.79899
1.16204 -2.27588 0.668074
0.15843 -2.1407 1.69438
0.117202 -2.12974 0.611704
1.1902 -2.26899 1.69542
0.674092 -2.20294 1.97395
1.95067 -2.35526 1.56565
0.502727 -2.21975 2.5706
1.4312 -2.2817 1.78854
0.225696 -2.15648 1.8067
1.30717 -2.27005 1.79708
-0.645835 -2.01197 1.14309
1.30387 -2.23764 2.00873
0.703407 -2.21228 1.22793
0.314376 -2.1916 2.13915
0.105247 -2.11353 1.27481
0.259299 -2.14922 0.595596
-0.115398 -2.23393 2.31025
0.857112 -2.19319 2.29394
0.244022 -2.1344 1.12744
0.983015 -2.21275 2.09967
0.597187 -2.20361 2.51137
0.4005 -2.1619 1.32641
-0.00461977 -2.09849 1.33565
0.32413 -2.20447 2.25979
-1.35783 -2.07974 1.65543
0.749102 -2.2167 1.59567
-0.110569 -2.14217 1.91538
-0.0207156 -2.0973 0.855302
-1.25568 -1.98928 1.21608
0.75372 -2.22057 1.28198
-0.807916 -2.00749 1.33044
1.88875 -2.32999 1.68601
-0.29772 -2.16936 2.0653
1.70708 -2.35994 1.32577
-0.132324 -2.08458 0.798903
1.06777 -2.24768 1.79063
0.280879 -2.14051 1.09629
1.69542 -2.34345 1.50552
0.630269 -2.19946 2.47382
2.31478 -2.39176 1.41201
-0.496713 -2.10718 1.8344
-0.0747954 -2.16415 2.02806
1.54944 -2.33889 0.857657
0.667726 -2.20521 1.58396
0.430192 -2.1665 0.922456
1.05833 -2.26519 1.47361
-0.173687 -2.07921 0.797249
0.10544 -2.16672 0.224648
-0.975667 -2.02139 1.49439
1.12516 -2.27097 0.66951
0.366997 -2.17712 1.91646
0.264828 -2.14027 1.34413
0.830151 -2.20772 2.09451
0.897616 -2.24436 1.29429
0.738273 -2.21685 1.4476
-1.56531 -2.03487 1.37985
-0.241766 -2.06266 1.27544
-0.547734 -2.02296 1.19983
-0.17357 -2.12865 1.8585
-0.68198 -2.14429 1.96663
-0.988586 -2.00905 1.41624
0.639898 -2.20099 0.498871
-1.08046 -2.00699 0.811978
0.59693 -2.20047 2.29371
0.52215 -2.18942 1.87668
1.495 -2.33891 1.10864
-1.3069 -2.01999 1.44668
-0.798812 -2.06469 1.69006
1.39379 -2.3241 1.04641
0.926269 -2.23887 1.66289
1.95127 -2.3892 1.23402
0.451659 -2.1782 1.74076
0.976982 -2.25479 1.41497
-1.58084 -2.03181 1.3486
0.743279 -2.21923 1.11729
0.607059 -2.19631 1.51001
1.85731 -2.37432 1.34255
-0.847435 -2.09372 1.79884
0.9469 -2.25355 1.04033
0.321081 -2.17103 0.338697
-0.0200986 -2.09868 0.825986
-0.0260299 -2.13301 1.81106
-0.505715 -2.07495 0.542202
0.633016 -2.19953 2.27995
1.9866 -2.35885 1.55568
0.580858 -2.19806 2.12353
-0.0244644 -2.15344 1.95429
0.64039 -2.19945 2.25964
-0.0221414 -2.09678 0.863038
0.250782 -2.3132 2.77447
-0.871792 -1.99946 0.946922
-0.29344 -2.10205 1.74959
-1.18635 -1.99975 1.34917
-0.0495929 -2.12832 0.431144
0.913837 -2.22538 1.89519
-0.822062 -2.01351 1.39989
0.0441742 -2.21128 2.25606
0.757715 -2.22094 0.891782
0.054197 -2.31484 2.62355
1.61272 -2.29276 1.79887
0.0960462 -2.14806 0.372879
1.39459 -2.32447 1.14959
1.93718 -2.36519 1.49349
1.56797 -2.34549 1.27808
1.39757 -2.32158 0.920476
-0.819387 -2.0602 1.67239
0.29163 -2.1763 1.98363
-1.13412 -1.99226 0.939957
-0.295304 -2.25818 2.33406
0.35203 -2.15407 0.889936
-0.104552 -2.07939 1.11195
-0.546587 -2.07812 1.70935
-0.420141 -2.058 1.50987
-1.2714 -2.07588 1.67238
0.28541 -2.1662 1.85977
-1.82261 -2.0973 1.40302
-0.0714255 -2.14504 0.302677
-0.845585 -1.99675 1.03747
1.12999 -2.27969 0.851908
-0.523191 -2.21189 2.16888
-0.0133058 -2.12806 1.75964
1.75033 -2.34127 1.56396
-0.203349 -2.07875 0.750085
0.29808 -2.15616 0.556394
0.240328 -2.1463 0.603806
-0.426318 -2.03627 1.04442
-0.705814 -2.05133 0.609795
0.956346 -2.24384 0.58231
0.127725 -2.19562 2.1833
1.56154 -2.309 1.67738
0.794659 -2.21824 0.431321
0.724874 -2.19386 2.37266
1.55299 -2.32622 1.52818
-0.224177 -2.10198 1.71048
0.0901897 -2.21611 2.28678
-1.50181 -2.08531 1.60991
0.467706 -2.17938 0.509577
1.15891 -2.28761 1.22568
0.542904 -2.20027 2.24267
1.14577 -2.28113 1.397
0.180461 -2.13633 0.640872
1.13196 -2.26313 1.68449
-0.066092 -2.11157 1.6566
-1.15174 -1.98895 1.23624
-0.377225 -2.23602 2.25827
-0.197192 -2.08176 1.4995
-0.0657397 -2.16719 0.179018
0.0441375 -2.11107 1.46147
1.24217 -2.29915 1.29026
0.317872 -2.26919 2.67011
-0.806865 -2.19624 2.07815
-0.99363 -2.10646 1.82199
-0.357231 -2.1797 2.0988
0.210702 -2.15775 1.84114
0.341849 -2.16797 0.425155
-0.943499 -2.15859 1.96486
0.958508 -2.21909 2.02286
0.0505865 -2.22442 2.31486
-0.389166 -2.15468 2.01191
-1.43159 -2.05887 1.55938
-0.561772 -2.03909 1.45916
-0.715317 -2.01195 0.919713
1.01786 -2.21315 2.10566
-0.159971 -2.09142 1.55916
0.42443 -2.1701 1.57315
0.281258 -2.16406 1.83479
