ply
format ascii 1.0
comment Created by Open3D
element vertex 250
property double x
property double y
property double z
end_header
0.0883584 1.21132 -2.87075
-0.130966 2.34048 -0.79141
-1.04278 0.639083 -2.17589
0.417361 1.59522 -2.75487
-0.631082 0.601021 -3.00362
-0.504149 1.0859 -2.2885
-0.233488 1.89757 -1.58809
0.781277 2.76624 -1.48345
-0.217354 2.34118 -0.565805
0.99225 2.72529 -0.4888
-1.2733 0.478951 -2.10543
0.514839 2.43013 -1.85066
-0.834921 0.490168 -2.9128
1.99413 2.94348 -0.715076
-0.219264 1.21391 -2.50321
1.12868 2.63331 -2.29068
1.50755 3.05732 -1.87721
-0.217529 1.16125 -2.57698
-0.319485 1.95626 -1.37981
1.348 2.99672 -1.85491
0.406005 2.58681 -1.14428
0.675652 2.68542 -1.53353
-0.843174 0.844422 -2.151
-0.477695 2.2153 -0.66743
0.956724 2.61142 -0.239889
-0.244493 1.79771 -1.71404
-0.846473 0.617438 -2.53347
0.44779 2.06142 -2.28672
-0.167037 1.83808 -1.76588
0.536858 2.42121 0.00386526
1.33983 3.03728 -1.65274
1.70658 3.13454 -1.33265
-0.363611 2.2853 -0.581564
-1.09253 0.395465 -2.60195
0.409009 2.51205 -0.319492
-1.4956 0.580478 -1.71596
-0.0190414 0.847134 -3.30257
1.96663 2.93565 -0.693225
0.274101 2.42276 -1.43391
-0.188561 0.989243 -2.86662
0.061484 1.24616 -2.79919
1.12308 2.90004 -0.913114
-0.588745 1.50187 -1.64739
-1.53439 0.106868 -2.58524
-0.538622 0.617 -3.15306
0.428324 2.5077 -0.28809
-1.81068 -0.0201084 -2.44916
0.722425 2.46845 -0.0292204
-0.420358 1.41179 -1.97699
0.330751 2.34371 -1.71344
0.966458 2.85606 -0.962454
-1.37635 0.346874 -2.1907
0.757618 2.78147 -1.11113
0.972916 2.77427 -0.63921
-0.122466 2.26716 -1.06609
1.00425 2.74332 -0.527852
-0.476648 2.24773 -0.573543
-0.00278097 1.97815 -1.80033
0.146286 1.56425 -2.51585
-0.767112 0.574473 -2.7906
1.61148 2.96144 -0.776339
1.40624 2.76445 -0.393586
0.155306 2.32404 0.119108
1.21682 2.66836 -0.257507
-0.655718 0.637796 -2.84375
-1.89589 0.0621708 -2.05758
0.436748 2.41218 -1.75841
1.07096 2.906 -1.64718
0.758799 2.1756 -2.47864
-1.81197 0.104947 -2.06849
0.622207 2.63825 -1.56674
-1.43753 0.640885 -1.70246
0.564235 1.76976 -2.70884
1.71461 3.14183 -1.3744
-1.56906 0.311164 -1.99336
0.0764723 1.414 -2.61229
0.460374 2.60686 -0.672596
1.39485 2.73691 -0.340868
-0.156154 1.49646 -2.22342
1.18202 2.86548 -0.739313
1.23857 2.99195 -1.17956
-0.996001 0.543945 -2.42266
1.73776 3.15764 -1.5036
0.348945 2.5714 -0.954504
0.836473 2.12416 -2.59319
1.20052 2.92753 -1.83627
0.245845 1.28155 -2.93609
1.7219 2.99754 -0.841967
1.82626 3.05694 -0.989301
-1.56463 0.206323 -2.19315
0.299145 1.6712 -2.56244
0.221091 1.72508 -2.41661
-0.398531 1.91796 -1.33316
0.548953 1.80102 -2.66608
-1.21103 0.512549 -2.13812
0.304654 2.51251 -0.444254
1.68015 3.1493 -1.57781
0.0440535 2.43731 -0.630359
-1.55187 0.318562 -2.0021
-1.50135 0.413089 -1.91907
0.832929 2.66756 -0.445027
-0.563625 1.48862 -1.69485
-1.42238 0.597514 -1.76639
-0.708093 1.90936 -0.999383
0.304311 2.27965 0.259995
-1.37019 0.259517 -2.40358
0.17214 2.39372 -0.0884741
-0.983054 0.717101 -2.14073
0.322829 2.53972 -0.568049
-0.5586 1.61905 -1.53941
1.43593 3.04152 -1.83307
0.104933 2.4275 -0.287253
-0.241533 0.730686 -3.31346
-1.01494 1.36184 -1.35019
-1.50952 0.174922 -2.36969
-1.15136 0.325287 -2.70593
-0.56853 0.631282 -3.03879
-0.533057 2.19364 -0.664996
-0.845014 0.682953 -2.40777
0.902107 2.52413 -0.0779411
-1.33286 0.236759 -2.56523
1.43155 2.92623 -2.11579
-0.255115 2.24121 -0.906238
-0.0253165 2.16426 -1.46247
-0.373262 1.04223 -2.53576
0.611388 1.83363 -2.68691
-0.922261 0.471071 -2.75948
1.01936 2.57562 -2.26446
-0.246099 1.21196 -2.4704
1.22923 2.86512 -2.02846
-0.599438 1.14135 -2.08193
-0.546833 1.60576 -1.5705
-0.955601 0.799413 -2.05938
-0.964893 1.0399 -1.74527
0.609953 2.23546 -2.26152
0.475674 1.81184 -2.5894
0.211928 2.10601 -1.92249
0.0125432 2.36491 -1.03296
1.20464 2.73497 -2.22138
-0.165412 1.10317 -2.72536
-0.0606229 2.36104 -0.0968393
-0.879239 0.488431 -2.80504
0.802224 2.47613 -2.16783
0.227555 1.82029 -2.31332
1.11261 2.67449 -2.22112
0.278118 2.24964 0.323298
-1.18443 0.571896 -2.08063
-0.229016 1.83385 -1.68541
-1.12965 0.30195 -2.93907
0.922896 2.58152 -2.15568
0.0562642 1.80974 -2.10975
1.13016 2.95939 -1.48872
0.0490448 1.43 -2.56172
0.299193 2.3792 0.0146374
0.974231 2.77542 -1.87207
0.90118 2.67843 -0.427152
0.256571 2.18122 -1.87421
-0.571149 1.70954 -1.40942
0.171823 2.48588 -0.84843
-1.39441 0.255042 -2.36802
0.297864 2.18822 -1.9236
0.175246 1.22627 -2.93689
-0.50343 1.59437 -1.63906
1.73156 3.07408 -1.0606
0.862149 2.71311 -1.83488
0.649751 2.6218 -1.67292
1.70311 3.1381 -1.35983
-0.96473 1.36794 -1.38955
-1.29952 0.795253 -1.66517
-0.632187 0.828864 -2.49081
0.205498 1.31789 -2.85842
1.49682 3.04296 -1.07734
0.346761 1.72967 -2.54848
-1.41706 0.154793 -2.7358
-0.557113 1.89842 -1.16898
-0.83835 1.72282 -1.11866
0.769912 2.47574 -0.0268027
0.882122 2.61757 -2.05045
0.170567 1.55262 -2.55638
0.223263 2.34497 -1.52331
0.215292 1.38595 -2.79083
-0.157087 1.28877 -2.48532
-0.565399 1.3567 -1.85486
-0.24738 1.5539 -2.02917
1.36973 3.05247 -1.31289
-0.138285 0.700119 -3.53612
1.75711 3.16276 -1.56969
-1.39534 0.552474 -1.84948
0.499013 2.64471 -0.868635
-0.112961 1.01137 -2.92506
0.125595 1.0248 -3.14884
0.37936 2.56815 -0.620547
0.224887 1.21978 -2.98859
1.19111 2.97136 -1.15298
0.414304 2.56859 -1.28051
-1.44127 0.719524 -1.61565
-0.515724 0.76264 -2.80284
1.54872 3.04701 -1.9558
-0.391761 2.18951 -0.839881
-0.757069 0.660466 -2.60155
2.50996 3.01398 -1.84325
2.66243 2.90697 -1.25817
2.41274 3.08751 -1.62659
1.89275 3.15589 -1.363
2.53155 2.9787 -1.92295
2.00733 3.13259 -1.25601
2.62691 2.96679 -1.53906
2.29454 3.11267 -1.40415
3.56279 1.70412 -1.30801
2.67399 2.84132 -1.99867
1.89788 3.16543 -1.42744
2.26425 3.12091 -1.83636
3.37285 2.03574 -1.5322
2.01934 3.16372 -1.80689
2.35933 3.10507 -1.52122
2.92251 2.70142 -1.43451
1.95448 3.14921 -1.88239
3.44939 1.91306 -1.4041
2.9737 2.61135 -1.15822
3.27227 2.20698 -1.55934
1.93765 3.17529 -1.70738
3.39656 2.01442 -1.32769
2.58927 2.95631 -1.86921
2.18612 3.08834 -1.17483
2.81242 2.77078 -1.16673
3.0578 2.52982 -1.58973
2.56784 2.95887 -1.22502
2.55941 2.97008 -1.89252
3.38336 1.98285 -1.66483
2.86417 2.75587 -1.6556
2.54578 2.90103 -2.07933
2.41855 3.08243 -1.53552
2.17358 3.03405 -0.99786
2.68135 2.91228 -1.36349
2.72893 2.84262 -1.18458
3.05638 2.45882 -1.85561
2.83912 2.62712 -2.07463
2.9386 2.63568 -1.81053
3.06374 2.52074 -1.5969
2.81672 2.77138 -1.1863
2.82208 2.80105 -1.40776
3.0995 2.47026 -1.21784
3.14598 2.0506 -2.20241
3.43544 1.84813 -1.75849
3.35286 2.05673 -1.60216
3.10958 2.46905 -1.36533
3.28098 2.10751 -1.82008
2.13241 3.11274 -1.97639
3.07789 2.51086 -1.50033
3.14163 2.41702 -1.24718
