ply
format ascii 1.0
comment Created by Open3D
element vertex 250
property double x
property double y
property double z
end_header
0.794054 0.919012 2.87075
1.74757 1.56236 0.79141
1.18926 -0.285455 2.17589
0.83287 1.42311 2.75487
0.871228 -0.0212557 3.00362
1.12433 0.411357 2.2885
1.50689 1.17668 1.58809
1.40358 2.50847 1.48345
1.80915 1.50177 0.565805
1.22544 2.6287 0.4888
1.23903 -0.561687 2.10543
1.35431 2.08241 1.85066
0.93698 -0.243777 2.9128
0.671288 3.49142 0.715076
1.01341 0.703321 2.50321
1.06393 2.66013 2.29068
1.09586 3.22785 1.87721
0.974944 0.667311 2.57698
1.60919 1.15737 1.37981
1.16582 3.07218 1.85491
1.54206 2.11624 1.14428
1.42112 2.37664 1.53353
1.19331 0.000882405 2.151
1.90423 1.22867 0.66743
1.17005 2.52306 0.239889
1.44405 1.09829 1.71404
1.03514 -0.161952 2.53347
1.14101 1.77428 2.28672
1.41783 1.18161 1.76588
1.33244 2.09167 -0.00386526
1.20028 3.09508 1.65274
1.00972 3.42319 1.33265
1.87306 1.35884 0.581564
1.05217 -0.4929 2.60195
1.48708 2.0655 0.319492
1.46801 -0.647092 1.71596
0.612479 0.58555 3.30257
0.6852 3.46643 0.693225
1.51933 1.90697 1.43391
0.832833 0.566168 2.86662
0.83769 0.924641 2.79919
1.2565 2.84478 0.913114
1.47829 0.645678 1.64739
1.16055 -1.00941 2.58524
0.817148 0.0554214 3.15306
1.47034 2.07608 0.28809
1.26613 -1.29456 2.44916
1.23463 2.25629 0.0292204
1.29552 0.701046 1.97699
1.42338 1.89113 1.71344
1.33615 2.70293 0.962454
1.2185 -0.727946 2.1907
1.43108 2.50251 1.11113
1.27375 2.64966 0.63921
1.68972 1.51653 1.06609
1.22971 2.64993 0.527852
1.92642 1.25234 0.573543
1.40073 1.3968 1.80033
1.00265 1.20953 2.51585
0.948644 -0.136217 2.7906
0.954563 3.23354 0.776339
0.960397 2.94912 0.393586
1.53352 1.75316 -0.119108
1.02639 2.74724 0.257507
0.914652 -0.0126725 2.84375
1.38456 -1.29663 2.05758
1.39684 2.01449 1.75841
1.29757 2.81213 1.64718
1.00183 2.07493 2.47864
1.35546 -1.20705 2.06849
1.42556 2.30549 1.56674
1.46966 -0.563311 1.70246
0.852432 1.65038 2.70884
1.00919 3.43402 1.3744
1.32952 -0.889465 1.99336
0.945772 1.05392 2.61229
1.5178 2.16886 0.672596
0.948979 2.9216 0.340868
1.16858 0.94774 2.22342
1.19039 2.86202 0.739313
1.23983 2.99143 1.17956
1.08891 -0.319651 2.42266
1.004 3.46157 1.5036
1.57151 2.06499 0.954504
0.910531 2.09348 2.59319
1.22118 2.91897 1.83627
0.732351 1.08003 2.93609
0.902012 3.33714 0.841967
0.87022 3.45294 0.989301
1.25225 -0.960469 2.19315
0.970192 1.39325 2.56244
1.06348 1.37615 2.41661
1.63801 1.0744 1.33316
0.885342 1.66168 2.66608
1.21876 -0.493902 2.13812
1.56119 1.99204 0.444254
1.03884 3.41494 1.57781
1.69229 1.75459 0.630359
1.32259 -0.872079 2.0021
1.35372 -0.76952 1.91907
1.29728 2.47522 0.445027
1.45116 0.654071 1.69485
1.42828 -0.583268 1.76639
1.85082 0.849426 0.999383
1.39678 1.82714 -0.259995
1.15237 -0.785362 2.40358
1.5709 1.81434 0.0884741
1.20219 -0.188057 2.14073
1.56758 2.02412 0.568049
1.53983 0.749853 1.53941
1.13532 3.16603 1.83307
1.64231 1.7907 0.287253
0.687463 0.345883 3.31346
1.68063 0.245292 1.35019
1.19108 -0.943702 2.36969
1.04415 -0.584121 2.70593
0.848395 0.0443719 3.03879
1.92807 1.17421 0.664996
1.08044 -0.114594 2.40777
1.14694 2.42271 0.0779411
1.10989 -0.77506 2.56523
1.0569 3.08141 2.11579
1.76517 1.40438 0.906238
1.54827 1.51246 1.46247
1.0009 0.473033 2.53576
0.864258 1.72889 2.68691
0.985234 -0.31904 2.75948
1.10044 2.54203 2.26446
1.031 0.682966 2.4704
1.15675 2.89515 2.02846
1.23092 0.383189 2.08193
1.52211 0.748775 1.5705
1.24098 -0.110442 2.05938
1.4176 0.0530348 1.74527
1.14941 2.01201 2.26152
0.944812 1.61752 2.5894
1.33932 1.63903 1.92249
1.66338 1.68112 1.03296
1.08211 2.78572 2.22138
0.897026 0.663098 2.72536
1.71237 1.62664 0.0968393
0.967089 -0.276343 2.80504
1.18363 2.31815 2.16783
1.12623 1.44804 2.31332
1.10442 2.67788 2.22112
1.39408 1.78739 -0.323298
1.24191 -0.433129 2.08063
1.45866 1.13479 1.68541
1.0123 -0.585275 2.93907
1.17282 2.47799 2.15568
1.23989 1.31946 2.10975
1.29346 2.89175 1.48872
0.976481 1.04584 2.56172
1.47079 1.89391 -0.0146374
1.27363 2.6514 1.87207
1.25671 2.53117 0.427152
1.36093 1.72378 1.87421
1.61269 0.804965 1.40942
1.63628 1.87928 0.84843
1.16634 -0.805652 2.36802
1.33668 1.75793 1.9236
0.743188 0.991024 2.93689
1.48337 0.77141 1.63906
0.949306 3.3981 1.0606
1.30883 2.52809 1.83488
1.39445 2.31334 1.67292
1.0147 3.42326 1.35983
1.64945 0.285115 1.38955
1.48123 -0.35657 1.66517
1.03312 0.139071 2.49081
0.786578 1.0772 2.85842
1.09328 3.21011 1.07734
0.977866 1.46826 2.54848
1.11147 -0.892559 2.7358
1.73632 0.948448 1.16898
1.81102 0.625411 1.11866
1.20621 2.29503 0.0268027
1.22715 2.47465 2.05045
0.977258 1.21848 2.55638
1.50027 1.81601 1.52331
0.82778 1.13225 2.79083
1.02238 0.800222 2.48532
1.35913 0.559534 1.85486
1.2737 0.92385 2.02917
1.18988 3.12697 1.31289
0.592841 0.397277 3.53612
0.993942 3.47888 1.56969
1.37731 -0.595996 1.84948
1.51724 2.22295 0.868635
0.795023 0.635272 2.92506
0.635834 0.813453 3.14884
1.54771 2.0842 0.620547
0.703498 1.02154 2.98859
1.25882 2.94331 1.15298
1.52331 2.10922 1.28051
1.52791 -0.510353 1.61565
0.90394 0.174596 2.80284
1.05945 3.24967 1.9558
1.82524 1.2712 0.839881
1.00235 -0.0683085 2.60155
0.35639 3.90602 1.84325
0.172915 3.93817 1.25817
0.477133 3.88926 1.62659
0.893179 3.56993 1.363
0.316186 3.89633 1.92295
0.795681 3.63447 1.25601
0.240331 3.95534 1.53906
0.578509 3.82347 1.40415
-1.31428 3.72427 1.30801
0.118322 3.89991 1.99867
0.896294 3.5803 1.42744
0.605753 3.80788 1.83636
-0.94548 3.82445 1.5322
0.809198 3.66498 1.80689
0.527322 3.86392 1.52122
-0.156329 3.97672 1.43451
0.844801 3.60886 1.88239
-1.08635 3.79182 1.4041
-0.256217 3.94922 1.15822
-0.753276 3.87442 1.55934
0.875142 3.61539 1.70738
-0.977325 3.82614 1.32769
0.259537 3.92131 1.86921
0.637971 3.72961 1.17483
-0.0294464 3.94792 1.16673
-0.373334 3.95104 1.58973
0.276505 3.90797 1.22502
0.290384 3.90994 1.89252
-0.990313 3.79448 1.66483
-0.076583 3.97397 1.6556
0.251197 3.85148 2.07933
0.469429 3.88978 1.53552
0.608446 3.68235 0.99786
0.163295 3.95529 1.36349
0.080391 3.93968 1.18458
-0.422537 3.89984 1.85561
-0.149908 3.86522 2.07463
-0.214196 3.94162 1.81053
-0.383962 3.94883 1.5969
-0.0320615 3.95139 1.1863
-0.0148702 3.97615 1.40776
-0.444943 3.93842 1.21784
-0.77455 3.67454 2.20241
-1.1224 3.73605 1.75849
-0.916501 3.82516 1.60216
-0.45292 3.94469 1.36533
-0.829768 3.81024 1.82008
0.693195 3.70888 1.97639
-0.400949 3.95185 1.50033
-0.512379 3.93056 1.24718
