ply
format ascii 1.0
comment Created by Open3D
element vertex 400
property double x
property double y
property double z
end_header
2.05949 0.00513633 2.43441
2.5386 -1.48804 0.237574
2.10851 -0.106993 1.77218
2.17016 -0.0107527 0.203428
2.09918 -0.475082 2.46578
2.09721 -0.236879 2.33074
2.05069 0.348044 0.811087
2.1799 -0.515426 1.66185
2.56315 -1.52965 0.358942
2.66886 -1.54999 -0.441906
2.00067 0.333804 2.58957
2.15406 -0.355946 1.03972
2.27009 -0.693885 0.00784181
2.44138 -1.32428 0.361459
2.30647 -0.988168 0.454458
1.92339 0.498276 2.968
2.03695 0.192238 2.41413
2.45296 -1.1548 -0.398794
1.98127 0.547804 1.62183
2.29414 -0.653889 -0.167026
2.2034 -0.613336 1.40663
2.2553 -0.82746 1.12007
2.31932 -1.02237 0.385083
2.13237 -0.234284 1.12582
2.00337 0.455201 1.5735
2.21182 -0.675264 1.64059
2.17178 0.00196814 0.19135
2.46467 -1.4023 1.44467
2.20305 -0.510517 0.363319
2.41213 -1.33929 1.67449
2.02763 -0.0757761 2.70633
2.26165 -0.818057 0.400781
2.09758 0.182873 0.568478
2.38378 -1.19169 0.291335
2.11726 -0.0177038 0.611676
2.13481 -0.217181 0.804497
2.62053 -1.60902 0.577855
2.38166 -1.26891 1.6724
2.04996 0.220279 1.98642
2.0749 0.230833 0.730745
2.22309 -0.587485 0.270108
2.22523 -0.924064 2.07951
2.42405 -1.1913 -0.178467
2.27778 -0.904271 0.663047
2.44957 -1.3425 0.410497
2.01735 0.487457 0.924959
2.30312 -1.06779 1.74645
2.19132 -0.514949 0.586793
2.49787 -1.53106 1.78185
2.18106 -0.483535 0.738417
2.58483 -1.38104 -0.528131
2.08045 0.166762 0.774614
2.28746 -0.707209 -0.0906582
2.64923 -1.57234 -0.279371
2.43138 -1.12039 -0.354239
2.2323 -0.746136 1.45103
2.12445 -0.426075 2.27552
2.02706 -0.144661 2.72728
2.08696 0.0291801 1.27081
2.08804 0.0534638 0.96397
2.38318 -0.915149 -0.37459
2.19374 -0.775505 2.10874
2.11765 -0.0332116 0.631927
2.01349 0.00782202 2.75252
2.23731 -0.966632 2.05941
2.40274 -1.10357 -0.236167
2.37209 -1.28445 1.80077
2.14517 -0.322304 1.69842
2.29326 -0.903354 0.216721
2.34093 -1.16334 1.67577
2.33294 -1.12507 1.60892
2.03658 0.394907 0.891032
2.09587 -0.0946439 2.12277
2.62449 -1.46333 -0.499147
2.42365 -1.27994 0.250818
2.12473 -0.46089 2.30241
2.03479 0.255353 2.28691
1.97118 0.503844 2.58165
2.32802 -1.06562 1.08663
2.26675 -1.00743 1.92292
2.42103 -1.3018 1.298
2.47938 -1.45978 1.62868
2.45633 -1.36057 0.993103
2.27624 -0.918945 1.45886
2.50045 -1.42404 0.206482
2.04953 0.233071 1.48379
2.11416 -0.16179 1.91805
2.39226 -1.2277 0.884661
2.07853 0.0673955 1.8535
2.07861 -0.191624 2.44612
2.58008 -1.55783 0.972816
2.29727 -0.966386 0.573449
2.10782 0.0986846 0.563394
2.33483 -1.02711 0.12595
2.43954 -1.33843 1.28034
2.07375 0.0871488 1.9493
2.42362 -1.2941 0.549436
2.02458 0.122022 2.62222
2.2431 -1.09838 2.17604
2.403 -1.25111 0.634989
2.4058 -1.26153 1.15193
2.38314 -1.20713 1.00325
2.1786 -0.249081 0.270553
2.09507 -0.111102 2.17604
2.00738 0.401329 2.3067
2.32376 -1.06148 1.31984
2.44761 -1.33566 0.342105
2.20759 -0.759923 1.97054
2.26278 -0.899384 1.65726
2.19688 -0.324666 0.191633
2.03747 0.294948 1.49649
2.4089 -1.25303 0.319336
2.37439 -0.995071 -0.251673
2.1412 -0.122266 0.482523
2.27408 -1.00351 1.85318
2.11498 -0.325587 2.25827
2.32298 -1.02602 0.320022
2.33866 -0.916807 -0.157508
2.14397 0.185937 0.276981
2.20096 -0.931837 2.21879
2.10155 -0.00760405 0.849978
1.94439 0.514491 2.81851
2.25627 -0.762874 0.271373
2.55899 -1.64345 1.85012
2.57463 -1.56458 1.3191
2.04707 0.526028 0.621038
2.16467 -0.394665 0.767041
1.95681 0.324117 2.91054
2.58206 -1.56154 1.03421
1.9281 0.503438 2.93711
2.59764 -1.59061 1.2507
2.49345 -1.486 1.63819
2.11336 -0.167382 1.96777
2.05281 0.271024 0.968121
2.04251 0.251836 2.0786
2.18191 -0.504787 1.03447
2.07523 0.0933797 1.49748
2.36247 -1.13928 0.313425
2.00742 0.436271 1.84356
2.39117 -0.979633 -0.349169
2.24798 -0.365845 -0.0756251
1.98535 0.528006 2.03716
2.01072 0.551947 0.863667
2.27144 -1.00965 1.89003
2.48911 -1.41737 0.533272
2.29933 -0.63317 -0.203067
2.39943 -1.15376 -0.0996243
2.145 0.119409 0.293103
2.41806 -1.27979 0.44704
2.2878 -1.09357 1.93655
1.90359 0.480369 3.07631
2.0283 0.33676 1.92333
1.99118 0.506709 1.67772
2.20378 -0.653241 1.7325
2.08594 0.121599 0.78865
2.54313 -1.32195 -0.487692
2.15667 0.0742523 0.246992
1.95995 0.536173 2.63813
2.13424 0.201537 0.320249
1.99884 0.454034 2.23929
2.0714 0.114627 1.61948
2.19848 -0.290234 0.158173
2.14185 0.160439 0.295366
2.27023 -1.01381 1.90847
2.19958 -0.589754 0.911043
2.04213 -0.0798937 2.62711
2.10092 0.261492 0.481674
2.57105 -1.65086 1.82413
2.11139 -0.132787 1.84853
2.19228 -0.207652 0.154001
2.02942 0.308403 2.18278
2.06278 -0.146958 2.53014
2.08519 0.0393843 1.27447
2.05722 0.187144 1.88382
2.21487 -0.755957 1.88244
2.16074 -0.443508 1.85546
2.24694 -0.813196 1.51503
2.45899 -1.36498 0.933996
2.1148 -0.12653 1.06481
2.25609 -0.789444 0.374576
2.18247 -0.514467 1.50741
2.20044 -0.544544 0.498609
2.15263 -0.312546 0.718378
2.37002 -1.17524 0.771128
2.27375 -0.945978 1.67842
2.38089 -1.19909 0.55143
2.63151 -1.52478 -0.365468
2.5043 -1.25224 -0.458134
2.01373 0.409215 1.52175
2.52353 -1.28106 -0.484135
2.06915 0.0500324 2.23688
1.99778 0.477981 1.9163
2.01706 0.533286 0.836189
2.2676 -1.01559 1.93222
2.41905 -1.33035 1.56477
2.34694 -1.14394 1.48867
2.15138 -0.704329 2.30588
2.19316 -0.561612 1.30387
2.45076 -1.24426 -0.215597
2.00095 0.465042 1.69121
2.02508 0.351623 1.95079
2.26882 -0.882617 1.33287
2.35171 -1.16774 1.55768
2.21698 -0.566092 0.300542
2.32069 -1.08191 1.57382
2.20094 -0.986864 2.26035
2.43564 -1.4057 1.73818
2.17129 -0.345166 0.460355
2.12286 -0.181319 1.31914
2.12601 -0.562129 2.36121
2.14023 -0.0555614 0.423126
2.45152 -1.41633 1.66169
2.40815 -1.24597 0.255167
2.37947 -0.955248 -0.322837
2.03062 0.371123 1.06582
2.06743 -0.294665 2.56724
2.2694 -0.799687 0.203201
2.52424 -1.59577 1.85345
2.57939 -1.55581 0.680223
2.0465 0.245114 1.88343
2.47784 -1.40224 1.11166
2.29836 -0.975683 0.802057
2.17475 0.0351249 0.168595
2.22386 -0.779872 1.82946
2.26795 -0.862996 0.564193
2.14086 -0.280301 1.034
2.08314 -0.343129 2.49939
2.11862 -0.563948 2.40259
2.31403 -0.991083 0.280163
2.17438 -0.396156 0.527912
2.2846 -0.947529 1.45096
2.26204 -0.879315 1.56296
2.18647 -0.0851686 0.141648
2.04947 -0.0922708 2.58774
2.25474 -0.84984 1.55651
2.19301 -0.906766 2.23682
2.46481 -1.49753 1.84824
2.03361 0.29236 2.13934
2.0907 0.0751614 0.822125
2.13896 -0.262559 0.940424
2.24226 -0.781657 1.35282
2.39785 -1.20008 0.0967534
2.58999 -1.64718 1.7241
2.1623 -0.475081 1.92588
2.57283 -1.54471 0.415736
2.20679 -0.640366 1.55992
2.1597 -0.388857 1.13861
2.24644 -0.726209 0.302253
1.99562 0.363337 2.59333
2.32585 -1.07494 1.41057
1.99939 0.46682 2.06064
2.37735 -1.41217 2.0363
2.1186 -0.117113 0.832017
2.26055 -0.845265 0.776672
2.43849 -1.37333 1.58011
2.17448 -0.227168 0.285367
2.27248 -1.08007 2.00949
2.26388 -0.489053 -0.106186
2.44637 -1.16404 -0.356078
2.10487 -0.0899897 1.83023
1.98844 0.221902 2.79385
2.45512 -1.35813 0.978459
1.97032 0.404465 2.76051
2.17321 -0.446848 0.795863
2.43131 -1.24427 -0.0701733
2.49024 -1.46388 1.55283
2.19723 -0.656452 1.8633
2.53109 -1.49229 1.17086
2.2732 -0.942257 1.67142
2.20835 -0.954387 2.20237
2.05511 0.379625 0.717218
2.07766 0.0797178 1.49605
2.23323 -0.730575 0.660424
2.57398 -1.5937 1.56716
2.23821 -0.446689 0.00634982
2.49106 -1.53942 1.84019
1.97875 0.558516 1.58299
2.40976 -1.44043 1.96022
2.50371 -1.39149 -0.0842306
2.06857 0.172479 0.978332
2.27042 -0.882623 1.08728
2.06558 -0.0670279 2.45162
2.37593 -1.26792 1.72036
2.18169 -0.537701 1.73782
2.47244 -1.37627 0.23536
1.99946 0.396736 2.47369
2.0395 0.281039 1.89978
2.06966 0.124778 1.42121
2.39632 -1.26472 1.46825
2.59646 -1.55944 0.0767352
2.49527 -1.48531 1.62062
2.61444 -1.57628 0.00753776
2.15457 -0.655119 2.25298
2.16708 -0.428692 1.22063
2.55623 -1.51991 0.366819
2.03499 0.0176755 2.62131
2.40503 -1.24555 0.336837
2.57244 -1.56125 1.31501
2.07264 0.18465 0.854687
1.97472 0.462928 2.63269
2.40159 -1.24533 0.493348
2.08517 0.0345652 1.73349
2.31913 -0.92369 -0.00745291
1.98666 0.507515 2.25484
2.37901 -1.14764 0.0794152
2.247 -0.795457 0.953251
1.94367 0.474823 2.87004
2.08929 0.0135911 1.48464
2.26947 -0.816148 0.252239
2.06475 0.101158 2.1732
2.36443 -1.01265 -0.167782
2.1555 -0.731817 2.30156
2.22356 -0.724709 1.606
2.02643 0.414 0.991866
2.13801 -0.383689 2.0858
2.15907 -0.40316 1.69423
2.30341 -1.2574 2.10214
2.21764 -0.395137 0.0993061
2.24338 -0.430583 -0.0297409
2.44519 -1.5249 1.98911
1.96297 0.207673 2.93202
2.00398 0.284116 2.62796
2.37317 -1.14158 0.127781
2.01037 0.447298 1.20677
2.09324 0.0374451 0.887822
2.17413 -0.477702 1.60487
2.47809 -1.3424 -0.0845912
2.62227 -1.59898 0.149801
2.42057 -1.055 -0.391461
2.15634 -0.371246 1.39312
2.17678 -0.533179 1.83562
2.53614 -1.54348 1.58765
2.21883 -0.443106 0.126431
2.48204 -1.45363 1.57461
2.15246 -0.0187569 0.308864
2.51687 -1.47549 1.27095
2.23018 -0.727702 1.05372
2.41204 -1.27052 0.6121
2.37573 -1.18863 0.67202
2.65998 -1.49552 -0.544359
2.14587 -0.188103 0.520735
2.08037 0.23082 0.672395
2.06203 0.0372419 2.36411
2.11232 -0.408646 2.35201
2.11818 -0.252966 2.11378
2.13214 -0.160118 0.670422
2.20957 -0.563507 0.395782
2.28054 -0.927747 1.3869
2.32022 -1.04237 0.86354
2.20547 -0.662077 1.73386
2.2494 -0.808399 1.31219
2.54153 -1.40203 -0.302642
2.22944 -0.769693 1.70367
2.00876 0.41668 2.15621
2.18683 -0.69371 2.0561
2.04124 0.259459 2.07311
2.12435 0.188643 0.379257
2.03463 -0.113631 2.68174
2.32551 -0.945398 -0.0149836
2.05191 0.224251 1.32928
2.06648 0.179878 1.00166
2.09671 0.102898 0.675648
2.1671 -0.440834 1.62294
2.26231 -0.57019 -0.0542917
2.14599 0.0733484 0.305399
2.12923 -0.218831 1.49689
2.25102 -0.514572 -0.0264529
2.03896 -0.0510257 2.63295
2.2419 -0.563245 0.0690985
2.30725 -1.00379 1.02775
1.98295 0.543397 1.51156
2.02222 0.113599 2.64598
2.35191 -1.13371 1.20016
2.14021 -0.687675 2.35376
1.91289 0.477602 3.03596
2.60549 -1.58177 0.221324
2.29918 -0.978558 0.976189
2.23058 -0.926937 2.04897
2.18545 -0.477003 0.568478
2.08206 -0.127268 2.35996
2.3666 -1.15826 0.415934
2.05606 0.066314 2.39083
2.01999 0.373227 2.01829
2.53778 -1.49252 0.367922
2.18468 -0.536363 1.62541
2.32139 -0.8666 -0.119324
2.40568 -1.25335 0.460093
2.0185 0.277466 2.48692
2.33603 -0.995601 0.0118582
2.09459 -0.0387747 1.93208
2.11321 -0.44103 2.36742
2.46556 -1.29678 -0.160075
2.18254 -0.378132 0.376612
2.53176 -1.48716 0.702935
1.97705 0.525969 2.40814
2.16279 -0.33597 0.57229
2.12747 -0.255199 1.94483
2.38758 -1.22156 1.1861
2.41082 -1.15162 -0.187016
2.17851 -0.243546 0.267032
