ply
format ascii 1.0
comment Created by Open3D
element vertex 200
property double x
property double y
property double z
end_header
1.77967 0.149374 -1.79992
0.81847 -0.585705 -2.30544
3.21074 0.665902 -0.0530578
0.588462 -0.56335 -2.35396
1.10332 0.218181 -1.94402
0.724578 -1.02142 -2.55949
3.02629 0.580434 -0.927906
2.33898 1.01701 -0.754594
1.63149 1.51221 -0.680878
2.57824 0.594803 -1.23248
2.13189 0.704962 -1.36116
3.42716 -0.0470464 -1.34675
2.46908 0.121434 -1.62751
1.51361 -1.50523 -2.51585
0.917813 -0.316232 -2.17288
1.87078 0.481723 -1.61469
1.77646 -0.357428 -2.00269
1.9489 1.33102 -0.070735
0.54622 -1.26795 -2.83054
0.771982 -0.148834 -2.14633
2.0279 0.547474 -1.52025
2.50879 0.972805 -0.603472
2.70336 -0.514924 -1.82625
2.92067 0.743828 -0.667696
-0.232813 -0.440546 -2.56235
2.45151 0.942672 -0.791068
2.12064 1.08071 -0.902988
3.71529 0.246385 -0.72026
2.2639 0.961441 -0.968598
2.28711 -0.761475 -2.01356
-0.676822 -0.381783 -2.76137
1.48399 -1.26228 -2.42078
3.01675 -0.432403 -1.69916
1.8831 1.32422 -0.649115
1.70923 1.48039 -0.366892
1.13969 -0.715521 -2.28376
-0.467233 -0.51221 -2.71098
2.68575 0.921773 -0.405979
0.757991 -0.972519 -2.51824
1.95802 1.23429 -0.784909
3.00278 0.662514 -0.778144
-0.277372 -0.826476 -2.84268
2.56545 0.979153 -0.429844
1.85564 1.30368 -0.790946
0.756282 -1.21704 -2.68351
2.48555 1.0452 -0.177962
3.27023 0.315197 -1.11866
1.88538 -0.244583 -1.93632
0.169394 -0.0256853 -2.27385
2.08773 -0.659821 -2.03627
3.15774 0.691006 -0.261363
3.14511 0.409951 -1.09166
2.96274 -0.571581 -1.75773
0.207304 -0.172714 -2.30521
1.05758 -0.598549 -2.2537
2.48571 0.685 -1.18664
3.03908 0.195446 -1.36845
0.401406 -0.903243 -2.59649
1.90041 0.465915 -1.61335
0.715928 -0.55195 -2.31609
0.103552 -0.208166 -2.34907
1.70245 -1.46648 -2.40885
2.08253 1.22393 -0.519879
2.91934 0.772201 -0.565527
2.1116 1.15432 -0.733499
3.63316 0.377743 -0.0223985
2.46391 -0.16246 -1.76486
3.17921 0.670169 -0.357593
1.9254 1.28788 -0.680608
2.63873 0.663268 -1.11381
-0.0167765 -0.302706 -2.42251
1.70179 1.07882 -1.30283
1.87442 0.81755 -1.40266
2.84752 0.472668 -1.21132
1.52308 -1.39911 -2.46398
1.46217 0.163295 -1.87276
0.933359 0.354526 -1.94996
0.254465 -1.08071 -2.79884
1.69814 -1.29388 -2.35154
0.270046 -1.09641 -2.80595
2.40701 -0.47247 -1.89557
1.67794 0.00503957 -1.88411
2.14624 0.874502 -1.1883
3.16267 0.409382 -1.07912
1.13318 -0.55804 -2.21958
0.642536 -0.326308 -2.24173
2.76437 0.30282 -1.40701
1.0581 -1.19191 -2.54429
-0.48691 -0.763486 -2.91768
0.795502 0.59798 -1.93793
2.06788 0.925108 -1.18598
1.79515 1.40807 -0.519099
1.68367 1.39103 -0.922562
0.883062 -1.48667 -2.85502
2.73192 -0.781833 -1.8829
0.826514 -0.710135 -2.36006
2.98017 0.793381 -0.152157
3.60673 -0.165004 -1.31224
2.45314 1.04534 -0.367483
2.92108 0.462359 -1.17883
4.14496 -0.182948 -0.226121
4.2414 -0.42735 -0.592335
4.24414 -0.43366 -0.258311
4.00105 -1.39555 0.464238
4.21712 -1.10991 -0.106601
3.91233 -1.10622 0.772919
4.04848 -1.26756 0.407975
4.2606 -0.997005 -0.337583
4.2563 -0.577264 -0.668113
4.27289 -0.927388 -0.40676
4.12477 -1.32721 0.0996536
4.24891 -0.792024 -0.0685228
4.05711 -1.38924 0.298541
4.07168 -1.32351 0.30389
4.17246 -1.075 0.130258
4.22738 -0.382876 -0.598744
4.13139 -0.368765 0.143546
3.77965 0.253662 -0.0475189
4.0939 -0.719814 0.400671
3.92892 -1.33516 0.673028
3.97068 -1.0793 0.656987
4.16097 -0.209256 -0.555224
4.28332 -0.804066 -0.307397
4.25354 -1.02002 -0.274503
3.86013 0.171907 -0.0407909
4.14767 -1.28356 0.0468583
4.09041 -0.859201 0.41559
4.19713 -1.23188 -0.373916
4.06712 -0.50642 0.401841
4.24809 -0.409744 -0.451429
4.26471 -0.631756 -0.650851
4.05693 -1.55003 0.0720924
3.90018 -0.0182856 -0.906026
3.89632 -1.53582 0.654191
3.71274 0.31169 -0.0279055
3.97686 -1.72114 0.163484
3.83498 -1.55454 0.790003
4.01994 -0.125111 0.174106
4.21318 -0.918256 0.0511738
3.96442 -1.75164 0.162788
3.80535 0.246178 -0.209591
4.28698 -0.773189 -0.470113
3.91579 -1.63913 0.529979
3.78448 -1.46049 0.935222
4.0665 -0.574437 0.430257
4.1189 -1.40601 -0.00249782
4.14159 -0.68084 0.274859
3.93064 0.121452 -0.221167
4.00282 -0.145784 -0.904962
4.27561 -0.818848 -0.233816
4.07398 -0.135125 -0.737807
4.10959 -0.804673 0.369413
4.26801 -0.586058 -0.611472
3.8617 -1.57691 0.716106
4.10989 -0.14655 -0.639808
4.11574 -1.42213 -0.0199258
4.08346 -0.746559 0.428556
4.10492 -0.0946072 -0.383924
3.94203 0.0496802 -0.696064
4.01512 0.0100734 -0.549285
4.23171 -0.364687 -0.5079
4.24089 -1.08435 -0.305712
4.26257 -0.525711 -0.250384
4.28858 -0.676732 -0.452564
3.82051 0.234032 -0.326109
3.89109 -1.21497 0.792253
3.90033 -1.38913 0.71579
4.24454 -0.500266 -0.667668
4.19055 -1.04009 0.0830514
3.90334 0.0873871 -0.702431
3.97007 0.0182501 -0.697401
3.9357 0.0834773 -0.0311714
3.93896 0.113133 -0.429799
4.21954 -0.387423 -0.650009
4.26601 -0.697612 -0.654456
4.10016 -0.387482 0.248004
4.13587 -0.435504 0.184523
4.27716 -0.880162 -0.309781
4.0831 -0.135652 -0.711788
4.26315 -0.926687 -0.543887
4.24997 -0.637782 -0.715348
4.11825 -0.580248 0.30706
3.93291 -1.27715 0.68537
4.25077 -0.754642 -0.0754691
4.11631 -0.42387 0.230969
4.06634 -0.20984 -0.864179
4.25445 -1.00981 -0.466301
4.23133 -0.932089 -0.0291336
4.28274 -0.814091 -0.307503
3.98761 0.0122579 -0.0186077
4.22774 -1.04484 -0.0924381
4.27572 -0.878086 -0.495519
4.10819 -0.817185 0.373064
3.94816 -1.21224 0.672649
4.10866 -0.996413 0.35154
4.14856 -0.552461 0.215629
3.75205 0.286773 -0.111722
4.24609 -0.562786 -0.703811
4.26347 -0.925935 -0.542408
4.12526 -0.984473 0.309992
