ply
format ascii 1.0
comment Created by Open3D
element vertex 250
property double x
property double y
property double z
end_header
-0.187561 3.10189 -0.243718
1.6984 1.77049 0.31954
-0.555769 2.26908 0.879046
0.252572 3.15947 -0.512074
-0.894074 2.9725 0.382231
-0.129685 2.55025 0.387275
0.938656 2.28342 0.286817
1.90546 2.54319 -0.603737
1.78595 1.57335 0.428318
2.34155 1.63039 -0.7139
-0.700777 2.143 1.09543
1.40566 2.72859 -0.417654
-0.982498 2.84955 0.5801
2.58492 1.89066 -1.70163
-0.0687703 2.78806 0.0985145
1.48272 3.18795 -1.04595
2.09762 2.99667 -1.32808
-0.147728 2.82983 0.0830388
1.06984 2.12796 0.400157
2.02992 2.95574 -1.17521
1.84063 2.17486 -0.218782
1.79596 2.5554 -0.513983
-0.333224 2.33196 0.708328
1.59051 1.61724 0.660325
2.34581 1.35855 -0.666271
0.792955 2.35077 0.273034
-0.70374 2.56986 0.64559
0.876554 2.95256 -0.439447
0.817329 2.41214 0.195848
2.22248 1.07209 -0.248399
2.15408 2.7944 -1.14149
2.437 2.53873 -1.45932
1.70757 1.56792 0.564662
-0.967282 2.54012 0.855747
2.14032 1.40634 -0.145032
-0.471993 1.85105 1.36716
-0.716867 3.32575 -0.224688
2.58354 1.86875 -1.67311
1.5475 2.36375 -0.137553
-0.423681 3.00868 0.00443146
-0.129121 3.05502 -0.20571
2.32776 2.08221 -0.866753
0.509202 2.17116 0.585594
-1.28144 2.41217 1.2604
-0.93223 3.10913 0.277281
2.15328 1.37563 -0.161366
-1.37497 2.24451 1.53264
2.2775 1.11554 -0.429636
0.308933 2.41713 0.374655
1.36236 2.5746 -0.231649
2.24346 2.11249 -0.722266
-0.870785 2.16322 1.17304
2.08027 2.21946 -0.540041
2.31531 1.7873 -0.704683
1.51322 1.98155 0.274176
2.342 1.67286 -0.7277
1.66091 1.54828 0.672783
0.950587 2.4997 0.0463144
0.290281 2.94342 -0.223153
-0.843661 2.77621 0.535574
2.51609 1.96867 -1.3279
2.48062 1.54676 -1.10843
2.13022 0.940706 0.129135
2.42747 1.38962 -0.918403
-0.794469 2.84777 0.427397
-1.14164 1.93647 1.66693
1.4189 2.64143 -0.33305
2.00006 2.74073 -0.890589
0.939263 3.16276 -0.753263
-1.09603 1.96221 1.58787
1.73151 2.56574 -0.470114
-0.403886 1.86407 1.31822
0.449326 3.19167 -0.632096
2.42616 2.57889 -1.47073
-0.843944 1.97901 1.37968
0.104259 2.96402 -0.181647
2.07545 1.7617 -0.221312
2.47792 1.4878 -1.09492
0.314379 2.66438 0.0979993
2.38306 1.90941 -0.910998
2.30836 2.35652 -0.997743
-0.742117 2.44387 0.796223
2.38639 2.70018 -1.50514
1.90248 2.00115 -0.144558
0.854751 3.23835 -0.847832
1.95483 2.9137 -1.03565
-0.130737 3.1856 -0.397885
2.53554 2.03905 -1.43957
2.53849 2.193 -1.55101
-1.02443 2.10926 1.34243
0.387176 3.02725 -0.366537
0.487642 2.92491 -0.268069
1.04475 2.07223 0.478616
0.493593 3.16837 -0.608938
-0.676195 2.18485 1.03445
2.06976 1.52183 -0.0548155
2.33748 2.7648 -1.45689
1.88166 1.66393 0.174592
-0.838688 1.98946 1.36266
-0.710764 1.95632 1.33235
2.28594 1.57163 -0.558701
0.480248 2.20641 0.554324
-0.468256 1.90075 1.29159
1.13841 1.78347 0.817968
2.17582 0.789163 -0.00862332
-1.04136 2.31298 1.13475
2.10241 1.15647 0.0991129
-0.462255 2.27073 0.832762
2.04171 1.64368 -0.0824257
0.665131 2.12688 0.580622
2.09242 2.95307 -1.25461
2.03411 1.35149 0.148844
-0.858091 3.29159 -0.0195767
0.452933 1.8601 1.02108
-1.12208 2.25004 1.26606
-1.08421 2.60328 0.894931
-0.873492 3.01502 0.320319
1.56411 1.60748 0.712746
-0.589941 2.48754 0.664782
2.33216 1.17696 -0.605699
-1.12746 2.44514 1.07849
1.86464 3.15279 -1.29296
1.54113 1.83275 0.418743
1.26134 2.28404 0.125201
-0.258098 2.74543 0.227302
0.522593 3.1992 -0.668976
-0.944611 2.70785 0.680031
1.42689 3.14283 -0.941956
-0.0600024 2.75903 0.128193
1.81887 3.05543 -1.09117
-0.00351863 2.39522 0.50924
0.641385 2.14807 0.564234
-0.349343 2.23447 0.823638
0.000932837 2.06407 0.893305
1.06594 3.00248 -0.576788
0.526099 3.10791 -0.527353
1.04179 2.65783 -0.16356
1.63461 1.99093 0.155609
1.61469 3.16925 -1.10199
-0.256935 2.93357 0.00943991
2.03479 1.15843 0.324371
-0.942975 2.75458 0.634834
1.34908 3.02039 -0.72903
0.618509 2.8758 -0.252689
1.5475 3.1453 -1.01808
2.17338 0.720236 0.0203156
-0.594275 2.15947 1.02103
0.839902 2.34104 0.264912
-1.20484 2.79947 0.846634
1.46577 3.05249 -0.834719
0.673578 2.69659 -0.063633
2.12634 2.62144 -0.926456
0.136673 2.92734 -0.147457
2.15436 1.05298 -0.0174011
1.77048 2.88572 -0.833514
2.31374 1.5579 -0.623005
1.13637 2.64713 -0.193915
0.800798 2.05262 0.617
1.84722 1.87503 0.031445
-1.03321 2.28025 1.16184
1.1269 2.69263 -0.239005
-0.190569 3.16409 -0.334657
0.607482 2.20223 0.512937
2.50781 2.26806 -1.46285
1.71502 2.82885 -0.726193
1.67409 2.65175 -0.51023
2.42759 2.56468 -1.45829
0.448453 1.89591 0.968121
-0.230166 1.89528 1.2037
-0.465735 2.61909 0.462917
-0.0702859 3.13451 -0.345762
2.43758 2.27826 -1.23633
0.452199 3.03941 -0.405329
-1.28811 2.56327 1.13448
1.07634 1.92351 0.649994
0.901103 1.81039 0.912595
2.29216 1.11478 -0.475446
1.5381 2.97674 -0.779353
0.2657 2.97327 -0.252688
1.43151 2.41015 -0.105637
0.021281 3.10476 -0.340523
0.0146723 2.80356 0.0476515
0.292512 2.28921 0.524169
0.437456 2.52107 0.214906
2.32253 2.49743 -1.13407
-0.968186 3.4719 -0.148176
2.36456 2.76059 -1.5305
-0.540798 1.95326 1.25104
2.02789 1.95189 -0.27538
-0.418633 3.06772 -0.0737251
-0.469984 3.26355 -0.330984
2.05209 1.70105 -0.140398
-0.211734 3.20521 -0.389801
2.29479 2.32542 -0.950503
1.76543 2.2876 -0.243207
-0.296495 1.82254 1.34005
-0.644945 2.86231 0.307862
2.05988 3.06034 -1.37809
1.50426 1.7557 0.554583
-0.682409 2.6464 0.555229
2.22517 2.90667 -2.3198
2.41268 2.33103 -2.42226
2.37149 2.75092 -2.19277
2.47044 2.56798 -1.64387
2.16194 2.96079 -2.35347
2.51447 2.45756 -1.74869
2.33579 2.6097 -2.4093
2.47447 2.56896 -2.05005
1.46293 1.79437 -3.45666
2.02841 2.96028 -2.51799
2.45111 2.62948 -1.65451
2.28577 2.95881 -2.06393
1.62816 2.15188 -3.25369
2.2998 2.96177 -1.81398
2.42565 2.66718 -2.12706
2.19203 2.38452 -2.72132
2.24378 3.02503 -1.75942
1.58798 1.97916 -3.3303
2.24249 2.09562 -2.75375
1.75235 2.25767 -3.13724
2.34181 2.88166 -1.72164
1.70346 1.95915 -3.25841
2.17464 2.90048 -2.40753
2.53822 2.35805 -1.92204
2.35536 2.18188 -2.57678
1.99197 2.4396 -2.89099
2.459 2.3288 -2.31935
2.17199 2.92867 -2.37885
1.52425 2.24561 -3.28396
2.13345 2.60843 -2.68027
2.02617 3.0643 -2.39276
2.40821 2.66728 -2.18968
2.56673 2.17635 -1.89764
2.37357 2.42647 -2.45123
2.39839 2.23367 -2.48781
1.81124 2.64427 -2.92538
1.8303 2.92426 -2.71388
1.9698 2.68897 -2.7838
1.98166 2.44163 -2.89866
2.34788 2.19941 -2.58299
2.27682 2.40986 -2.60776
2.11031 2.07974 -2.9006
1.31031 2.76457 -3.09726
1.37152 2.2659 -3.36077
1.61272 2.2245 -3.23875
2.04544 2.21015 -2.92597
1.55027 2.44446 -3.18441
2.19668 3.0851 -1.94915
2.01783 2.35058 -2.90378
2.0566 2.08006 -2.95145
