ply
format ascii 1.0
comment Created by Open3D
element vertex 400
property double x
property double y
property double z
end_header
-1.07069 -1.73009 2.05907
-0.80089 -0.118985 2.65908
-0.741684 -0.615664 2.82793
-0.804624 -1.94598 2.46114
-0.740348 -0.202565 2.86535
-1.60988 -1.54059 1.29045
-0.751266 -0.25086 2.80805
-1.16226 -0.511139 1.9524
-1.14503 -0.0782272 2.03781
-1.2266 -1.47618 1.8384
-1.50324 -1.0788 1.44908
-1.01347 -1.55367 2.16219
-0.798217 0.476795 2.98925
-0.804115 -1.07666 2.60924
-0.736685 -0.192298 2.88636
-0.718244 -0.417257 2.97322
-0.83276 -1.97045 2.40134
-1.20319 -2.31454 1.79262
-0.793239 -0.308489 2.65699
-0.914409 0.450745 2.58662
-1.08843 -1.77402 2.02857
-1.51281 -0.618619 1.47249
-0.816715 -0.893267 2.5773
-1.3125 -0.484085 1.7485
-1.12334 -0.670564 2.00072
-0.947544 -1.24584 2.2895
-0.853655 0.17141 2.59552
-0.820322 -0.304289 2.58288
-1.5284 -0.218298 1.53624
-1.05865 -0.229824 2.13628
-0.997021 -1.22013 2.20103
-0.680421 -1.88523 2.78867
-1.26665 -0.429864 1.81585
-0.896519 -1.67554 2.35279
-1.22743 -2.53105 1.71029
-1.40767 -1.49463 1.58002
-1.14973 0.131635 2.08635
-0.94934 -0.14123 2.32956
-1.38437 -0.737972 1.62879
-1.63229 -1.68418 1.25727
-1.38967 -0.624382 1.63156
-0.756152 -0.559788 2.76817
-0.749222 -0.334702 2.80723
-1.04769 -1.78923 2.08822
-1.57509 -2.62555 1.27243
-1.35901 -1.12632 1.64969
-0.920059 -0.84973 2.34459
-0.734507 -0.664532 2.86239
-1.17721 -1.53422 1.90975
-1.60907 -0.911157 1.31213
-1.05455 0.135425 2.2199
-0.941279 -0.96525 2.30342
-1.02683 -1.03122 2.15059
-0.991972 -1.70679 2.18448
-0.736027 -1.36996 2.80606
-0.732131 -1.1935 2.85373
-0.760875 -1.55433 2.67918
-1.72106 -1.66331 1.12195
-1.12185 -1.8471 1.97282
-1.31121 -1.49968 1.71659
-1.44456 -2.2682 1.49544
-0.722069 -1.84163 2.6876
-1.12362 -1.27918 1.99406
-0.987786 -1.57232 2.20358
-1.38596 -1.59651 1.61021
-0.782916 -1.49138 2.63027
-1.40901 -0.719 1.59729
-1.37508 -2.33168 1.57572
-1.33174 -0.51611 1.71941
-1.33552 -2.28368 1.63302
-0.958073 -1.00501 2.27192
-1.67672 -1.49004 1.19087
-0.919755 0.0311056 2.41704
-1.09759 0.220193 2.18572
-1.52073 -1.77756 1.41858
-0.763428 -1.31607 2.71524
-1.76041 -1.04421 1.08351
-1.68467 -0.763718 1.22662
-1.1159 -0.435677 2.02663
-1.11874 0.0219627 2.09731
-1.52725 -1.54832 1.41025
-1.0079 -0.396107 2.19936
-1.0673 -1.9356 2.04065
-1.36056 -1.03286 1.64882
-1.79013 -1.6936 1.01033
-1.26712 -0.739068 1.78916
-0.731346 -0.0843296 2.94899
-0.887476 0.180666 2.52302
-1.84713 -0.688298 1.01977
-0.779154 -0.813463 2.68623
-1.22219 -1.06025 1.84607
-0.831975 0.45165 2.80233
-1.08029 0.25767 2.22332
-1.3723 -2.05747 1.61135
-0.760387 -0.132434 2.79079
-1.26058 0.14973 1.95469
-1.22077 -2.09314 1.8082
-0.630082 -1.97923 2.8988
-1.40649 -1.75398 1.57925
-1.38057 -1.69041 1.61664
-1.63588 -1.69493 1.25193
-1.11456 -0.81149 2.01022
-1.35571 -2.17449 1.62175
-1.64692 -1.08508 1.24642
-1.54105 -2.39613 1.35354
-1.25065 -2.55837 1.67606
-1.12035 -0.806554 2.00138
-1.26293 -0.00976514 1.90228
-1.43379 -2.80555 1.39713
-1.07854 0.113462 2.17856
-1.06981 -0.212189 2.12181
-1.61085 -2.50548 1.24566
-1.45823 -1.35683 1.50856
-0.852792 -0.708259 2.4884
-1.13022 -2.35394 1.87299
-1.69384 -2.79383 1.07976
-1.02417 0.119763 2.26137
-1.53243 -1.63144 1.40278
-1.24592 -0.823801 1.81565
-0.895346 -0.836684 2.3947
-0.86477 0.106427 2.54946
-0.655962 -1.89652 2.87276
-1.20067 -1.83091 1.8623
-1.25208 -2.05886 1.77097
-1.12721 -1.41486 1.98721
-1.28272 -0.849108 1.76272
-1.14503 -0.0763817 2.0382
-1.68936 -1.45637 1.17193
-0.72757 -1.84494 2.67119
-1.34736 -1.6237 1.66423
-1.29851 -0.645977 1.75161
-0.884774 0.0134916 2.48259
-1.33789 -2.23159 1.63756
-1.61062 -2.98505 1.13328
-1.27095 -0.422178 1.8111
-1.29274 -2.26049 1.69071
-1.79508 -0.702998 1.08814
-1.65121 -1.24283 1.23325
-0.901766 -2.00427 2.2759
-1.57541 -2.54112 1.28719
-1.73185 -2.06561 1.10247
-1.53806 -0.404112 1.47872
-1.139 -2.32834 1.86871
-1.60781 -1.26926 1.29583
-1.63048 -2.70646 1.18407
-0.898089 0.337283 2.56229
-0.747483 -1.01156 2.79881
-0.832618 0.46109 2.80794
-0.724169 -2.00646 2.59951
-1.46892 -1.4454 1.49336
-1.38552 -1.96272 1.60014
-0.959721 -1.66546 2.24247
-1.11418 -2.02195 1.96181
-1.55787 -0.402938 1.45517
-1.30114 0.0617658 1.87791
-0.701888 -1.79935 2.77015
-0.779373 -0.654484 2.68581
-1.75523 -2.28044 1.05784
-1.57934 -0.467794 1.41511
-0.92783 -0.60109 2.33214
-0.877244 -1.51343 2.41039
-1.67035 -0.294545 1.3532
-1.34584 -0.876862 1.67372
-0.946194 -1.01224 2.29409
-1.16422 -2.16317 1.87156
-0.735313 0.0356735 2.97837
-0.803874 -0.915116 2.61213
-1.78006 -1.04694 1.05357
-1.12628 -2.47725 1.84253
-0.67429 -1.68691 2.97878
-0.78276 -0.875335 2.67467
-1.29922 -2.0396 1.71029
-0.747186 -0.885623 2.80282
-1.54026 -0.328833 1.49345
-0.731502 -1.00896 2.87338
-0.719029 -0.74819 2.95772
-1.71697 -2.13747 1.12351
-1.52937 -1.44901 1.40725
-1.59086 -0.690023 1.36166
-1.46836 -0.879563 1.50611
-0.751711 0.0594535 2.88735
-0.777429 -0.910874 2.6915
-0.779133 -0.42367 2.69234
-0.758909 -1.01996 2.75365
-1.26968 -2.55114 1.65629
-1.38444 -0.804235 1.62434
-0.826056 -0.61391 2.55412
-1.64588 -2.56111 1.18978
-1.03865 -2.33144 1.99218
-0.837165 0.195338 2.64503
-0.717275 -1.36128 2.8962
-0.769467 -0.0311198 2.77964
-1.72301 -0.99835 1.14333
-1.53622 -1.26863 1.39852
-0.937829 -1.51742 2.29473
-0.638673 -2.01764 2.82227
-1.13983 0.00131522 2.06326
-0.746521 -0.354501 2.81705
-0.911807 0.153096 2.46495
-1.59863 -2.92718 1.1669
-1.1531 -0.887822 1.9502
-1.66889 -1.76774 1.2023
-1.37447 -1.74895 1.62395
-0.86733 0.353065 2.63953
-1.53832 -2.54933 1.33371
-1.57596 -0.590052 1.39629
-0.882377 -1.6276 2.38632
-0.678999 -1.74786 2.8953
-1.05263 -2.41656 1.94834
-0.890042 -0.748267 2.40603
-1.75705 -1.67495 1.06464
-0.911256 -0.917139 2.36213
-0.665246 -1.73842 2.98934
-0.77443 -0.46749 2.7057
-1.52332 -0.687421 1.45003
-1.01475 -2.26955 2.04093
-0.918468 -0.905754 2.34771
-1.25738 -0.586453 1.81253
-1.53839 -1.56957 1.39426
-0.717098 -0.454238 2.97974
-1.24662 -0.192977 1.87973
-1.75363 -0.986661 1.09975
-0.851074 -1.65746 2.44339
-0.820802 0.0248548 2.63462
-1.1261 -2.18734 1.91664
-0.919493 -2.32763 2.14489
-1.15518 -0.144073 2.01053
-0.834471 -1.9093 2.41705
-1.30324 -1.98325 1.70987
-0.9484 -2.05273 2.19171
-1.62542 -0.769028 1.30534
-0.783807 -2.0509 2.45968
-1.09597 -0.0184484 2.11961
-0.729671 -0.185142 2.92919
-1.77873 -1.6592 1.02932
-1.00321 -1.29591 2.18924
-1.52916 -0.717784 1.43881
-1.2633 -2.1959 1.73824
-0.992071 -1.88496 2.16022
-1.51318 -2.79275 1.30938
-0.682994 -2.03948 2.6762
-1.26287 -2.45002 1.68994
-0.97037 -1.4118 2.24292
-1.23049 -2.34672 1.75217
-1.05119 -0.314938 2.13719
-1.09653 -2.44498 1.88727
-1.37735 -1.53834 1.62271
-0.847107 -1.65887 2.45122
-1.18201 -1.03676 1.90557
-1.57465 -0.83387 1.36611
-0.734755 -1.38378 2.80826
-0.850558 -2.19975 2.2901
-1.29384 -1.08458 1.74241
-0.982829 -2.21294 2.09956
-0.712665 -2.08813 2.57902
-1.24075 -1.32165 1.81861
-1.12267 -0.971197 1.996
-0.799207 -1.72939 2.53808
-0.748607 0.0266933 2.88935
-1.20394 -1.76186 1.86211
-0.854574 -1.17703 2.48075
-1.35948 -0.717112 1.6638
-0.90603 0.172421 2.48238
-1.36477 -1.60952 1.63992
-0.929966 -0.269613 2.34847
-1.42237 -2.79637 1.41281
-0.775413 -1.09623 2.69393
-1.60145 -2.46558 1.26389
-1.36047 -0.591785 1.67336
-1.17957 -2.13588 1.85612
-1.32003 -1.10136 1.70501
-1.49579 -2.54308 1.38858
-0.732746 -2.09698 2.53385
-1.67448 -3.03205 1.03693
-0.808647 -0.801817 2.59906
-0.822238 -1.26712 2.55353
-1.79445 -2.09388 1.00118
-1.18807 -1.68487 1.88877
-1.451 -1.1457 1.52043
-1.35164 -1.97187 1.64543
-1.35066 -0.554867 1.69019
-1.75253 -0.519632 1.18949
-0.835291 -0.210435 2.55522
-1.76841 -1.62771 1.04632
-0.953802 -1.59031 2.2602
-1.19355 -1.21154 1.88816
-0.958724 -2.07915 2.16983
-1.39999 -1.74199 1.58857
-1.27652 -1.67861 1.7629
-0.817712 0.348151 2.77579
-1.08747 -0.733432 2.05409
-1.04657 -0.428648 2.13375
-0.862246 -1.09283 2.46527
-0.74708 -0.715231 2.80375
-0.861942 -0.158526 2.50025
-1.72294 -1.11795 1.1333
-1.14886 0.222321 2.11788
-0.81878 -1.97862 2.42367
-1.00691 -1.70466 2.16065
-1.661 -2.1729 1.20588
-0.809439 0.0963504 2.6864
-0.800311 -0.465566 2.6268
-1.66466 -2.05324 1.20508
-1.2152 -1.94994 1.83214
-1.70806 -2.63242 1.09155
-1.05498 -1.57488 2.09417
-1.36018 -1.8716 1.63944
-0.828446 0.377482 2.75993
-1.44444 -1.51807 1.52802
-1.20857 -1.5948 1.86236
-1.62734 -2.6043 1.20783
-0.763583 -0.482706 2.74255
-1.54203 -1.65842 1.38895
-1.73076 -0.761349 1.16447
-1.3754 -0.703182 1.64345
-0.911298 -1.19568 2.36013
-1.42592 -0.143316 1.67373
-0.830143 -2.0024 2.39542
-1.5265 -2.81896 1.28616
-0.899461 -1.87945 2.31016
-0.857346 -1.27163 2.47084
-0.841309 -1.99853 2.37734
-1.35495 -0.719686 1.66972
-0.62393 -1.94005 2.99306
-1.10551 -0.0221537 2.1052
-0.876445 -0.932165 2.43489
-0.858569 0.04517 2.54706
-1.5938 -0.484927 1.39382
-1.08571 -2.0535 1.99587
-0.898301 -0.293145 2.40766
-0.765889 -1.48957 2.67883
-1.56077 -1.41789 1.3622
-0.671999 -1.69704 2.98545
-1.29374 -2.61174 1.61201
-1.66111 -0.582995 1.28967
-1.6135 -2.10556 1.27782
-1.55576 -2.7466 1.27006
-1.59259 -2.32088 1.2925
-1.72602 -1.99312 1.11288
-0.802305 -0.438512 2.62235
-0.908484 -1.55945 2.34497
-1.06444 0.206291 2.22784
-0.717197 -1.24567 2.92717
-1.4452 -1.0609 1.5303
-1.20358 -0.771256 1.87824
-0.839067 -0.69247 2.52105
-0.940148 -0.697709 2.30671
-0.749498 -0.0549917 2.85619
-0.96088 -1.49073 2.25545
-0.821729 0.547046 2.95204
-1.66911 -0.404508 1.32226
-1.06177 -0.0893995 2.15477
-1.68537 -1.72432 1.17724
-0.726906 -0.961793 2.90117
-0.934647 -1.18011 2.31494
-1.47275 -2.61885 1.40136
-1.3695 -0.5059 1.67144
-1.60585 -0.848387 1.32247
-1.56527 -0.821354 1.37994
-1.15343 -0.456529 1.96981
-1.34265 -0.00285671 1.80976
-1.76413 -1.43605 1.0555
-0.801131 -1.52221 2.57777
-1.36084 -2.50969 1.55982
-1.7941 -1.2188 1.01678
-0.792405 -2.12633 2.41222
-1.44889 -2.43031 1.4672
-0.906087 -0.97172 2.37257
-0.761384 -1.54492 2.67996
-0.755034 0.17153 2.93194
-1.67392 -0.973163 1.21616
-1.50947 -1.93705 1.43104
-0.836224 -1.90695 2.41449
-1.41636 -2.01054 1.55551
-1.52946 -0.787328 1.4311
-1.25523 -2.13986 1.7567
-0.964359 -1.08112 2.26022
-0.910881 0.0736805 2.4445
-0.72419 -1.13461 2.90346
-0.998265 -0.886302 2.19978
-1.75068 -0.350774 1.24305
-1.07764 -1.07757 2.06688
-1.49923 -2.04209 1.44084
-0.648374 -1.93869 2.86371
-0.717374 -0.672006 2.97103
-0.741465 -0.371365 2.83839
-0.758775 -1.06369 2.75254
-0.952041 -1.41641 2.27541
-1.68796 -0.821856 1.21369
-0.721871 -0.493221 2.94041
-1.02305 -2.15455 2.06067
-0.748635 -1.52637 2.72377
-0.776191 -0.989327 2.69456
-0.768017 0.140728 2.84788
-0.928622 -0.548694 2.33221
-1.1527 -0.143939 2.01397
-0.985276 -2.24574 2.08657
-0.982129 -0.949319 2.22819
-1.12788 -1.46665 1.98522
-0.970935 -1.47438 2.23879
