ply
format ascii 1.0
comment Created by Open3D
element vertex 400
property double x
property double y
property double z
end_header
0.8763 -3.01802 -0.539933
-0.754769 -1.7352 -2.26596
0.684254 -2.50321 -0.929308
0.562041 -1.16832 -1.75221
0.431196 -3.183 -0.628448
0.638913 -3.00728 -0.659398
0.964568 -1.54268 -1.29386
0.295029 -2.54378 -1.10521
-0.770687 -1.86042 -2.23233
-0.881008 -1.23026 -2.72596
1.19889 -3.04141 -0.364004
0.350099 -1.96108 -1.37087
-0.0954497 -1.21784 -2.03534
-0.604196 -1.75556 -2.09705
-0.302612 -1.68925 -1.88618
1.39241 -3.28798 -0.0847467
1.04677 -2.94363 -0.503432
-0.550428 -1.06957 -2.46224
1.25713 -2.15301 -0.799978
-0.0767669 -1.06957 -2.13744
0.169818 -2.36116 -1.26722
-0.0641117 -2.19382 -1.48616
-0.342292 -1.64446 -1.93684
0.473731 -1.99424 -1.2915
1.16695 -2.14502 -0.856568
0.146914 -2.58018 -1.16651
0.572852 -1.15557 -1.75777
-0.514416 -2.71029 -1.58675
0.115349 -1.44477 -1.77352
-0.433591 -2.86669 -1.41778
0.830714 -3.25578 -0.388619
-0.158863 -1.58042 -1.84985
0.782675 -1.39833 -1.47937
-0.501965 -1.63623 -2.06354
0.601949 -1.49434 -1.50395
0.443653 -1.71681 -1.45173
-0.80025 -2.09335 -2.18348
-0.374149 -2.83338 -1.3825
1.01423 -2.5775 -0.724282
0.846671 -1.51447 -1.37186
0.0330443 -1.39361 -1.84851
-0.0235824 -3.02316 -0.994928
-0.560325 -1.25354 -2.33275
-0.198937 -1.8332 -1.74511
-0.612408 -1.80572 -2.0822
1.10634 -1.58978 -1.18805
-0.190451 -2.81041 -1.24899
0.140903 -1.63126 -1.65242
-0.579978 -3.04546 -1.46537
0.190608 -1.74814 -1.56325
-0.752941 -1.07602 -2.67261
0.793161 -1.57047 -1.36404
-0.118286 -1.14503 -2.10137
-0.883502 -1.36561 -2.63121
-0.516365 -1.08914 -2.41651
0.0564397 -2.44546 -1.28914
0.456554 -3.01989 -0.737965
0.76771 -3.29063 -0.387749
0.735775 -2.03137 -1.14165
0.71435 -1.76389 -1.29244
-0.334958 -0.998422 -2.35549
0.11501 -2.99657 -0.93167
0.590169 -1.51568 -1.49643
0.913956 -3.26785 -0.341214
-0.0642487 -3.02216 -1.02152
-0.490132 -1.17262 -2.33056
-0.372614 -2.94247 -1.31242
0.476542 -2.51084 -1.02901
-0.259552 -1.45909 -1.98136
-0.282801 -2.79125 -1.3306
-0.257956 -2.72096 -1.35159
1.0176 -1.59275 -1.23498
0.744257 -2.7936 -0.741416
-0.817541 -1.13946 -2.70402
-0.582399 -1.64194 -2.13075
0.427241 -3.05168 -0.729861
1.08801 -2.81828 -0.555949
1.3531 -2.97865 -0.317894
-0.278777 -2.25805 -1.59984
-0.115928 -2.92932 -1.12087
-0.450617 -2.54003 -1.60812
-0.538802 -2.88845 -1.51572
-0.542694 -2.31062 -1.79931
-0.0968218 -2.51544 -1.34804
-0.70761 -1.67523 -2.23958
0.952752 -2.14508 -0.973354
0.654581 -2.644 -0.869218
-0.44742 -2.15555 -1.77938
0.855578 -2.51533 -0.837518
0.694475 -3.08594 -0.579212
-0.703522 -2.39918 -1.94396
-0.266638 -1.78116 -1.81564
0.703913 -1.41971 -1.50298
-0.380901 -1.43155 -2.08034
-0.483635 -2.54257 -1.63812
0.887316 -2.58997 -0.782647
-0.552221 -1.90035 -1.98348
1.00695 -3.13315 -0.399105
-0.171822 -3.1573 -0.987446
-0.503701 -1.9532 -1.91681
-0.437276 -2.39832 -1.66227
-0.412643 -2.24746 -1.70929
0.345875 -1.28905 -1.76075
0.736106 -2.84282 -0.716504
1.22377 -2.78615 -0.501282
-0.241725 -2.45413 -1.47898
-0.616369 -1.74474 -2.11372
0.113151 -2.88105 -1.01031
-0.0524102 -2.67374 -1.23449
0.266543 -1.24894 -1.82688
1.01082 -2.13494 -0.94765
-0.55029 -1.68695 -2.07995
-0.395648 -1.1193 -2.29823
0.488941 -1.42118 -1.60427
-0.120556 -2.87216 -1.16142
0.547838 -2.97572 -0.723795
-0.354399 -1.59151 -1.97303
-0.315884 -1.16378 -2.20919
0.754518 -1.16996 -1.66427
-0.0166943 -3.13289 -0.905705
0.642587 -1.68804 -1.36991
1.39128 -3.16592 -0.175037
-0.126342 -1.45371 -1.90188
-0.662269 -3.15977 -1.49986
-0.660638 -2.69395 -1.76717
1.10618 -1.33431 -1.35973
0.27576 -1.74286 -1.52193
1.22566 -3.29775 -0.167507
-0.69759 -2.45342 -1.9155
1.394 -3.26247 -0.103457
-0.689814 -2.65259 -1.82482
-0.558988 -2.90955 -1.52681
0.65631 -2.68747 -0.844498
0.914379 -1.69694 -1.22843
1.05607 -2.64489 -0.667212
0.213836 -2.00654 -1.41906
0.827482 -2.20343 -1.00891
-0.453894 -1.63225 -2.02662
1.1894 -2.38212 -0.727768
-0.390955 -1.0399 -2.35904
0.200766 -1.05448 -2.01016
1.30003 -2.51434 -0.5987
1.15743 -1.51831 -1.20359
-0.121693 -2.90395 -1.14164
-0.656202 -1.94731 -2.06552
-0.0609169 -1.036 -2.15686
-0.519001 -1.3002 -2.26681
0.693461 -1.20082 -1.66683
-0.554916 -1.80683 -2.02785
-0.191113 -2.97211 -1.14464
1.38618 -3.37585 -0.016313
1.11106 -2.48463 -0.72028
1.22847 -2.21553 -0.786515
0.179442 -2.64945 -1.11046
0.753363 -1.59625 -1.36833
-0.700883 -1.0767 -2.60814
0.646406 -1.17809 -1.70646
1.38951 -3.01365 -0.275333
0.773352 -1.19854 -1.63205
1.2622 -2.71152 -0.519978
0.864728 -2.30051 -0.941527
0.295 -1.21251 -1.83994
0.732275 -1.19106 -1.65701
-0.12328 -2.92017 -1.132
0.118858 -1.93051 -1.50831
0.818799 -3.19583 -0.441213
0.846045 -1.30611 -1.51411
-0.670148 -3.14495 -1.52423
0.671467 -2.57615 -0.897361
0.371878 -1.18547 -1.82464
1.12219 -2.71368 -0.59566
0.74557 -3.13926 -0.517143
0.745633 -2.03113 -1.13682
0.9693 -2.50152 -0.786628
0.105862 -2.80818 -1.06
0.387425 -2.6823 -0.981528
0.00529006 -2.52355 -1.27945
-0.554901 -2.26248 -1.83177
0.563535 -1.9072 -1.29122
-0.136703 -1.54836 -1.85402
0.273972 -2.41289 -1.18449
0.101944 -1.56756 -1.70864
0.344221 -1.67529 -1.52396
-0.419397 -2.03536 -1.80949
-0.0911654 -2.70846 -1.24009
-0.471681 -1.85877 -1.93211
-0.855021 -1.27213 -2.65217
-0.639542 -1.06675 -2.55
1.11795 -2.11708 -0.898019
-0.666128 -1.06055 -2.58364
0.892756 -2.84261 -0.640363
1.23756 -2.42937 -0.677062
1.13713 -1.50242 -1.22548
-0.122158 -2.93968 -1.11813
-0.439371 -2.77397 -1.47723
-0.290129 -2.62945 -1.42643
0.201416 -3.12769 -0.786522
0.201715 -2.25583 -1.30229
-0.609776 -1.2473 -2.38188
1.193 -2.24192 -0.794208
1.1285 -2.50288 -0.70162
-0.0823603 -2.39542 -1.39938
-0.301604 -2.69648 -1.39948
0.0564486 -1.41145 -1.82494
-0.224849 -2.67462 -1.35236
-0.0632771 -3.18211 -0.89297
-0.481945 -2.9484 -1.41572
0.279878 -1.47174 -1.67368
0.550356 -2.14166 -1.17896
0.339277 -3.12777 -0.716377
0.543845 -1.35336 -1.62338
-0.499353 -2.89304 -1.46908
-0.553119 -1.63007 -2.11037
-0.366686 -1.05092 -2.33231
1.01894 -1.74516 -1.14598
0.610793 -3.20997 -0.524192
-0.168278 -1.41072 -1.95256
-0.624828 -3.1348 -1.46154
-0.744614 -2.14862 -2.08938
1.02205 -2.4818 -0.769184
-0.559835 -2.43206 -1.76449
-0.241783 -1.97912 -1.70363
0.601995 -1.12921 -1.76682
0.0774636 -2.77305 -1.09766
-0.176368 -1.73401 -1.7801
0.418363 -1.93125 -1.35139
0.558401 -3.17136 -0.578625
0.341747 -3.16016 -0.689648
-0.329035 -1.54466 -1.98021
0.241742 -1.54356 -1.65001
-0.123248 -2.51966 -1.36331
-0.0471994 -2.58789 -1.27806
0.485846 -1.14165 -1.80792
0.803021 -3.16867 -0.468974
-0.021757 -2.57168 -1.27074
0.0079541 -3.13837 -0.886231
-0.546427 -3.07863 -1.39904
1.10152 -2.68253 -0.623308
0.71501 -1.63861 -1.36245
0.421164 -1.84607 -1.39395
0.0105514 -2.37507 -1.35195
-0.534973 -1.47868 -2.17406
-0.67654 -3.06731 -1.58987
0.36791 -2.75101 -0.952275
-0.774362 -1.91709 -2.2144
0.167243 -2.5003 -1.19743
0.334492 -2.05629 -1.33106
-0.0891861 -1.4664 -1.87268
1.22644 -3.03492 -0.353497
-0.240796 -2.53589 -1.43737
1.24842 -2.5561 -0.6079
-0.459048 -3.17783 -1.21785
0.539407 -1.70788 -1.40948
-0.130132 -1.90756 -1.66495
-0.473397 -2.80669 -1.49244
0.367987 -1.29434 -1.74662
-0.171339 -3.02399 -1.09311
0.0823441 -1.06646 -2.05706
-0.554667 -1.10533 -2.43662
0.708119 -2.54685 -0.894681
1.11864 -3.23815 -0.267817
-0.542801 -2.29695 -1.80524
1.28396 -3.15577 -0.24229
0.232172 -1.78441 -1.52246
-0.59335 -1.36254 -2.29256
-0.551125 -2.82971 -1.56352
0.193887 -2.75891 -1.03994
-0.624041 -2.52944 -1.79353
-0.0887684 -2.7013 -1.24258
-0.0388337 -3.12789 -0.923524
0.982155 -1.45668 -1.33995
0.814806 -2.20675 -1.01369
-0.0442127 -1.76718 -1.68296
-0.652338 -2.91266 -1.64684
0.132953 -1.14019 -1.97267
-0.581135 -3.09423 -1.4316
1.26107 -2.11604 -0.815683
-0.489135 -3.13478 -1.28769
-0.718211 -1.42044 -2.38294
0.825497 -1.7375 -1.25121
-0.117931 -2.18653 -1.52355
0.811273 -3.05353 -0.547089
-0.367612 -2.87145 -1.35349
0.285284 -2.61501 -1.07202
-0.66466 -1.67513 -2.19423
1.24185 -2.92621 -0.411706
1.05708 -2.48358 -0.749774
0.844974 -2.12794 -1.03769
-0.396369 -2.66478 -1.49647
-0.832195 -1.64221 -2.40622
-0.560451 -2.89522 -1.53706
-0.853956 -1.59558 -2.45864
0.241564 -3.07168 -0.808492
0.310223 -2.13963 -1.30219
-0.761936 -1.86154 -2.22105
0.909548 -3.16322 -0.423734
-0.541538 -1.69825 -2.06681
-0.658594 -2.68863 -1.76685
0.820056 -1.63078 -1.31472
1.3223 -3.03407 -0.30139
-0.519266 -1.83021 -1.98558
0.808239 -2.42413 -0.908003
-0.305379 -1.28465 -2.1185
1.31262 -2.70586 -0.493971
-0.492032 -1.44216 -2.15897
-0.0599878 -2.03963 -1.5578
1.36068 -3.21949 -0.154467
0.752751 -2.21885 -1.03901
-0.176834 -1.45673 -1.93051
0.931265 -2.77347 -0.660961
-0.40268 -1.19075 -2.25036
0.175503 -3.13275 -0.796223
0.0974596 -2.56839 -1.20106
1.04811 -1.66941 -1.1731
0.472728 -2.85356 -0.838197
0.402015 -2.53384 -1.05481
-0.319761 -3.16154 -1.09916
0.190764 -1.19724 -1.90108
0.144376 -1.10773 -1.99278
-0.556897 -3.19675 -1.31586
1.11889 -3.348 -0.179075
1.15778 -3.08811 -0.354918
-0.480607 -1.47925 -2.12891
1.10743 -1.83717 -1.04707
0.689169 -1.70528 -1.3373
0.321349 -2.48308 -1.12326
-0.677684 -1.39615 -2.35406
-0.852887 -1.72626 -2.39751
-0.461934 -1.03608 -2.41632
0.38778 -2.26759 -1.19836
0.302706 -2.69512 -1.01827
-0.610735 -2.9003 -1.59694
0.149122 -1.23293 -1.89556
-0.540174 -2.84198 -1.54413
0.565394 -1.25222 -1.68555
-0.596855 -2.60418 -1.72888
0.0153701 -2.10076 -1.48329
-0.523372 -1.94265 -1.93882
-0.445302 -1.95673 -1.86588
-0.846096 -1.12513 -2.76163
0.432694 -1.47239 -1.5988
0.839482 -1.46717 -1.40571
0.897367 -2.95115 -0.572544
0.481405 -3.07529 -0.686813
0.596984 -2.83569 -0.788134
0.477965 -1.58689 -1.50813
0.071016 -1.48871 -1.77062
-0.114712 -2.45818 -1.38898
-0.291142 -2.05826 -1.70131
0.171606 -2.6536 -1.11251
-0.0192085 -2.35034 -1.38227
-0.750832 -1.25394 -2.52598
0.0701784 -2.66569 -1.16383
1.21677 -2.65449 -0.575458
0.183861 -2.92803 -0.94012
1.06224 -2.63771 -0.667756
0.767179 -1.24761 -1.59599
0.792634 -3.24746 -0.412434
-0.325664 -1.28657 -2.13089
0.922277 -2.01649 -1.05394
0.835473 -1.7546 -1.23668
0.721608 -1.5094 -1.43676
0.357526 -2.48608 -1.10282
0.0118939 -1.13032 -2.04165
0.651425 -1.22328 -1.66828
0.542078 -2.30567 -1.10101
0.0663814 -1.13502 -2.00995
0.846488 -3.19214 -0.431356
0.0315102 -1.22458 -1.96152
-0.233412 -2.18285 -1.60249
1.23719 -2.06077 -0.857197
1.00178 -3.15446 -0.386448
-0.321342 -2.3829 -1.57343
0.221576 -3.15929 -0.750615
1.37994 -3.34634 -0.0448306
-0.830138 -1.77534 -2.34491
-0.218831 -2.12884 -1.61768
-0.0294691 -3.00025 -1.01518
0.173073 -1.60346 -1.65102
0.744314 -2.99789 -0.615805
-0.456015 -1.72637 -1.98167
0.927613 -2.96396 -0.549825
1.15779 -2.55277 -0.660367
-0.740174 -1.84721 -2.20074
0.27085 -2.5201 -1.13059
-0.266556 -1.17592 -2.168
-0.530788 -1.8057 -2.00688
1.13439 -2.97602 -0.438809
-0.367152 -1.32684 -2.1338
0.769484 -2.61628 -0.827485
0.452891 -3.09694 -0.684614
-0.648211 -1.31459 -2.37444
0.238876 -1.41365 -1.72999
-0.687486 -2.12906 -2.02731
1.35033 -2.8277 -0.406424
0.302948 -1.5611 -1.60911
0.572429 -2.6963 -0.880864
-0.398569 -2.40917 -1.62377
-0.526903 -1.23028 -2.31992
0.350633 -1.28462 -1.76162
