ply
format ascii 1.0
comment Created by Open3D
element vertex 250
property double x
property double y
property double z
end_header
-2.56642 0.196328 1.75819
-1.90752 -1.54934 0.286722
-2.32526 0.782759 0.459077
-2.5447 -0.290426 1.93608
-2.66139 1.01948 1.28797
-2.39108 0.265746 0.939503
-2.2444 -0.804235 0.702301
-2.17049 -1.9363 1.41522
-1.798 -1.61524 0.0817265
-1.37682 -2.40539 0.984438
-2.29955 0.96876 0.238876
-2.35774 -1.40408 1.43708
-2.63673 1.1463 1.0749
-1.16694 -2.85284 1.91089
-2.46948 0.148392 1.29125
-2.47073 -1.60654 2.18404
-2.24731 -2.27214 2.22054
-2.48872 0.222945 1.33911
-2.17884 -0.910822 0.505922
-2.27547 -2.17361 2.08225
-2.02328 -1.79693 0.91826
-2.20991 -1.80961 1.3643
-2.32716 0.52972 0.595433
-1.9216 -1.37298 -0.0596306
-1.16281 -2.40498 0.810126
-2.2784 -0.663644 0.773245
-2.45864 0.882626 0.832047
-2.47661 -0.887804 1.66051
-2.29845 -0.702956 0.864735
-1.09527 -2.1996 0.335639
-2.16624 -2.29085 1.95222
-1.82827 -2.64173 2.04753
-1.84797 -1.50913 -0.0231821
-2.49918 1.18498 0.685615
-1.4254 -2.0897 0.425613
-2.20209 0.798591 -0.177007
-2.70449 0.721702 1.94676
-1.16116 -2.84573 1.87609
-2.18979 -1.48916 0.994082
-2.57301 0.47886 1.54336
-2.55083 0.1466 1.69231
-1.69682 -2.41561 1.33826
-2.23416 -0.322434 0.469784
-2.53976 1.57707 0.334289
-2.72613 1.03673 1.45121
-1.39251 -2.10658 0.422206
-2.51065 1.72414 0.0368037
-1.05429 -2.2919 0.501657
-2.32384 -0.167803 0.806163
-2.30602 -1.32454 1.21083
-1.78105 -2.30118 1.24493
-2.33265 1.152 0.213155
-1.94014 -2.09989 1.17109
-1.51475 -2.37442 1.05801
-2.04698 -1.37405 0.461987
-1.40739 -2.40793 1.0169
-1.87616 -1.44043 -0.116663
-2.32073 -0.863728 1.01116
-2.49768 -0.268792 1.57706
-2.56906 0.999555 1.05204
-1.40318 -2.70243 1.64244
-1.13463 -2.62898 1.25525
-1.14776 -2.03001 -0.0342114
-1.08084 -2.53902 1.02581
-2.58644 0.929485 1.17049
-2.3347 1.51919 -0.270445
-2.3234 -1.4004 1.31987
-2.21888 -2.08696 1.73958
-2.5193 -1.01297 2.01982
-2.32545 1.45799 -0.198607
-2.23163 -1.73694 1.34353
-2.19881 0.721738 -0.141133
-2.5406 -0.507895 2.01882
-1.85655 -2.63278 2.07886
-2.27312 1.16696 -0.058112
-2.51203 -0.0777983 1.58523
-1.69112 -2.03544 0.676132
-1.08926 -2.62466 1.21538
-2.40927 -0.228196 1.16219
-1.5321 -2.48293 1.28159
-1.87165 -2.41939 1.58766
-2.41522 0.950243 0.648797
-1.94108 -2.59889 2.17469
-1.91463 -1.84479 0.758842
-2.52992 -0.949535 2.15273
-2.29545 -2.07079 1.9561
-2.57359 0.109034 1.92046
-1.41417 -2.74428 1.76865
-1.49607 -2.76818 1.9385
-2.34653 1.33772 0.0698769
-2.51507 -0.392825 1.72297
-2.48496 -0.471549 1.57079
-2.16422 -0.870419 0.416229
-2.53676 -0.54653 1.97968
-2.31027 0.932364 0.306958
-1.55998 -1.9987 0.417782
-2.01414 -2.53925 2.17391
-1.76892 -1.76206 0.325331
-2.27483 1.15834 -0.0394218
-2.24758 1.02621 -0.0528032
-1.39205 -2.31852 0.833261
-2.2465 -0.300253 0.518928
-2.21015 0.779517 -0.0888753
-2.08464 -0.893925 -0.0314596
-0.956129 -2.10781 0.00107543
-2.42382 1.31328 0.34978
-1.31825 -2.00479 0.101904
-2.31649 0.681456 0.482538
-1.64968 -1.97474 0.505968
-2.21269 -0.476602 0.424286
-2.2434 -2.25197 2.13745
-1.50332 -1.92312 0.167099
-2.75408 0.903522 1.78044
-2.16187 -0.179158 -0.0438534
-2.42096 1.41934 0.221481
-2.55818 1.30897 0.704116
-2.67176 0.986801 1.35789
-1.93459 -1.336 -0.104392
-2.41015 0.774021 0.754919
-1.0314 -2.38234 0.672112
-2.5017 1.38783 0.47792
-2.37095 -2.03382 2.30886
-1.98909 -1.37291 0.26082
-2.20882 -1.15432 0.782408
-2.46957 0.360305 1.1946
-2.53887 -0.587267 2.04077
-2.56516 1.12811 0.913511
-2.47361 -1.53034 2.08327
-2.45931 0.145692 1.25015
-2.37579 -1.94722 2.09728
-2.32936 0.165946 0.736881
-2.22045 -0.456555 0.452914
-2.29467 0.568523 0.452258
-2.22281 0.238325 0.246374
-2.47884 -1.10148 1.76801
-2.5267 -0.561735 1.87463
-2.37074 -0.995128 1.25117
-2.01424 -1.51816 0.545905
-2.44441 -1.74792 2.19894
-2.53072 0.315656 1.47232
-1.41808 -1.88962 -0.0772244
-2.58473 1.11765 0.974634
-2.45783 -1.41058 1.8557
-2.46577 -0.596926 1.51008
-2.45482 -1.66458 2.12772
-0.909404 -2.10059 -0.0568822
-2.29203 0.848965 0.291247
-2.27194 -0.71143 0.766959
-2.69135 1.42033 0.862985
-2.45041 -1.5468 1.94057
-2.4058 -0.613236 1.25117
-2.11366 -2.22056 1.68912
-2.50026 -0.102747 1.53227
-1.17937 -2.08313 0.141401
-2.34363 -1.84741 1.80311
-1.35313 -2.35998 0.87643
-2.35887 -1.09426 1.2548
-2.18209 -0.602619 0.332484
-1.881 -1.75517 0.556915
-2.40911 1.31053 0.309192
-2.37604 -1.09388 1.31724
-2.57727 0.180749 1.86676
-2.23917 -0.433513 0.529282
-1.5994 -2.7174 1.90547
-2.33788 -1.77109 1.6937
-2.28048 -1.68783 1.43016
-1.85022 -2.63177 2.06104
-2.16749 -0.185578 0.019667
-2.19357 0.527923 -0.0594339
-2.4449 0.611602 0.969147
-2.56125 0.0603353 1.8401
-1.70668 -2.59921 1.72977
-2.51545 -0.46447 1.75031
-2.61113 1.55934 0.516835
-2.11954 -0.867024 0.191556
-2.12322 -0.641162 -0.0563077
-1.0338 -2.31622 0.537749
-2.41959 -1.60692 1.84325
-2.50667 -0.250615 1.6213
-2.23086 -1.36802 1.01042
-2.54923 -0.0284971 1.80459
-2.46937 0.0562118 1.32721
-2.28097 -0.121893 0.618973
-2.35498 -0.325834 0.970168
-1.93182 -2.45994 1.77036
-2.83673 0.986737 1.99818
-1.97903 -2.58183 2.22981
-2.2277 0.842568 -0.0155238
-1.82546 -1.99676 0.823826
-2.58816 0.458144 1.63803
-2.63082 0.456297 1.9626
-1.67358 -1.9963 0.581626
-2.58439 0.190244 1.93774
-1.86518 -2.3965 1.53458
-2.10064 -1.72647 1.00777
-2.18634 0.620835 -0.199421
-2.56125 0.757824 1.25268
-2.27446 -2.24488 2.30115
-1.98155 -1.30895 0.11385
-2.48531 0.843734 0.94275
-1.71559 -2.61497 3.00004
-1.18854 -2.83262 2.77231
-1.65815 -2.73335 2.78911
-1.77065 -2.71401 2.21334
-1.73896 -2.55947 3.06663
-1.63027 -2.78222 2.24089
-1.42809 -2.74879 2.91133
-1.57985 -2.80657 2.55979
-0.112443 -2.14327 3.56401
-1.64399 -2.46511 3.23087
-1.81684 -2.69615 2.25597
-1.88969 -2.61713 2.79622
-0.540902 -2.2525 3.53576
-2.01227 -2.57621 2.58179
-1.62298 -2.77364 2.68233
-1.06613 -2.68147 3.09348
-2.08625 -2.50829 2.57624
-0.349003 -2.23372 3.52396
-0.805139 -2.74397 2.97084
-0.703778 -2.34599 3.46571
-1.99135 -2.59876 2.45624
-0.379995 -2.33113 3.43201
-1.66237 -2.58495 3.081
-1.46445 -2.84535 2.33593
-0.978198 -2.81363 2.84162
-1.00888 -2.52212 3.30128
-1.24108 -2.8554 2.67503
-1.7002 -2.5755 3.07078
-0.59534 -2.15572 3.62615
-1.2735 -2.61055 3.17845
-1.79367 -2.43336 3.17524
-1.59126 -2.77029 2.73897
-1.32109 -2.87174 2.22114
-1.25318 -2.79874 2.85074
-1.07084 -2.83508 2.78324
-1.14852 -2.34891 3.46325
-1.49514 -2.31534 3.41617
-1.2743 -2.47176 3.33569
-1.00574 -2.5137 3.31067
-0.989617 -2.8073 2.85684
-1.15255 -2.73886 2.99366
-0.705302 -2.6474 3.11224
-1.1095 -1.89511 3.75903
-0.557604 -2.02304 3.72914
-0.609371 -2.23262 3.56129
-0.798917 -2.58685 3.20933
-0.819099 -2.15511 3.63369
-2.04299 -2.50245 2.77603
-0.928432 -2.55206 3.26402
-0.674812 -2.60609 3.16547
