ply
format ascii 1.0
comment Created by Open3D
element vertex 400
property double x
property double y
property double z
end_header
2.59042 -0.919981 1.61593
1.51762 1.5231 2.02291
2.08869 -0.48598 1.73179
0.721092 0.225277 2.0446
2.84663 -0.519964 1.52927
2.622 -0.656054 1.6067
1.04588 -0.402301 1.93096
2.19906 -0.0717431 1.71416
1.64638 1.50153 2.01823
0.998537 1.9348 2.2316
2.55792 -1.28672 1.61907
1.58868 0.0994121 1.82041
0.891397 0.920794 1.9981
1.5242 1.30714 1.95266
1.41622 0.954 1.89394
2.78643 -1.62763 1.53081
2.48195 -1.07284 1.6441
0.800714 1.54431 2.11745
1.62923 -0.988344 1.79572
0.729866 0.97761 2.05672
2.03185 0.142878 1.74955
1.8981 0.476526 1.78767
1.37585 1.01976 1.90785
1.60113 -0.0506571 1.81747
1.63584 -0.881904 1.8008
2.26195 0.079995 1.70788
0.705373 0.220695 2.0511
2.49027 0.835546 1.79681
1.09423 0.576723 1.92772
2.6445 0.659165 1.72862
2.85154 -0.991548 1.52538
1.28144 0.829076 1.90143
0.926028 -0.133148 1.97007
1.38935 1.2206 1.94094
1.05951 0.0193394 1.93244
1.31966 0.0957635 1.87113
1.88386 1.46823 2.02125
2.60292 0.595667 1.71736
2.10731 -0.88102 1.7262
1.03694 -0.258539 1.93659
1.05487 0.691961 1.94131
2.75368 0.0748614 1.59423
0.998234 1.46107 2.04839
1.54874 0.773893 1.85691
1.57644 1.29938 1.94876
1.07102 -0.583116 1.91723
2.55456 0.375481 1.68163
1.28407 0.467051 1.88266
2.84523 0.781728 1.74702
1.39657 0.362923 1.85848
0.826705 1.8214 2.20604
1.10506 -0.224973 1.91946
0.817753 0.98396 2.02582
1.14258 1.86973 2.18342
0.81762 1.4895 2.09887
2.13767 0.238267 1.73751
2.66815 -0.462964 1.59356
2.90077 -0.943309 1.50455
1.59311 -0.354685 1.81863
1.32037 -0.221834 1.87067
0.694383 1.31743 2.10703
2.70285 -0.0711703 1.59694
1.08398 0.0225072 1.92597
2.84922 -1.08807 1.52598
2.75899 0.123015 1.5981
0.903551 1.41191 2.05837
2.71721 0.543341 1.68551
2.13331 -0.259954 1.72386
1.17123 0.998541 1.93732
2.54736 0.497916 1.70428
2.47081 0.497499 1.71598
1.08917 -0.48434 1.91747
2.37913 -0.673668 1.67144
0.898975 1.88295 2.21919
1.40507 1.32203 1.96298
2.70709 -0.446651 1.58119
2.34397 -1.06342 1.67644
2.46606 -1.43221 1.63451
1.9966 0.707185 1.80263
2.66851 0.230397 1.63606
2.30823 0.816708 1.80165
2.67728 0.794753 1.76957
2.08368 1.02449 1.86539
2.23433 0.388286 1.73523
1.4523 1.47844 2.00695
1.67234 -0.640688 1.80259
2.23965 -0.511316 1.70214
1.91436 0.955916 1.85317
2.07089 -0.679883 1.73479
2.69514 -0.755091 1.58332
2.18746 1.22112 1.93749
1.50553 0.874564 1.87315
0.962732 -0.0572474 1.95957
1.16071 1.15565 1.95946
2.31453 0.859517 1.81279
2.14243 -0.74534 1.72112
1.66642 1.18479 1.91567
2.68857 -1.11877 1.58423
2.92022 0.178007 1.55362
1.71463 1.1023 1.89416
2.16134 0.853146 1.81853
2.0039 0.877725 1.83221
0.889438 0.396376 1.98326
2.43192 -0.686374 1.65876
2.28729 -1.20193 1.6838
2.19271 0.586418 1.76543
1.51445 1.32745 1.95861
2.58123 -0.0133431 1.63434
2.39137 0.270419 1.69818
0.861195 0.503029 1.99341
1.65188 -0.70162 1.80466
1.44756 1.26263 1.94555
0.833635 1.3229 2.06063
1.00305 0.176671 1.94812
2.60902 0.262994 1.65427
2.60512 -0.541495 1.61215
1.3229 1.05594 1.91997
0.869301 1.20379 2.03221
0.687418 0.0167796 2.05793
2.87004 0.00830143 1.54866
1.25437 -0.110733 1.88503
2.65667 -1.56365 1.57685
1.14442 0.845891 1.92903
2.97016 0.852474 1.76742
2.48476 1.05295 1.87988
0.801406 -0.459725 1.99982
1.37628 0.270355 1.86082
2.82535 -1.44535 1.52767
2.24206 1.19389 1.92947
2.75888 -1.6159 1.54113
2.44402 1.11274 1.90541
2.7009 0.814439 1.77509
2.28444 -0.531518 1.6927
1.21566 -0.414768 1.89073
2.16971 -0.955139 1.71346
1.65919 0.233161 1.81063
1.7543 -0.524532 1.79026
1.37891 1.1617 1.93042
1.87601 -1.00018 1.7604
0.747556 1.36093 2.09483
0.664674 0.679289 2.07117
1.99381 -1.17851 1.73386
0.987568 -0.608487 1.93598
2.64262 0.249418 1.64481
1.72534 1.30769 1.94991
0.69093 0.978706 2.07215
1.04221 1.38599 2.02266
0.731847 0.0656549 2.03992
1.57109 1.22297 1.92893
2.72477 0.300188 1.63268
2.88211 -1.6694 1.49152
1.99481 -0.95207 1.74382
1.6982 -0.97976 1.78675
2.32832 0.0140644 1.69223
1.13906 -0.192637 1.91137
0.823782 1.74463 2.17498
0.716047 0.128962 2.04655
2.49668 -1.48969 1.62358
0.714786 -0.0195939 2.04618
2.20352 -1.21446 1.69867
1.84777 -0.60423 1.77404
0.817298 0.490605 2.00846
0.714235 0.0290409 2.04683
2.65996 0.243577 1.63991
1.5971 0.369987 1.82438
2.78944 -0.9463 1.54983
0.816834 -0.156363 2.00564
2.95437 0.873553 1.78092
2.16637 -0.501721 1.71691
0.774438 0.421294 2.02378
2.2295 -1.05743 1.69981
2.74248 -0.837547 1.56703
1.59112 -0.365482 1.81895
2.0367 -0.800374 1.73988
2.50603 0.0283903 1.6552
2.32665 -0.232737 1.68545
2.22661 0.265646 1.72539
2.0359 1.05819 1.87549
1.49541 -0.1147 1.83652
1.2446 0.816942 1.90711
2.06744 0.0050346 1.73948
1.22462 0.537741 1.8969
1.2942 0.222831 1.87695
1.78792 0.964649 1.86162
2.43347 0.301213 1.69393
1.61401 1.09645 1.89824
1.04292 1.86959 2.19096
0.807438 1.66466 2.15091
1.61527 -0.815259 1.8068
0.803228 1.70508 2.16592
2.40371 -0.858124 1.66532
1.91662 -1.07356 1.75095
0.97423 -0.57789 1.94141
2.68038 0.232829 1.63347
2.54849 0.707404 1.75355
2.3803 0.575783 1.74228
2.82799 -0.236697 1.54533
1.91793 0.148613 1.76774
0.997429 1.52875 2.06615
1.7312 -0.94951 1.78371
2.01065 -0.978961 1.74043
2.10833 0.419187 1.75565
2.45127 0.562284 1.73078
1.06954 0.657588 1.93635
2.41806 0.476413 1.72019
2.93067 0.0344856 1.5288
2.7351 0.687442 1.72519
1.09354 0.382417 1.92444
1.73955 -0.193917 1.79329
2.80388 -0.389453 1.54849
0.921616 0.149291 1.97257
2.67864 0.737088 1.74894
1.38938 1.28858 1.95599
0.755959 1.32524 2.08587
1.24775 -0.552307 1.88021
2.84282 -0.729338 1.52912
1.10633 0.91332 1.94238
2.94251 0.805013 1.74559
1.93663 1.3656 1.98018
2.00719 -0.851229 1.74417
2.20929 1.00393 1.8582
1.70518 0.768356 1.8384
0.671536 0.204205 2.06555
2.47399 0.0766079 1.66559
1.44304 0.786649 1.87229
1.54592 0.0357725 1.82753
2.81099 -0.651747 1.54198
2.83817 -0.409669 1.53491
1.27067 1.04474 1.92598
1.17528 0.392614 1.90476
2.24275 0.417858 1.73723
2.30152 0.300329 1.71629
0.706452 0.322073 2.05065
2.76332 -0.914975 1.55953
2.28072 0.277327 1.71762
2.87199 -0.023278 1.54467
2.8783 0.715069 1.71404
2.20081 -1.0214 1.70617
1.19005 -0.169041 1.89941
1.45746 0.0671398 1.84385
2.07257 0.319146 1.75255
1.23061 1.32711 1.98081
2.87205 0.923199 1.81461
2.40158 -0.24077 1.66874
1.70416 1.48741 2.01541
2.17589 0.0898026 1.72359
1.68954 0.0788848 1.8031
1.15155 0.797715 1.92427
2.54637 -1.31454 1.62107
2.27682 0.552844 1.75078
2.04533 -1.13597 1.72856
2.97794 0.535365 1.62412
1.29336 -0.00578413 1.8766
1.61444 0.664192 1.83853
2.58609 0.739259 1.75916
0.891035 0.369661 1.98262
2.77704 0.249948 1.6107
0.698885 0.802064 2.06007
0.839754 1.52988 2.10258
2.12955 -0.530054 1.72406
2.78038 -1.29513 1.54947
2.06975 1.02955 1.86699
2.66394 -1.43694 1.58266
1.42687 0.301737 1.85173
1.1167 1.4532 2.02623
2.61714 0.837773 1.79005
2.4398 -0.049554 1.666
2.3143 1.05899 1.87798
2.42565 0.301461 1.69536
2.86818 0.0368403 1.5525
0.952434 -0.381675 1.95684
1.75994 -0.511804 1.78938
1.45597 0.620423 1.85808
2.70964 0.953675 1.83564
0.769157 0.705876 2.0296
2.89714 0.75869 1.72987
1.59056 -0.978438 1.80168
2.93402 0.602271 1.65922
1.19009 1.59648 2.06078
1.27336 -0.33345 1.87969
1.89911 0.542224 1.79315
2.63962 -0.8661 1.60119
2.64197 0.570006 1.7051
2.27453 -0.0904531 1.69919
1.44811 1.41912 1.98785
2.42994 -1.28266 1.65062
2.00298 -0.891096 1.74406
1.67346 -0.514017 1.80395
2.43042 0.696309 1.76233
1.42744 1.67294 2.08399
2.68605 0.82291 1.77958
1.38057 1.72455 2.10713
2.76114 -0.25178 1.56843
1.7796 0.0729593 1.7882
1.64691 1.48826 2.01289
2.7381 -1.02772 1.56824
1.45812 1.24693 1.94115
2.4792 1.05183 1.87921
1.16328 -0.281421 1.90473
2.52922 -1.42229 1.6202
1.59074 1.16798 1.915
1.98512 -0.59088 1.75051
0.995646 1.13177 1.98982
2.1893 -1.26967 1.69811
1.18713 1.28826 1.97843
1.73901 0.531405 1.81215
2.7186 -1.55566 1.5587
1.78333 -0.447952 1.78565
1.15573 0.902862 1.93115
2.32489 -0.870569 1.68322
0.910787 1.29451 2.03442
2.8379 -0.21047 1.54303
2.25797 0.141209 1.71181
1.16398 -0.55254 1.89775
2.49023 -0.402294 1.64492
2.17017 -0.186811 1.71756
2.9449 0.359514 1.58241
0.819792 0.612383 2.00919
0.732283 0.710932 2.04387
3.00615 0.665119 1.66779
2.89845 -1.3558 1.5013
2.61423 -1.26301 1.6042
1.22418 1.25805 1.96727
1.32817 -0.690766 1.85924
1.264 -0.169324 1.8828
2.13174 -0.0762968 1.72642
1.16094 1.55101 2.04858
1.51433 1.67393 2.08811
0.753257 1.45071 2.11032
1.89789 -0.0638942 1.76701
2.35472 -0.143932 1.68129
2.69472 0.895027 1.80898
0.865169 0.639939 1.99436
2.62899 0.816935 1.78157
0.81032 0.176798 2.01021
2.3885 0.992516 1.85391
1.78959 0.420877 1.79828
1.70623 1.13164 1.90131
1.71087 1.02647 1.87826
0.883967 1.93823 2.25172
1.06693 0.214444 1.93054
0.988508 -0.228551 1.95037
2.51637 -0.911864 1.63668
2.72244 -0.517864 1.57511
2.4494 -0.530768 1.65452
1.17847 0.113703 1.90247
1.1478 0.606676 1.91595
2.17801 0.43241 1.74767
1.79361 0.797737 1.83364
2.33395 0.0211708 1.69143
2.0519 0.363333 1.75865
1.01794 1.72023 2.12633
2.36336 0.131635 1.6919
2.15216 -1.13959 1.711
2.6188 -0.115676 1.61849
2.16122 -0.959084 1.71495
0.768573 -0.0395414 2.02485
2.84961 -0.945918 1.52622
1.00074 1.155 1.9916
1.54508 -0.555553 1.82529
1.28937 -0.351736 1.87612
1.05384 -0.118596 1.93356
2.12855 -0.117832 1.72627
0.779874 0.845141 2.03068
0.763645 0.0989667 2.02756
1.91001 -0.249842 1.76398
0.775391 0.782095 2.0297
2.78042 -0.974322 1.55316
0.876918 0.774529 1.99481
1.91289 0.680802 1.80683
1.53755 -0.929202 1.81238
2.71211 -1.1238 1.57639
2.1306 0.712028 1.79184
2.85845 -0.276486 1.5318
2.85126 -1.6455 1.50563
1.56332 1.62103 2.06588
1.85533 0.683864 1.81296
2.73026 0.0933664 1.6031
1.24963 0.44296 1.88921
2.59304 -0.76644 1.61533
1.47612 1.12725 1.91461
2.52441 -0.950917 1.63431
2.05712 -1.0319 1.73108
1.63073 1.46163 2.00191
2.17872 -0.0349523 1.71885
0.874627 1.13931 2.02264
1.56705 1.19205 1.92177
2.50051 -1.18469 1.63709
1.04923 1.18597 1.98519
2.19051 -0.6262 1.71211
2.75062 -0.497796 1.56561
1.07253 1.54798 2.05905
1.03994 0.454076 1.93924
1.91272 1.28867 1.94843
2.30931 -1.36348 1.67108
1.18275 0.317357 1.90222
2.30854 -0.443031 1.6876
2.16768 0.799271 1.80608
0.969488 1.42953 2.04689
0.883879 0.393399 1.98507
