ply
format ascii 1.0
comment Created by Open3D
element vertex 400
property double x
property double y
property double z
end_header
0.163279 -2.97434 1.13777
-0.824353 -2.50353 -1.32964
0.165195 -2.70149 0.522085
0.502458 -1.95564 -0.821048
-0.291014 -3.09423 1.02635
-0.0437461 -2.99014 0.971546
0.727006 -2.10494 -0.158066
-0.191716 -2.76706 0.293176
-0.875818 -2.59127 -1.24767
-0.751577 -2.28405 -1.98464
0.440418 -2.95358 1.37927
0.0455715 -2.41059 -0.186162
-0.0977465 -2.04319 -1.20445
-0.710065 -2.45851 -1.13852
-0.435719 -2.34064 -0.913441
0.523098 -3.05275 1.77872
0.33969 -2.91756 1.17754
-0.433624 -2.06345 -1.75036
0.782113 -2.42181 0.615617
-0.0278462 -1.97042 -1.3547
-0.242176 -2.67385 0.0401156
-0.392173 -2.60623 -0.281737
-0.455081 -2.32193 -0.987079
0.143986 -2.41732 -0.0723461
0.706084 -2.43007 0.541116
-0.333602 -2.80709 0.220472
0.516807 -1.94912 -0.828917
-0.93755 -3.03142 -0.24409
0.00893545 -2.13684 -0.824545
-0.924036 -3.09226 -0.00816351
0.0380477 -3.09495 1.36421
-0.276249 -2.25063 -0.896241
0.616172 -2.04785 -0.427872
-0.587295 -2.35487 -1.13889
0.422794 -2.11563 -0.450144
0.208021 -2.25623 -0.343451
-0.9695 -2.76133 -1.10689
-0.863983 -3.0549 0.0215832
0.432417 -2.7107 0.813533
0.632641 -2.1026 -0.267011
-0.0460684 -2.11862 -0.932512
-0.632656 -3.07444 0.526786
-0.508054 -2.15429 -1.55821
-0.393139 -2.40816 -0.701311
-0.73264 -2.49269 -1.10496
0.835429 -2.11301 -0.0107794
-0.701974 -2.99544 0.170964
-0.030965 -2.23922 -0.629545
-1.10187 -3.24721 -0.00366123
-0.0256698 -2.30167 -0.48758
-0.598255 -2.14448 -1.97759
0.566282 -2.13866 -0.248122
-0.0917332 -2.01071 -1.2998
-0.801676 -2.35184 -1.84252
-0.41261 -2.06227 -1.69386
-0.368556 -2.74017 0.0315959
-0.20993 -3.01348 0.86466
-0.0310924 -3.11503 1.36513
0.363562 -2.41246 0.138038
0.432009 -2.25641 -0.118289
-0.225243 -1.9809 -1.63789
-0.502625 -3.04041 0.603275
0.405082 -2.12836 -0.436912
0.107761 -3.09373 1.431
-0.667435 -3.08093 0.493465
-0.420961 -2.09439 -1.57578
-0.900049 -3.11319 0.131649
-0.0209136 -2.72743 0.388544
-0.323028 -2.19808 -1.08912
-0.773622 -3.00636 0.0694617
-0.729196 -2.96051 0.0256262
0.756625 -2.12602 -0.0716654
0.122512 -2.86419 0.830198
-0.671345 -2.20487 -1.99156
-0.655861 -2.38157 -1.21377
-0.247119 -3.03227 0.878779
0.418186 -2.84286 1.08572
0.596953 -2.89954 1.4285
-0.597042 -2.68646 -0.403068
-0.679138 -3.04379 0.353308
-0.830793 -2.90612 -0.324207
-1.01583 -3.1444 -0.108119
-0.833567 -2.79241 -0.615283
-0.524112 -2.8069 -0.0250079
-0.768088 -2.44606 -1.32274
0.51816 -2.45715 0.38791
0.0927979 -2.78727 0.630312
-0.706532 -2.66405 -0.645338
0.312699 -2.69102 0.648801
-0.0219761 -3.02533 1.08984
-0.988453 -2.91678 -0.738477
-0.434598 -2.38909 -0.802222
0.538898 -2.06638 -0.457938
-0.417791 -2.20629 -1.21654
-0.858637 -2.91846 -0.356903
0.316381 -2.73194 0.737689
-0.713147 -2.53292 -0.962403
0.238917 -3.02133 1.34326
-0.809168 -3.16348 0.557428
-0.689685 -2.5518 -0.869205
-0.774668 -2.81419 -0.431862
-0.706488 -2.71254 -0.534802
0.266632 -2.03131 -0.827192
0.0987577 -2.89255 0.871922
0.548151 -2.80798 1.15164
-0.628298 -2.79883 -0.201022
-0.716569 -2.45582 -1.16073
-0.464008 -2.98086 0.482878
-0.53781 -2.89175 0.15538
0.210415 -2.01851 -0.921805
0.572509 -2.44414 0.419731
-0.643821 -2.39929 -1.14181
-0.321935 -2.04656 -1.54893
0.347613 -2.08679 -0.597463
-0.66334 -3.0146 0.29141
-0.113593 -2.98206 0.879383
-0.448132 -2.29306 -1.0452
-0.269751 -2.05168 -1.43266
0.673392 -1.94126 -0.697122
-0.666562 -3.12449 0.654822
0.393634 -2.21989 -0.237034
0.565759 -2.99355 1.64558
-0.205825 -2.17326 -0.990445
-1.20416 -3.34997 -0.00142397
-1.04699 -3.08627 -0.442106
0.924284 -1.98077 -0.274134
0.0510989 -2.28898 -0.433439
0.373179 -3.07805 1.67086
-1.0005 -2.94972 -0.687906
0.533739 -3.04057 1.75149
-1.05613 -3.07551 -0.517516
-1.0388 -3.165 -0.112988
0.0799653 -2.81226 0.671715
0.630822 -2.19655 -0.0442524
0.447258 -2.74582 0.903512
-0.089153 -2.45353 -0.240587
0.388882 -2.50638 0.352918
-0.545695 -2.34005 -1.0972
0.649429 -2.57133 0.765041
-0.288686 -2.00987 -1.63596
0.222916 -1.93453 -1.18358
0.703362 -2.63586 0.963308
0.904472 -2.06726 -0.043942
-0.675271 -3.03167 0.322541
-0.812394 -2.59879 -1.03696
-0.00144002 -1.95379 -1.38266
-0.489822 -2.16719 -1.47027
0.607613 -1.95994 -0.700463
-0.685851 -2.47489 -1.04369
-0.758314 -3.08118 0.333784
0.485147 -3.09262 1.87574
0.547725 -2.64361 0.798705
0.737074 -2.46423 0.648516
-0.327995 -2.84296 0.308105
0.522373 -2.15698 -0.249943
-0.558042 -2.12044 -1.90924
0.574063 -1.95345 -0.756443
0.616816 -2.91346 1.48992
0.679554 -1.9523 -0.651844
0.606332 -2.75927 1.11118
0.390394 -2.56101 0.464116
0.248672 -1.99811 -0.942492
0.645765 -1.95237 -0.686835
-0.682257 -3.04047 0.337787
-0.147981 -2.41935 -0.375259
0.0493347 -3.06833 1.28894
0.704966 -1.99579 -0.483836
-1.20442 -3.34836 -0.0309661
0.130044 -2.74589 0.579496
0.326772 -1.97864 -0.922572
0.482868 -2.77844 1.01256
0.00450906 -3.04728 1.17996
0.37235 -2.41128 0.14452
0.417542 -2.67045 0.714358
-0.445492 -2.94243 0.405342
-0.156025 -2.83698 0.485165
-0.438453 -2.79449 0.0627728
-0.828462 -2.76577 -0.668048
0.251659 -2.35603 -0.0894492
-0.246414 -2.2286 -0.908916
-0.167538 -2.6919 0.160418
-0.0440956 -2.20725 -0.716384
0.133812 -2.24234 -0.448942
-0.645256 -2.58061 -0.718964
-0.582764 -2.91851 0.156784
-0.633191 -2.48354 -0.917419
-0.747978 -2.2867 -1.89602
-0.505358 -2.09187 -1.84883
0.672238 -2.41977 0.480712
-0.524328 -2.09951 -1.88702
0.23759 -2.87724 0.97598
0.676287 -2.59336 0.841963
0.89222 -2.06167 -0.0749603
-0.688092 -3.05035 0.358822
-0.897682 -3.042 -0.102738
-0.726151 -2.9151 -0.0881288
-0.473962 -3.0924 0.808702
-0.18018 -2.60616 -0.0299903
-0.546629 -2.16628 -1.61535
0.69766 -2.48542 0.64515
0.557123 -2.65241 0.827337
-0.472748 -2.73225 -0.120072
-0.757838 -2.95716 -0.0373524
-0.031578 -2.12549 -0.898392
-0.685811 -2.92618 0.012061
-0.725319 -3.15332 0.676549
-0.991047 -3.1539 0.018857
0.145044 -2.13403 -0.685864
0.16399 -2.4981 0.11025
-0.352307 -3.07759 0.903077
0.419914 -2.0465 -0.631044
-0.986052 -3.13077 -0.056348
-0.627856 -2.36553 -1.19447
-0.272129 -2.00948 -1.60204
0.706772 -2.2118 0.0743077
-0.141133 -3.09143 1.17257
-0.227795 -2.15576 -1.06384
-1.16769 -3.31499 0.0292298
-0.943846 -2.7696 -0.987404
0.470402 -2.65261 0.733418
-0.885431 -2.87615 -0.534339
-0.476701 -2.50569 -0.609919
0.552614 -1.93541 -0.841404
-0.458373 -2.92713 0.350033
-0.341617 -2.34429 -0.770873
0.115511 -2.38539 -0.166101
-0.173653 -3.07801 1.09536
-0.361954 -3.09223 0.941314
-0.411093 -2.26037 -1.0664
0.0871198 -2.17792 -0.64236
-0.548225 -2.81427 -0.0427147
-0.50498 -2.84102 0.0802499
0.444358 -1.94956 -0.899838
0.0450886 -3.05672 1.24888
-0.477649 -2.82725 0.0854487
-0.647195 -3.12305 0.680115
-1.08776 -3.24727 0.0765027
0.474922 -2.76265 0.969558
0.474215 -2.18458 -0.235155
0.145721 -2.33438 -0.240671
-0.385681 -2.70477 -0.0656588
-0.563311 -2.27082 -1.31351
-1.18152 -3.31397 -0.124082
-0.196166 -2.87815 0.536666
-0.896128 -2.63013 -1.20738
-0.289647 -2.75735 0.162647
0.00100067 -2.46967 -0.112561
-0.177714 -2.17493 -0.950426
0.466874 -2.94683 1.39217
-0.653943 -2.84794 -0.127897
0.64487 -2.66854 0.96164
-1.05547 -3.25415 0.298346
0.295715 -2.2415 -0.287535
-0.357614 -2.44162 -0.581696
-0.936202 -3.07256 -0.109268
0.284405 -2.03198 -0.807185
-0.759905 -3.1026 0.406425
0.113445 -1.95087 -1.24774
-0.450374 -2.08054 -1.7132
0.172056 -2.72491 0.577554
0.300343 -3.06167 1.53125
-0.829385 -2.7837 -0.626615
0.47543 -3.0028 1.55671
-0.000930981 -2.31832 -0.425789
-0.572796 -2.22239 -1.48233
-1.00594 -3.11635 -0.178851
-0.351861 -2.90324 0.421941
-0.966977 -2.96439 -0.530663
-0.578315 -2.91399 0.151985
-0.683893 -3.12589 0.631793
0.772086 -2.05716 -0.232316
0.376622 -2.50975 0.347178
-0.237646 -2.34339 -0.639764
-1.11135 -3.214 -0.237351
0.131093 -1.97902 -1.12935
-1.12011 -3.27179 0.0471639
0.797424 -2.39868 0.586296
-1.06327 -3.24791 0.21153
-0.693541 -2.29871 -1.56423
0.53895 -2.22954 -0.06738
-0.436386 -2.61082 -0.330434
0.0932106 -2.99871 1.13164
-0.871492 -3.07384 0.065382
-0.223712 -2.80984 0.351632
-0.733596 -2.42959 -1.27334
0.517322 -2.88539 1.29664
0.500643 -2.64956 0.759557
0.42871 -2.4589 0.29822
-0.826409 -2.96472 -0.158321
-0.854671 -2.48296 -1.51122
-1.03512 -3.15768 -0.128651
-0.856164 -2.46618 -1.58272
-0.418318 -3.06147 0.774388
-0.0472908 -2.52282 -0.0558892
-0.869375 -2.58787 -1.23535
0.141784 -3.04504 1.31164
-0.640196 -2.40365 -1.12323
-1.04375 -3.08186 -0.443758
0.569724 -2.16941 -0.171734
0.551203 -2.93408 1.46022
-0.663765 -2.47893 -0.988015
0.300513 -2.64149 0.535117
-0.303196 -2.11105 -1.29737
0.652196 -2.74881 1.14339
-0.515293 -2.23839 -1.30659
-0.339188 -2.51105 -0.412332
0.520065 -3.02451 1.67997
0.31791 -2.52365 0.31559
-0.250713 -2.18275 -1.02613
0.294749 -2.83416 0.936421
-0.353537 -2.08258 -1.47717
-0.498609 -3.09779 0.796259
-0.372928 -2.80706 0.173228
0.757594 -2.16497 0.0238156
-0.138187 -2.92399 0.707117
-0.0942145 -2.74904 0.358405
-0.935463 -3.20129 0.427033
0.161678 -2.00039 -1.02772
0.153087 -1.96303 -1.1585
-1.13949 -3.30497 0.198875
0.260123 -3.11109 1.65727
0.388069 -2.98288 1.3981
-0.518033 -2.2567 -1.26112
0.753978 -2.25384 0.222912
0.429132 -2.22512 -0.189672
-0.148707 -2.72813 0.256607
-0.652907 -2.26947 -1.54055
-0.896763 -2.54731 -1.47054
-0.347277 -2.02486 -1.70434
-0.0202557 -2.59148 0.110616
-0.234935 -2.85389 0.438485
-1.07575 -3.1846 -0.190012
0.112091 -2.02199 -1.0171
-1.00137 -3.11874 -0.153955
0.47493 -1.99442 -0.72496
-0.969108 -2.99984 -0.434522
-0.293256 -2.53701 -0.301954
-0.702652 -2.55092 -0.897728
-0.642132 -2.5379 -0.809518
-0.686657 -2.21727 -2.05441
0.280174 -2.11953 -0.583444
0.642542 -2.0781 -0.319322
0.204936 -2.93665 1.08463
-0.207484 -3.03883 0.939854
-0.0221264 -2.90191 0.772746
0.281603 -2.17855 -0.442403
-0.0449058 -2.1664 -0.813064
-0.520926 -2.77587 -0.0905945
-0.544067 -2.56485 -0.584103
-0.33623 -2.84637 0.30629
-0.403541 -2.69447 -0.110289
-0.66219 -2.22333 -1.77058
-0.428814 -2.8675 0.242654
0.585228 -2.73167 1.02639
-0.418356 -2.99622 0.581946
0.45504 -2.74087 0.90131
0.656097 -1.97525 -0.600177
0.00716862 -3.09418 1.33056
-0.321276 -2.1159 -1.31214
0.532941 -2.38321 0.252729
0.542094 -2.23834 -0.0446636
0.523716 -2.11241 -0.355996
-0.117824 -2.72577 0.284464
0.0277956 -1.98736 -1.22301
0.561975 -1.97368 -0.701935
0.103649 -2.5979 0.249681
0.0741292 -1.9835 -1.18018
0.0753157 -3.0643 1.30258
0.0112717 -2.03062 -1.10662
-0.534433 -2.63024 -0.428367
0.794464 -2.36876 0.519626
0.226787 -3.03243 1.36251
-0.67286 -2.77358 -0.3341
-0.467825 -3.10438 0.858835
0.490733 -3.08079 1.83636
-0.894963 -2.56623 -1.39752
-0.50475 -2.59387 -0.46238
-0.629598 -3.06415 0.497558
0.00656904 -2.2195 -0.633009
0.0530967 -2.97577 1.03081
-0.577839 -2.39761 -1.01633
0.227354 -2.94066 1.11745
0.566644 -2.67866 0.892676
-0.847936 -2.56866 -1.21912
-0.205222 -2.756 0.254652
-0.231607 -2.04868 -1.37962
-0.665546 -2.46697 -1.02027
0.40599 -2.92573 1.26941
-0.370626 -2.14566 -1.30659
0.20359 -2.75957 0.68199
-0.240511 -3.05204 0.944501
-0.601326 -2.21436 -1.58785
0.128569 -2.1066 -0.770729
-0.893371 -2.73025 -0.929079
0.645008 -2.81456 1.28324
0.135329 -2.1814 -0.584139
0.00280063 -2.8257 0.623739
-0.74597 -2.80987 -0.38437
-0.472128 -2.1329 -1.54953
0.272421 -2.02865 -0.828771
