ply
format ascii 1.0
comment Created by Open3D
element vertex 250
property double x
property double y
property double z
end_header
-0.84405 2.67458 -1.36033
-1.1699 1.9894 0.891582
-1.53298 1.40389 -1.3818
-0.680934 2.98203 -0.975729
-1.27314 2.07481 -1.96354
-1.24045 1.98272 -1.09575
-1.20976 2.17112 -0.0066215
-0.620423 3.07547 0.78718
-1.21352 1.81046 1.0479
-0.259783 2.49268 1.53939
-1.66708 1.1622 -1.46752
-0.784696 2.98581 0.254471
-1.39953 1.86288 -1.99819
0.525097 3.17887 1.66464
-1.06667 2.31774 -1.13048
-0.377913 3.64557 0.149877
-0.139685 3.80767 0.791168
-1.05558 2.3314 -1.21941
-1.27872 2.04144 0.174069
-0.256532 3.6903 0.744285
-0.836356 2.59085 0.868233
-0.691624 3.01283 0.681342
-1.43008 1.60157 -1.20026
-1.41477 1.69003 0.850544
-0.2083 2.24393 1.64735
-1.1995 2.18238 -0.167007
-1.40197 1.69765 -1.63361
-0.766259 2.99824 -0.320065
-1.15345 2.27291 -0.167971
-0.475026 1.79591 1.64303
-0.248826 3.58358 0.920738
0.0937655 3.58701 1.27997
-1.32609 1.72593 0.977571
-1.54702 1.49866 -1.86571
-0.676667 2.0126 1.43921
-1.84842 0.889903 -1.14443
-0.863262 2.67124 -1.93501
0.506694 3.14877 1.67174
-0.935255 2.61735 0.525141
-1.00577 2.41658 -1.5428
-0.871152 2.64069 -1.2884
-0.27629 2.93196 1.35374
-1.38321 1.80913 -0.360424
-1.82962 1.12352 -2.107
-1.21889 2.2181 -2.05108
-0.652616 1.99722 1.46294
-2.00817 0.843166 -2.12925
-0.331001 1.9218 1.67724
-1.24596 2.029 -0.639578
-0.895756 2.76787 0.273399
-0.408139 2.87271 1.26427
-1.72103 1.08965 -1.63233
-0.590413 2.83658 1.07257
-0.319935 2.61382 1.4551
-1.17549 2.12144 0.639732
-0.262115 2.53437 1.52355
-1.4122 1.65129 0.941978
-1.06578 2.45198 -0.0783648
-0.877 2.70039 -0.858213
-1.35279 1.86641 -1.84185
0.162314 3.0781 1.57118
0.113912 2.62146 1.69987
-0.763859 1.50667 1.60808
0.00169312 2.39582 1.7109
-1.28536 1.98628 -1.82379
-2.0575 0.611349 -1.79579
-0.833981 2.88371 0.300061
-0.439098 3.3873 0.798982
-0.559832 3.31993 -0.34257
-2.00024 0.679689 -1.76351
-0.726374 2.98209 0.617843
-1.81777 0.943832 -1.08649
-0.610248 3.12502 -0.806277
0.0916972 3.62182 1.25458
-1.85075 0.862834 -1.53704
-0.895388 2.63633 -1.03796
-0.722333 2.32218 1.24329
0.122676 2.565 1.71995
-1.07858 2.34784 -0.729165
-0.182418 2.82095 1.47096
-0.249413 3.20936 1.23085
-1.49097 1.51889 -1.62085
0.0864263 3.72446 1.17142
-0.852571 2.43604 0.99185
-0.486812 3.39076 -0.449577
-0.359611 3.57446 0.691004
-0.739534 2.82512 -1.33986
0.237751 3.18779 1.56222
0.285849 3.36288 1.50604
-1.83596 0.92445 -1.75363
-0.788359 2.86108 -0.800776
-0.857862 2.77156 -0.668793
-1.32783 1.95497 0.172221
-0.629887 3.11191 -0.756461
-1.62914 1.22995 -1.46083
-0.790516 2.05171 1.32983
0.0261662 3.74386 1.10151
-1.02515 2.01871 1.10166
-1.83949 0.880122 -1.53618
-1.8185 0.908663 -1.40531
-0.374249 2.36347 1.5105
-1.36254 1.84096 -0.400667
-1.79672 0.962571 -1.16
-1.55297 1.61176 0.36925
-0.589685 1.44616 1.70819
-1.71363 1.17182 -1.84723
-0.808333 1.69249 1.49981
-1.5045 1.45607 -1.29604
-0.803979 2.15637 1.25728
-1.3858 1.82837 -0.199421
-0.191392 3.7405 0.80305
-0.913228 1.81578 1.36208
-1.02 2.51366 -2.05241
-1.66733 1.35708 -0.293372
-1.80087 1.03932 -1.89772
-1.58843 1.49623 -1.99791
-1.23399 2.14208 -1.9608
-1.45588 1.65231 0.829898
-1.40726 1.66028 -1.49698
-0.198061 2.06093 1.70424
-1.69577 1.27572 -1.97735
-0.193214 3.84512 0.516184
-1.26053 1.94897 0.722455
-1.10792 2.34759 0.291258
-1.14286 2.16513 -1.28908
-0.589565 3.17145 -0.741466
-1.4473 1.71709 -1.90896
-0.449867 3.54753 0.115564
-1.08511 2.28471 -1.11127
-0.338515 3.66861 0.511155
-1.3168 1.84833 -0.919863
-1.37467 1.84434 -0.22947
-1.49979 1.46854 -1.17785
-1.5552 1.42027 -0.789023
-0.684758 3.16037 -0.164201
-0.688647 3.04058 -0.703294
-0.941141 2.69952 -0.0546147
-1.08705 2.21774 0.748284
-0.338863 3.69771 0.278956
-1.00827 2.4095 -1.36
-1.00724 1.58406 1.43659
-1.4223 1.77484 -1.92533
-0.591901 3.33402 0.0905351
-0.873874 2.77003 -0.529095
-0.398069 3.62141 0.226054
-0.591696 1.37539 1.73232
-1.61976 1.24238 -1.37543
-1.19543 2.19377 -0.119908
-1.5955 1.63953 -2.18444
-0.522695 3.44312 0.186053
-0.993243 2.56418 -0.409636
-0.38228 3.34385 0.961301
-0.918752 2.60339 -0.993974
-0.671707 1.66712 1.58741
-0.509471 3.40805 0.531397
-0.31406 2.3862 1.54143
-0.923164 2.73544 0.0368561
-1.41302 1.79903 -0.0456613
-0.962493 2.24149 0.989064
-1.72828 1.1364 -1.82717
-0.896206 2.78818 0.0106921
-0.781585 2.76141 -1.38691
-1.34146 1.89821 -0.281517
0.182358 3.38236 1.44897
-0.580395 3.29883 0.501915
-0.711309 3.05055 0.531879
0.0850192 3.60544 1.26134
-1.63041 1.40633 -0.311216
-1.74845 1.07571 -0.937939
-1.28546 1.89372 -1.43257
-0.77848 2.78294 -1.26446
-0.020241 3.27955 1.38017
-0.766341 2.90929 -0.745354
-1.76573 1.29832 -2.17098
-1.43821 1.77362 0.258317
-1.61516 1.51462 0.139704
-0.29056 1.94387 1.69107
-0.557659 3.38285 0.281873
-0.856669 2.72849 -0.892348
-0.964158 2.60373 0.400216
-0.786212 2.78791 -1.16848
-1.03738 2.37994 -1.05932
-1.33647 1.85679 -0.605799
-1.15394 2.22429 -0.560613
-0.175355 3.38682 1.19001
-0.948816 2.67785 -2.22312
0.0917014 3.778 1.12813
-1.76719 0.997259 -1.24711
-0.732657 2.48839 1.12657
-0.955183 2.49867 -1.56073
-0.779222 2.74611 -1.68312
-0.772224 2.23119 1.24492
-0.742076 2.81013 -1.4222
-0.280072 3.15994 1.23021
-0.842636 2.66983 0.755621
-1.83899 0.937997 -0.971382
-1.20196 2.09729 -1.69121
-0.110467 3.86782 0.731938
-1.35339 1.81819 0.717883
-1.34867 1.8051 -1.6432
0.789683 4.15546 0.943454
1.06041 3.76962 1.33698
0.705963 4.02564 1.13824
0.249037 3.69442 1.29967
0.810917 4.19219 0.864327
0.378467 3.65585 1.38261
0.961167 3.97534 1.15929
0.623358 3.85212 1.30301
2.34489 3.37162 0.664897
0.982647 4.2075 0.741158
0.239951 3.74415 1.25827
0.525981 4.12348 0.979484
2.00677 3.65752 0.680731
0.291958 4.03532 0.991319
0.666927 3.94817 1.22032
1.3501 3.85172 1.11265
0.227388 4.04862 0.915356
2.1445 3.5252 0.709708
1.47482 3.63537 1.26983
1.8436 3.74716 0.754987
0.228815 3.94645 1.06079
2.06825 3.52144 0.824055
0.880323 4.16588 0.899138
0.570318 3.64565 1.44263
1.26429 3.68119 1.3411
1.51668 3.89293 0.906745
0.959332 3.74472 1.38062
0.844247 4.17804 0.8859
2.01681 3.71237 0.54886
1.24159 4.00641 0.972848
0.830502 4.24758 0.699279
0.727295 3.96605 1.20417
0.607842 3.4913 1.5385
1.05916 3.84835 1.26432
1.15748 3.70656 1.36104
1.50256 4.01688 0.661449
1.20538 4.18168 0.571906
1.33274 4.05692 0.790837
1.52456 3.89395 0.896442
1.26493 3.69588 1.32748
1.22381 3.85987 1.18129
1.63546 3.63129 1.15379
1.69218 4.00824 0.152616
2.10297 3.70509 0.400001
1.96956 3.70832 0.638678
1.62229 3.72937 1.04395
1.85073 3.8532 0.496805
0.38834 4.15585 0.848855
1.55619 3.83099 0.964705
1.69018 3.63203 1.10405
