ply
format ascii 1.0
comment Created by Open3D
element vertex 200
property double x
property double y
property double z
end_header
0.879533 2.20586 -0.888744
1.86062 1.34656 -1.02608
-0.797248 3.15633 0.39628
1.89937 1.14186 -1.13724
0.992103 1.60464 -1.21861
2.3631 1.28032 -0.946488
-0.142524 3.20768 -0.216407
-0.512004 2.54816 -0.56505
-0.858296 1.90235 -1.02787
0.0920673 2.86275 -0.562401
0.139735 2.48177 -0.846139
0.560199 3.63971 0.00581897
0.716465 2.81615 -0.562026
2.61574 1.9736 -0.386056
1.56164 1.43368 -1.08151
0.499828 2.27735 -0.950228
1.39243 2.20517 -0.70191
-1.15387 2.02228 -0.392183
2.74354 1.15743 -1.02536
1.43384 1.30425 -1.21156
0.372547 2.40899 -0.883885
-0.59516 2.66521 -0.383362
1.29931 3.02826 -0.223443
-0.424122 3.0531 -0.167734
2.02845 0.42492 -1.58705
-0.444076 2.65803 -0.511826
-0.440225 2.38594 -0.770673
-0.0989873 3.77635 0.335092
-0.322747 2.52845 -0.700389
1.64969 2.65502 -0.307454
2.16037 0.0598945 -1.88632
2.37448 1.94468 -0.48556
1.12194 3.30236 -0.10268
-0.764109 2.1151 -0.814518
-1.04761 1.8885 -0.764028
1.91056 1.63469 -0.839026
2.20357 0.233352 -1.70877
-0.704229 2.77586 -0.162491
2.29601 1.3062 -0.940222
-0.615709 2.21424 -0.831517
-0.299487 3.15315 -0.170492
2.50565 0.418164 -1.54521
-0.719216 2.67312 -0.249403
-0.653205 2.12508 -0.908817
2.58755 1.32397 -0.897809
-0.925024 2.53532 -0.136061
0.15576 3.46531 -0.112008
1.25316 2.30315 -0.699224
1.48718 0.774766 -1.54524
1.60893 2.48086 -0.443874
-0.674506 3.16458 0.218245
0.0800084 3.34806 -0.18867
1.27017 3.25211 -0.0677847
1.61402 0.804311 -1.4611
1.8117 1.56008 -0.916408
0.00405749 2.77113 -0.613951
0.432692 3.29926 -0.272952
2.33211 0.993261 -1.13731
0.507742 2.30371 -0.930938
1.85288 1.25479 -1.08341
1.68001 0.713208 -1.49703
2.49722 2.12939 -0.28461
-0.79397 2.26062 -0.60365
-0.51201 3.02711 -0.114385
-0.605223 2.33904 -0.701365
-0.644901 3.5225 0.720515
1.01965 2.81897 -0.475083
-0.598236 3.209 0.169622
-0.720662 2.16035 -0.801601
-0.0430676 2.89562 -0.506849
1.81135 0.608123 -1.51976
-0.134232 2.09305 -1.16551
0.109065 2.25823 -1.01871
0.141962 3.10211 -0.394785
2.50128 1.97961 -0.416142
0.949553 1.92312 -1.03526
0.911323 1.45769 -1.35787
2.61261 0.888999 -1.20421
2.33078 2.12764 -0.358013
2.62742 0.904211 -1.19477
1.34344 2.76777 -0.380384
1.05332 2.11632 -0.881515
-0.101829 2.46629 -0.830787
0.0704299 3.36141 -0.174686
1.7512 1.6274 -0.898286
1.64267 1.18779 -1.1981
0.405797 3.05788 -0.444698
2.4465 1.57777 -0.734109
2.5291 0.244432 -1.6961
0.735153 1.3477 -1.54571
-0.133186 2.3959 -0.883409
-0.902827 2.00443 -0.801159
-0.614928 2.00514 -1.10549
2.88868 1.4638 -0.808636
1.53354 3.04329 -0.0814039
1.98879 1.35615 -0.981241
-0.804241 2.97568 0.180537
0.607523 3.79003 0.155877
-0.797968 2.5556 -0.278938
0.120851 3.16265 -0.345171
-0.144293 4.00942 1.08124
0.268263 4.1755 1.00805
0.0545002 4.08708 1.2491
0.329064 3.5593 2.32263
0.465377 3.95014 1.79085
-0.0804012 3.42081 2.32788
0.264914 3.63317 2.21207
0.52709 4.06596 1.56553
0.428659 4.19475 1.05644
0.518798 4.10365 1.47446
0.503175 3.78344 2.05366
0.198793 4.00319 1.61871
0.426771 3.65844 2.21651
0.372474 3.67775 2.1813
0.289085 3.84693 1.92345
0.240546 4.16842 0.970671
-0.245022 3.87715 1.46036
-0.550599 3.65666 0.823453
-0.145828 3.73533 1.86136
0.154842 3.44001 2.4113
-0.0309031 3.51082 2.2441
0.0887768 4.11106 0.87005
0.360314 4.09951 1.46698
0.503877 4.03974 1.62326
-0.502012 3.7234 0.903396
0.50255 3.82417 1.99401
-0.0506719 3.71352 1.96202
0.733552 3.99072 1.6761
-0.303865 3.73149 1.71554
0.162315 4.1456 1.09799
0.45738 4.19248 1.10652
0.695314 3.7029 2.16138
0.201727 3.97617 0.426671
0.321016 3.39314 2.52024
-0.600004 3.59332 0.781308
0.772236 3.58381 2.31612
0.252682 3.29573 2.6119
-0.436186 3.78744 1.29263
0.218972 3.92353 1.77614
0.796856 3.56893 2.33219
-0.441768 3.72433 0.720692
0.443076 4.15024 1.33274
0.477631 3.43468 2.50517
0.0925117 3.21785 2.63949
-0.271351 3.71616 1.77989
0.629614 3.79731 2.03132
-0.097806 3.81906 1.75984
-0.353636 3.83447 0.827894
0.286028 4.06091 0.538488
0.324129 4.07069 1.52658
0.161465 4.08489 0.668978
-0.0633886 3.75003 1.89894
0.397041 4.18971 1.1054
0.314974 3.33899 2.5815
0.102294 4.09156 0.755454
0.653414 3.79733 2.02867
-0.142904 3.71503 1.89572
-0.103313 4.02294 0.901114
0.00925518 3.96644 0.542058
-0.0644972 3.99258 0.691501
0.16711 4.14987 1.0242
0.573819 4.02942 1.63979
0.116452 4.09305 1.31983
0.359104 4.15701 1.28257
-0.35811 3.76912 0.650341
-0.00927222 3.38399 2.40684
0.170341 3.39549 2.46905
0.371838 4.19135 1.00327
0.291868 3.88063 1.87215
-0.0108591 3.93504 0.502454
0.0307973 3.99038 0.569234
-0.4498 3.78397 0.988418
-0.211962 3.89802 0.688053
0.278259 4.17432 0.935269
0.508993 4.18788 1.14734
-0.29599 3.81706 1.538
-0.222201 3.86344 1.53414
0.419581 4.08638 1.51334
0.143918 4.08652 0.690187
0.608863 4.1315 1.3744
0.505561 4.1952 1.06086
-0.191869 3.79843 1.71058
0.102858 3.4465 2.38321
0.175103 4.01071 1.58988
-0.259243 3.83336 1.55409
0.300849 4.10404 0.626361
0.621423 4.09358 1.48121
0.27993 3.9612 1.73331
0.367962 4.09794 1.47329
-0.409968 3.82287 1.05787
0.406225 3.96322 1.76123
0.539513 4.13547 1.38025
-0.0562438 3.7464 1.90932
0.0609055 3.47126 2.33593
0.0921899 3.73412 2.01131
-0.156118 3.85506 1.63598
-0.530632 3.65104 0.748955
0.442179 4.19613 1.01897
0.607299 4.13149 1.37504
0.108657 3.76249 1.97862
