ply
format ascii 1.0
comment Created by Open3D
element vertex 400
property double x
property double y
property double z
end_header
-2.74453 -1.51548 -0.202579
-2.53524 -2.04444 -1.02081
-2.23177 -1.73577 -0.215725
-0.251982 -2.75049 -0.53206
-2.74138 -1.5147 -0.196808
-1.09173 -1.62307 1.01225
-2.02271 -1.52131 0.391222
-1.37683 -2.13732 -0.393466
-1.47971 -2.13267 -0.445266
-0.743644 -2.54042 -0.609591
-2.03823 -2.40903 -1.05489
-1.13662 -2.56344 -0.818512
-1.85198 -2.48505 -1.03206
-2.31305 -1.27905 0.675547
-2.89027 -1.34457 0.0659449
-1.98303 -1.48484 0.493943
-1.18614 -1.77243 0.516362
-1.96694 -1.60987 0.243968
-1.79478 -2.50366 -1.02309
-2.36589 -2.32674 -1.17107
-2.40331 -1.9177 -0.706415
-1.26529 -1.78445 0.407936
-1.34008 -2.45742 -0.798082
-3.34263 -1.02896 0.305031
-3.02072 -1.26705 0.109065
-2.10891 -1.98688 -0.59256
-1.71332 -2.53057 -1.01171
-2.87518 -1.35015 0.0692148
-0.786432 -2.20105 -0.0898559
-1.72378 -1.7908 0.0338633
-0.350163 -2.83522 -0.691942
-1.1583 -2.57494 -0.837882
-2.01084 -1.46395 0.517207
-0.280486 -2.55675 -0.268735
-1.90027 -1.66194 0.180679
-1.27831 -2.45586 -0.770175
-2.68687 -1.77873 -0.754388
-0.738949 -2.59463 -0.669575
-1.38939 -2.33005 -0.676409
-1.70995 -1.85261 -0.0827449
-0.395648 -2.61324 -0.471594
-2.66353 -1.3748 0.222801
-0.613777 -2.13935 0.278716
-2.45281 -1.64481 -0.206246
-0.684186 -2.12896 0.199603
-1.44286 -1.48705 0.90486
-2.02793 -1.99068 -0.544268
-2.73171 -1.58554 -0.364353
-0.312131 -2.85763 -0.688141
-2.21495 -2.08829 -0.817127
-1.94203 -1.42907 0.633589
-2.6819 -1.71892 -0.61859
-2.85375 -1.12003 0.607293
-2.68458 -1.38057 0.190574
-2.04456 -2.44845 -1.08867
-1.00959 -2.42841 -0.613467
-0.621972 -2.62276 -0.636881
-1.3872 -2.21691 -0.522815
-2.44695 -1.69136 -0.303279
-2.84119 -1.28472 0.266336
-0.325758 -2.85008 -0.690054
-1.56462 -2.37446 -0.807757
-1.51095 -2.5944 -0.985258
-1.8898 -1.37156 0.778534
-2.20089 -1.41246 0.491645
-0.93958 -1.78482 0.815535
-2.24374 -1.28904 0.701025
-1.85332 -1.71981 0.0915396
-1.98044 -2.44297 -1.05499
-1.55944 -2.3836 -0.815193
-0.353511 -2.92408 -0.767924
-1.7684 -1.64406 0.312732
-1.3658 -2.53007 -0.87834
-0.641966 -2.44884 -0.420034
-2.59054 -1.44543 0.125468
-1.7258 -1.71872 0.184115
-1.30318 -2.3116 -0.610933
-2.41184 -1.86504 -0.62109
-0.33761 -2.66014 -0.488094
-1.60088 -1.42922 0.881976
-3.31159 -1.02443 0.362709
-2.77978 -1.11632 0.66777
-1.85435 -1.77454 -0.0230273
-3.1265 -1.01177 0.595257
-0.712699 -2.09417 0.255258
-2.24438 -1.42079 0.444938
-0.449988 -2.54625 -0.418878
-0.504692 -2.38392 -0.185577
-1.03899 -2.47056 -0.6787
-1.56512 -1.88063 -0.0403868
-2.68715 -1.42674 0.0793109
-0.840179 -2.29596 -0.315527
-3.30622 -1.09903 0.159606
-1.51604 -1.70496 0.371668
-1.23527 -2.41951 -0.711161
-1.42158 -2.17477 -0.478399
-2.19718 -1.48386 0.34727
-1.47684 -1.87222 0.0393497
-3.33788 -1.01135 0.359568
-1.53721 -2.58723 -0.989284
-0.309357 -2.48538 -0.162497
-0.803952 -1.98027 0.448421
-2.62005 -1.75225 -0.614523
-0.879992 -1.97021 0.367119
-1.60709 -2.4272 -0.87977
-0.681497 -2.33789 -0.265261
-0.879314 -2.16818 -0.105487
-2.96795 -1.23173 0.262805
-1.11514 -2.57017 -0.816125
-0.130606 -3.0571 -0.723963
-2.44565 -1.76131 -0.450308
-2.13391 -2.35652 -1.05962
-1.27674 -1.99412 -0.0658166
-3.02474 -1.31364 -0.0276079
-2.4377 -1.36506 0.423148
-2.30508 -1.46692 0.305594
-1.74011 -2.08992 -0.526137
-2.24782 -1.78781 -0.334268
-1.18723 -2.22394 -0.421801
-1.13953 -2.3397 -0.564966
-2.49817 -1.30199 0.508394
-1.63866 -2.59676 -1.03258
-2.92189 -1.21973 0.338756
-2.82698 -1.54573 -0.392012
-1.52352 -2.28291 -0.68204
-1.81316 -2.43226 -0.972089
-1.08486 -2.10144 -0.137507
-2.66007 -1.63448 -0.395773
-0.963634 -2.11252 -0.0627077
-1.81469 -1.95784 -0.350929
-1.94791 -2.38007 -0.986903
-1.31993 -1.65202 0.665294
-2.11853 -2.0806 -0.741368
-0.951137 -2.29695 -0.393134
-1.43814 -2.023 -0.23182
-2.7209 -1.64378 -0.494373
-0.633147 -2.13663 0.254766
-1.32354 -2.2089 -0.476154
-0.76805 -2.02721 0.365121
-2.08208 -1.4049 0.586543
-0.585494 -2.6374 -0.632197
-3.13068 -1.10157 0.396734
-2.06219 -2.42796 -1.0814
-2.30254 -2.34159 -1.14302
-3.10076 -1.19565 0.196389
-0.558607 -2.25465 0.0420259
-1.37997 -2.31893 -0.658017
-0.322431 -2.90373 -0.733947
-0.934546 -2.48007 -0.638566
-2.73738 -1.44534 -0.0175162
-0.67198 -2.24679 -0.074211
-2.02005 -2.10602 -0.714622
-2.08892 -1.74985 -0.137503
-2.05553 -2.22649 -0.887732
-2.67957 -1.14824 0.677821
-1.34116 -2.05777 -0.233111
-1.11687 -2.57231 -0.818829
-0.984741 -2.26915 -0.369837
-0.966371 -1.76578 0.825556
-0.711741 -2.34003 -0.294077
-0.964278 -2.04174 0.0923025
-1.14235 -2.18536 -0.331097
-2.35085 -2.30228 -1.14162
-1.02327 -2.70574 -0.896488
-2.85185 -1.41272 -0.0664889
-0.23234 -2.65855 -0.38794
-1.62331 -2.43647 -0.895426
-1.30104 -1.7796 0.386028
-0.602947 -2.13489 0.311589
-2.09441 -2.01733 -0.631239
-2.18909 -2.21506 -0.954604
-1.00079 -2.73163 -0.907935
-1.15966 -1.77736 0.532926
-0.670341 -2.59012 -0.627132
-0.617996 -2.19793 0.107015
-0.936916 -2.50496 -0.668943
-0.792385 -2.01 0.378521
-2.00203 -2.10758 -0.705814
-1.09114 -2.36832 -0.578042
-2.05511 -1.41113 0.592375
-2.56808 -1.54839 -0.0937646
-2.36325 -2.02791 -0.844764
-2.24954 -1.83785 -0.433355
-0.765753 -2.61361 -0.70361
-2.98604 -1.41397 -0.267334
-2.379 -1.67139 -0.199532
-2.53053 -1.51059 0.0288347
-1.26642 -1.90761 0.125097
-0.76579 -2.48253 -0.549281
-2.81526 -1.1981 0.481181
-1.4804 -2.65512 -1.01817
-1.93042 -1.84781 -0.221801
-2.56271 -1.37727 0.302212
-2.37026 -1.224 0.739012
-0.316665 -2.45455 -0.10386
-1.64622 -1.77201 0.128071
-2.53573 -1.41765 0.235064
-2.46174 -1.61714 -0.152423
-1.11505 -2.18869 -0.31926
-2.76556 -1.57315 -0.377356
-2.21305 -1.63487 0.012445
-2.70067 -1.31246 0.330812
-0.266355 -2.57033 -0.27703
-0.468471 -2.39276 -0.163673
-3.01885 -1.3219 -0.0428563
-0.464152 -2.30444 0.0490688
-1.39775 -2.08146 -0.311408
-1.32178 -1.75268 0.429577
-2.84447 -1.51957 -0.346632
-2.7524 -1.61065 -0.454996
-0.764966 -2.42356 -0.466844
-0.562301 -2.86453 -0.829428
-1.26429 -1.7964 0.380769
-1.61043 -1.81753 0.0578074
-1.17058 -2.11459 -0.224109
-2.1243 -1.95283 -0.546791
-0.781623 -2.12346 0.0908396
-1.31239 -2.4985 -0.827638
-2.71169 -1.46253 -0.0325865
-2.43602 -1.82308 -0.564537
-2.88622 -1.13019 0.562294
-1.01715 -1.962 0.22802
-1.07063 -2.00231 0.0826178
-0.0949331 -3.06581 -0.704175
-1.62209 -1.67851 0.346935
-2.55235 -1.77921 -0.594211
-1.10763 -1.84768 0.41432
-1.28433 -1.77857 0.403859
-0.908392 -2.08594 0.0456607
-3.31181 -1.00578 0.40948
-1.19178 -1.65729 0.792949
-2.54602 -1.95359 -0.902295
-2.34768 -1.97835 -0.757703
-1.06203 -1.85833 0.438384
-1.53652 -1.7541 0.247747
-2.01561 -1.57266 0.288378
-2.36295 -1.66243 -0.166399
-1.61645 -1.54376 0.639976
-2.183 -1.95955 -0.600114
-2.85664 -1.4821 -0.261123
-0.778264 -2.18657 -0.0508704
-1.73348 -2.06535 -0.483559
-0.229139 -2.7801 -0.548137
-1.03404 -2.09008 -0.0748606
-1.06651 -2.00841 0.0726702
-1.7367 -1.60743 0.413945
-1.51949 -1.86807 0.0173237
-0.736933 -2.82336 -0.874566
-3.10136 -1.26194 0.00677386
-1.50312 -2.2568 -0.638272
-1.91445 -1.83024 -0.176522
-2.10133 -2.43062 -1.10235
-0.32395 -2.53289 -0.274923
-0.809016 -2.17573 -0.0572743
-1.3587 -2.30126 -0.624945
-0.765032 -2.49757 -0.568412
-2.68981 -1.21227 0.549264
-1.9649 -2.22749 -0.838328
-2.35783 -1.70075 -0.244662
-0.958109 -2.44155 -0.603348
-1.76975 -1.54751 0.515916
-1.39934 -1.74146 0.386575
-2.06077 -2.11858 -0.75701
-0.972982 -1.77025 0.801402
-2.51616 -1.82771 -0.652034
-1.35544 -2.58612 -0.922536
-2.24516 -2.24809 -1.02422
-1.39832 -1.54549 0.825489
-2.23003 -1.99553 -0.692713
-3.24626 -1.14277 0.129502
-1.42817 -2.60293 -0.962201
-1.51649 -2.03092 -0.295551
-2.97693 -1.43806 -0.325914
-3.33059 -1.00462 0.387179
-2.43049 -2.1086 -1.0063
-1.67008 -2.11667 -0.527482
-1.98103 -1.39623 0.670787
-2.39282 -1.58878 -0.0292782
-1.39147 -2.32027 -0.665236
-1.56755 -1.56749 0.629314
-1.98617 -2.28945 -0.918166
-1.6269 -1.69102 0.316195
-2.82758 -1.47364 -0.198019
-1.24443 -1.73654 0.542543
-2.69029 -1.18914 0.594011
-2.40984 -1.59877 -0.0658409
-0.597475 -2.34873 -0.209919
-2.2904 -1.83255 -0.455961
-2.64212 -1.24527 0.518569
-1.17301 -2.04956 -0.100714
-1.47606 -1.87585 0.0323301
-1.87218 -1.49119 0.558227
-1.49617 -2.09749 -0.397687
-1.06006 -2.46595 -0.683389
-2.14502 -1.2846 0.770715
-0.546248 -2.3006 -0.0530145
-0.887631 -2.44471 -0.56946
-1.00395 -2.4389 -0.623664
-1.87999 -2.25718 -0.827642
-1.72973 -2.14788 -0.606757
-2.16356 -1.55559 0.21931
-1.59101 -2.01664 -0.316183
-2.34738 -2.32126 -1.15483
-2.07953 -2.29122 -0.969937
-2.75803 -1.61853 -0.482645
-0.252706 -2.58431 -0.286285
-2.91479 -1.35776 0.00094199
-1.38288 -1.89309 0.0649212
-0.837467 -2.0161 0.298331
-1.24306 -2.12734 -0.29492
-2.61672 -1.59986 -0.264652
-0.756947 -2.09511 0.192187
-2.5468 -1.64261 -0.291174
-0.644789 -2.10117 0.343158
-2.34911 -2.02859 -0.834267
-1.86668 -1.88861 -0.257265
-0.394898 -2.44469 -0.185427
-2.20196 -2.29965 -1.04725
-0.481804 -2.39184 -0.176743
-1.25976 -1.63582 0.765995
-1.98587 -1.98313 -0.504196
-0.624947 -2.20743 0.0732664
-2.10406 -2.32356 -1.01431
-2.98566 -1.42217 -0.292143
-2.24199 -2.01317 -0.728759
-2.08151 -2.48527 -1.13204
-2.43542 -1.66964 -0.245326
-0.617813 -2.1749 0.169194
-1.70389 -1.46775 0.727169
-0.990311 -2.31926 -0.452201
-2.38777 -1.33197 0.525238
-2.87545 -1.21956 0.38306
-2.69814 -1.47082 -0.0386725
-1.25281 -2.31468 -0.589659
-1.10955 -2.60712 -0.847595
-2.29207 -1.90392 -0.588509
-0.705167 -2.053 0.388813
-1.36878 -2.57269 -0.916359
-1.40758 -1.9754 -0.12103
-1.57673 -1.55186 0.654869
-0.878245 -2.03655 0.195268
-1.7893 -1.96897 -0.354698
-0.466442 -2.43314 -0.241856
-2.11142 -1.71745 -0.0868685
-1.47698 -2.33515 -0.723697
-2.19534 -1.66687 -0.0426814
-0.458859 -2.30837 0.0467731
-1.4842 -1.95564 -0.134346
-1.95821 -1.93356 -0.400358
-1.19243 -2.00233 -0.0189936
-1.87635 -1.37487 0.781546
-0.68095 -2.33195 -0.253907
-1.37403 -2.20798 -0.502512
-2.25374 -1.78458 -0.332508
-0.299977 -2.60791 -0.377733
-1.26169 -1.55771 0.942301
-0.246139 -2.65481 -0.396441
-0.398153 -2.43568 -0.170642
-2.88666 -1.48314 -0.308745
-0.126469 -2.96289 -0.649027
-2.89484 -1.15802 0.498606
-2.05196 -1.94643 -0.485773
-1.01535 -1.71412 0.89148
-1.55703 -1.81955 0.0918514
-1.20479 -1.74784 0.556684
-1.8575 -2.17496 -0.714097
-0.917304 -1.87684 0.578532
-1.22216 -1.66504 0.738709
-1.9769 -1.42193 0.623853
-1.1269 -1.77357 0.579776
-1.48783 -1.58539 0.657964
-2.56007 -1.5799 -0.159632
-1.11157 -1.59631 1.0485
-0.719756 -2.36562 -0.344395
-2.496 -1.7489 -0.473205
-3.24944 -1.10643 0.23139
-2.28886 -2.32532 -1.12156
-1.55458 -1.58625 0.599886
-1.33144 -1.56857 0.842203
-2.21974 -1.7337 -0.20208
-3.26467 -1.04053 0.384571
-1.95422 -2.37997 -0.989824
-1.21149 -1.57368 0.966321
-2.4277 -1.92289 -0.737199
-0.728902 -2.331 -0.291848
-3.01717 -1.3002 0.0220447
-1.13067 -2.27533 -0.468186
-1.78619 -1.56926 0.458455
-0.51261 -2.29036 0.0150688
-2.4784 -1.71106 -0.375538
-2.9548 -1.35999 -0.0588105
-1.67369 -1.50888 0.667407
-0.848094 -2.00408 0.316952
-2.3004 -1.30885 0.628059
-2.93177 -1.37234 -0.0613887
-2.12809 -1.91669 -0.486908
-1.45216 -1.48094 0.908573
-2.52075 -1.17656 0.729461
-2.27248 -1.45199 0.36061
-1.01537 -2.7184 -0.90329
