ply
format ascii 1.0
comment Created by Open3D
element vertex 400
property double x
property double y
property double z
end_header
1.45991 2.43441 1.45265
0.742858 0.237574 2.84726
1.41529 1.77218 1.5666
1.52693 0.203428 1.54214
1.14841 2.46578 1.82028
1.31545 2.33074 1.65045
1.69616 0.811087 1.20395
1.17696 1.66185 1.90588
0.730795 0.358942 2.89405
0.791161 -0.441906 2.98318
1.65072 2.58957 1.17865
1.27146 1.03972 1.77484
1.11455 0.00784181 2.09585
0.789909 0.361459 2.66272
0.932179 0.454458 2.32966
1.71238 2.968 1.00771
1.57628 2.41413 1.30441
0.917938 -0.398794 2.55107
1.78832 1.62183 1.01361
1.15983 -0.167026 2.08457
1.12434 1.40663 1.99173
1.00964 1.12007 2.17984
0.917082 0.385083 2.36293
1.34215 1.12582 1.67348
1.73847 1.5735 1.09472
1.08651 1.64059 2.04148
1.53707 0.19135 1.53429
0.751209 1.44467 2.73436
1.1968 0.363319 1.91878
0.758612 1.67449 2.65266
1.38017 2.70633 1.48733
1.02077 0.400781 2.17768
1.61252 0.568478 1.3539
0.842935 0.291335 2.52824
1.48461 0.611676 1.50965
1.35597 0.804497 1.66311
0.715246 0.577855 2.99075
0.786833 1.6724 2.58134
1.6053 1.98642 1.29378
1.6304 0.730745 1.30395
1.15655 0.270108 1.98738
0.920066 2.07951 2.22689
0.871686 -0.178467 2.55644
0.971218 0.663047 2.25005
0.782817 0.410497 2.6814
1.77117 0.924959 1.0818
0.87351 1.74645 2.3836
1.18537 0.586793 1.91362
0.683638 1.78185 2.84889
1.20033 0.738417 1.88415
0.851208 -0.528131 2.8043
1.58902 0.774614 1.35318
1.11741 -0.0906582 2.11755
0.761476 -0.279371 2.9851
0.92701 -0.354239 2.51148
1.05087 1.45103 2.10607
1.20093 2.27552 1.80349
1.33106 2.72728 1.53564
1.49634 1.27081 1.45507
1.51427 0.96397 1.43866
1.03805 -0.37459 2.33227
1.00284 2.10874 2.09957
1.47392 0.631927 1.52089
1.42928 2.75252 1.41822
0.898506 2.05941 2.26553
0.918652 -0.236167 2.47933
0.769078 1.80077 2.58556
1.28896 1.69842 1.74477
0.982815 0.216721 2.26035
0.832682 1.67577 2.4779
0.854093 1.60892 2.44518
1.71932 0.891032 1.16084
1.41508 2.12277 1.54893
0.821064 -0.499147 2.89053
0.808725 0.250818 2.61884
1.17651 2.30241 1.82831
1.61937 2.28691 1.25825
1.7501 2.58165 1.03756
0.892652 1.08663 2.39967
0.890474 1.92292 2.3152
0.791415 1.298 2.63244
0.720966 1.62868 2.7854
0.774819 0.993103 2.69896
0.959756 1.45886 2.25934
0.761137 0.206482 2.77504
1.61404 1.48379 1.28443
1.38053 1.91805 1.60934
0.823468 0.884661 2.5597
1.5174 1.8535 1.42209
1.3343 2.44612 1.6053
0.72284 0.972816 2.92594
0.941074 0.573449 2.30775
1.56023 0.563394 1.42067
0.924698 0.12595 2.37725
0.778602 1.28034 2.67143
1.52799 1.9493 1.40474
0.798691 0.549436 2.62882
1.51788 2.62222 1.34531
0.809439 2.17604 2.36279
0.814509 0.634989 2.58384
0.809121 1.15193 2.5932
0.831565 1.00325 2.5387
1.36438 0.270553 1.71663
1.40288 2.17604 1.56
1.70322 2.3067 1.13565
0.892567 1.31984 2.39373
0.786267 0.342105 2.67518
1.02366 1.97054 2.09835
0.964069 1.65726 2.23599
1.32385 0.191633 1.783
1.64927 1.49649 1.23215
0.817324 0.319336 2.58937
0.975327 -0.251673 2.38257
1.4276 0.482523 1.60051
0.898429 1.85318 2.31761
1.26529 2.25827 1.72574
0.917089 0.320022 2.3681
1.0054 -0.157508 2.30196
1.6475 0.276981 1.38454
0.897403 2.21879 2.21522
1.48065 0.849978 1.4914
1.73869 2.81851 1.01109
1.05599 0.271373 2.13486
0.647385 1.85012 2.97158
0.714213 1.3191 2.92687
1.81946 0.621038 1.07554
1.25158 0.767041 1.80972
1.61286 2.91054 1.15449
0.721617 1.03421 2.92997
1.71936 2.93711 1.00739
0.712078 1.2507 2.96154
0.712375 1.63819 2.81389
1.37602 1.96777 1.61273
1.6432 0.968121 1.25991
1.62235 2.0786 1.2662
1.1859 1.03447 1.89978
1.53344 1.49748 1.40138
0.864926 0.313425 2.47611
1.72795 1.84356 1.11097
0.99811 -0.349169 2.38352
1.33087 -0.0756251 1.84825
1.77721 2.03716 1.0305
1.81208 0.863667 1.03151
0.89222 1.89003 2.32008
0.757835 0.533272 2.7623
1.17815 -0.203067 2.07359
0.880822 -0.0996243 2.51248
1.60118 0.293103 1.43231
0.804878 0.44704 2.61478
0.844448 1.93655 2.39099
1.68571 3.07631 1.00637
1.67235 1.92333 1.1961
1.76627 1.67772 1.04968
1.0964 1.7325 2.02022
1.56097 0.78865 1.389
0.863505 -0.487692 2.73302
1.5775 0.246992 1.47249
1.76502 2.63813 1.00676
1.65165 0.320249 1.36663
1.73444 2.23929 1.09234
1.54576 1.61948 1.38365
1.34934 0.158173 1.75979
1.62796 0.295366 1.40107
0.888423 1.90847 2.32217
1.13832 0.911043 1.97236
1.38751 2.62711 1.5005
1.67048 0.481674 1.30067
0.650673 1.82413 2.98534
1.39908 1.84853 1.58687
1.40335 0.154001 1.69701
1.65309 2.18278 1.21694
1.35469 2.53014 1.56252
1.5023 1.27447 1.4466
1.587 1.88382 1.32234
1.03161 1.88244 2.10069
1.21426 1.85546 1.84148
1.01381 1.51503 2.16384
0.773582 0.933996 2.70395
1.40592 1.06481 1.58486
1.03708 0.374576 2.15352
1.17945 1.50741 1.90702
1.1709 0.498609 1.941
1.30113 0.718378 1.74314
0.844837 0.771128 2.50688
0.938875 1.67842 2.27669
0.835659 0.55143 2.53143
0.782576 -0.365468 2.93894
0.88534 -0.458134 2.65627
1.71328 1.52175 1.13456
0.878559 -0.484135 2.69025
1.49849 2.23688 1.42773
1.75063 1.9163 1.07466
1.80337 0.836189 1.04919
0.885305 1.93222 2.32156
0.769827 1.56477 2.65123
0.850649 1.48867 2.46843
1.02322 2.30588 2.01929
1.15368 1.30387 1.94792
0.853124 -0.215597 2.61278
1.74372 1.69121 1.08605
1.68058 1.95079 1.18331
0.980191 1.33287 2.2284
0.837193 1.55768 2.48862
1.16736 0.300542 1.96793
0.87595 1.57382 2.406
0.858484 2.26035 2.25412
0.728278 1.73818 2.71624
1.29126 0.460355 1.7794
1.37288 1.31914 1.6293
1.10583 2.36121 1.9008
1.47408 0.423126 1.55266
0.73199 1.66169 2.73499
0.821785 0.255167 2.58385
1.00708 -0.322837 2.358
1.69829 1.06582 1.17344
1.25353 2.56724 1.67025
1.03924 0.203201 2.17017
0.656527 1.85345 2.91328
0.72378 0.680223 2.92403
1.62041 1.88343 1.27377
0.760564 1.11166 2.74363
0.935276 0.802057 2.3151
1.56261 0.168595 1.51294
1.02106 1.82946 2.12396
0.99345 0.564193 2.21391
1.31561 1.034 1.71202
1.23037 2.49939 1.71563
1.09932 2.40259 1.89686
0.935467 0.280163 2.33707
1.25739 0.527912 1.81764
0.945451 1.45096 2.28546
0.977731 1.56296 2.22127
1.48584 0.141648 1.60629
1.38395 2.58774 1.51444
0.993414 1.55651 2.19527
0.909509 2.23682 2.19187
0.68397 1.84824 2.8018
1.64471 2.13934 1.23125
1.53149 0.822125 1.4252
1.32682 0.940424 1.69813
1.0328 1.35282 2.13823
0.846951 0.0967534 2.54412
0.666667 1.7241 2.99613
1.19304 1.92588 1.86491
0.726991 0.415736 2.91154
1.10763 1.55992 2.01324
1.25217 1.13861 1.8021
1.07496 0.302253 2.10198
1.66804 2.59333 1.1542
0.884527 1.41057 2.40472
1.74387 2.06064 1.08369
0.682485 2.0363 2.67959
1.41527 0.832017 1.58089
1.00075 0.776672 2.19614
0.753182 1.58011 2.69536
1.37696 0.285367 1.69822
0.843161 2.00949 2.37061
1.25499 -0.106186 1.94662
0.906744 -0.356078 2.55295
1.42474 1.83023 1.552
1.56295 2.79385 1.24913
0.775689 0.978459 2.69637
1.67923 2.76051 1.10723
1.22072 0.795863 1.85266
0.839364 -0.0701733 2.59903
0.725746 1.55283 2.79599
1.0895 1.8633 2.01786
0.734543 1.17086 2.84496
0.941117 1.67142 2.27367
0.886684 2.20237 2.23639
1.72162 0.717218 1.18475
1.5255 1.49605 1.41276
1.06254 0.660424 2.09573
0.693163 1.56716 2.94699
1.2668 0.00634982 1.89851
0.672911 1.84019 2.84998
1.79412 1.58299 1.00426
0.68542 1.96022 2.72249
0.786458 -0.0842306 2.75432
1.58466 0.978332 1.34074
0.981323 1.08728 2.22954
1.41319 2.45162 1.50798
0.783481 1.72036 2.57659
1.16248 1.73782 1.9229
0.775109 0.23536 2.72145
1.69437 2.47369 1.1333
1.64087 1.89978 1.24342
1.5517 1.42121 1.37524
0.800162 1.46825 2.58874
0.733284 0.0767352 2.93866
0.71415 1.62062 2.8147
0.73409 0.00753776 2.96329
1.06027 2.25298 1.98675
1.22923 1.22063 1.83549
0.732789 0.366819 2.88226
1.45146 2.62131 1.42646
0.819876 0.336837 2.58135
0.715019 1.31501 2.92296
1.59615 0.854687 1.33501
1.72368 2.63269 1.069
0.817599 0.493348 2.57876
1.49888 1.73349 1.45
0.986725 -0.00745291 2.29302
1.76364 2.25484 1.04591
0.87071 0.0794152 2.49372
1.02639 0.953251 2.15134
1.71013 2.87004 1.03863
1.48696 1.48464 1.46774
1.02765 0.252239 2.18186
1.53153 2.1732 1.38847
0.955853 -0.167782 2.38796
1.00669 2.30156 2.04164
1.05985 1.606 2.08474
1.72564 0.991866 1.14016
1.24049 2.0858 1.78311
1.24162 1.69423 1.81177
0.739641 2.10214 2.51787
1.2887 0.0993061 1.84751
1.28184 -0.0297409 1.89078
0.650743 1.98911 2.80728
1.53487 2.93202 1.24118
1.61793 2.62796 1.21613
0.870866 0.127781 2.4853
1.73784 1.20677 1.10526
1.50663 0.887822 1.45367
1.19956 1.60487 1.87513
0.803054 -0.0845912 2.70149
0.723575 0.149801 2.98487
0.965604 -0.391461 2.4576
1.26225 1.39312 1.78727
1.1622 1.83562 1.91623
0.701917 1.58765 2.88473
1.25562 0.126431 1.88227
0.727196 1.57461 2.78294
1.50875 0.308864 1.53528
0.736367 1.27095 2.82302
1.06241 1.05372 2.09154
0.807177 0.6121 2.60396
0.839406 0.67202 2.52039
0.823398 -0.544359 2.93838
1.38435 0.520735 1.65037
1.63426 0.672395 1.30783
1.48441 2.36411 1.43174
1.20468 2.35201 1.78259
1.3189 2.11378 1.67665
1.39443 0.670422 1.62087
1.16394 0.395782 1.96086
0.956567 1.3869 2.2686
0.903576 0.86354 2.37771
1.09134 1.73386 2.02766
1.01894 1.31219 2.16219
0.805748 -0.302642 2.78852
1.0322 1.70367 2.12071
1.71505 2.15621 1.12577
1.0558 2.0561 2.03685
1.62684 2.07311 1.25991
1.63553 0.379257 1.36875
1.35835 2.68174 1.51905
0.975885 -0.0149836 2.31288
1.60949 1.32928 1.29235
1.58842 1.00166 1.33403
1.55536 0.675648 1.40984
1.22066 1.62294 1.84409
1.19651 -0.0542917 2.00288
1.56931 0.305399 1.46558
1.35086 1.49689 1.66033
1.22786 -0.0264529 1.95557
1.40568 2.63295 1.47784
1.18699 0.0690985 1.98354
0.921685 1.02775 2.34126
1.7864 1.51156 1.01792
1.51025 2.64598 1.3496
0.861397 1.20016 2.4647
1.0271 2.35376 1.99962
1.69033 3.03596 1.0149
0.723879 0.221324 2.96084
0.933819 0.976189 2.31771
0.921813 2.04897 2.2327
1.20806 0.568478 1.88264
1.38225 2.35996 1.56223
0.854425 0.415934 2.49245
1.50074 2.39083 1.40696
1.69226 2.01829 1.16444
0.73911 0.367922 2.84985
1.16554 1.62541 1.92407
1.02869 -0.119324 2.25425
0.81482 0.460093 2.58732
1.6235 2.48692 1.2311
0.947827 0.0118582 2.35582
1.45368 1.93208 1.50852
1.18241 2.36742 1.80612
0.826452 -0.160075 2.66038
1.27591 0.376612 1.81067
0.738644 0.702935 2.8418
1.7699 2.40814 1.02607
1.29176 0.57229 1.76689
1.32389 1.94483 1.6848
0.824501 1.1861 2.55205
0.890389 -0.187016 2.51902
1.36822 0.267032 1.71265
