ply
format ascii 1.0
comment Created by Open3D
element vertex 200
property double x
property double y
property double z
end_header
0.754983 -2.13563 -1.13945
-0.523859 -2.29197 -0.894669
2.8752 -1.51379 -0.443552
-0.726807 -2.18484 -0.950273
0.15871 -1.82006 -1.30626
-0.868697 -2.62077 -0.704446
2.31659 -2.03987 -0.910324
1.98089 -1.32697 -1.17888
1.60711 -0.64139 -1.55498
1.82061 -1.9865 -1.12218
1.43623 -1.76952 -1.3041
2.24074 -2.84954 -0.648518
1.38904 -2.41972 -0.98762
-0.373013 -3.26766 -0.263569
-0.286974 -2.12828 -1.02561
1.03047 -1.90151 -1.28898
0.481317 -2.51515 -0.858303
2.06539 -0.496718 -1.03067
-1.22197 -2.82218 -0.678289
-0.335423 -1.94775 -1.14831
1.22482 -1.89432 -1.27854
2.17008 -1.34194 -1.04617
1.2665 -2.99231 -0.592066
2.4001 -1.72673 -0.88732
-1.45091 -1.80514 -1.20425
2.03134 -1.45052 -1.13752
1.75981 -1.27354 -1.32725
2.85422 -2.44803 -0.493439
1.80687 -1.45562 -1.26656
0.75232 -3.00406 -0.52415
-1.88217 -1.66162 -1.38761
-0.268513 -3.06969 -0.400785
1.6102 -3.04267 -0.569483
1.76057 -0.85197 -1.37677
1.79444 -0.489259 -1.33725
-0.295996 -2.52023 -0.7663
-1.73457 -1.80829 -1.24556
2.38258 -1.33304 -0.879782
-0.80561 -2.58812 -0.717259
1.73168 -1.02874 -1.38433
2.39115 -1.88632 -0.886178
-1.74812 -2.1552 -1.06772
2.29368 -1.25391 -0.944339
1.66961 -0.941864 -1.44703
-0.966686 -2.81648 -0.622321
2.35954 -1.00784 -0.847872
2.34028 -2.4331 -0.805176
0.640863 -2.47705 -0.90409
-0.843831 -1.63612 -1.34566
0.614575 -2.85841 -0.626201
2.7512 -1.61199 -0.591231
2.28277 -2.29899 -0.868975
1.48987 -3.11905 -0.49598
-0.87932 -1.74953 -1.24608
-0.308546 -2.39745 -0.844364
1.79648 -1.86021 -1.16978
1.99849 -2.52933 -0.869113
-1.10897 -2.40734 -0.832865
1.04982 -1.92486 -1.27449
-0.600988 -2.22532 -0.931775
-0.996829 -1.73799 -1.24816
-0.156866 -3.28286 -0.222859
1.94451 -0.925372 -1.21151
2.4531 -1.64357 -0.848303
1.85171 -1.11894 -1.28392
3.13311 -1.8693 -0.179905
1.22277 -2.64641 -0.844598
2.72014 -1.69879 -0.63192
1.76887 -0.914425 -1.36527
1.94639 -1.90753 -1.10285
-1.16219 -1.76561 -1.22164
1.24125 -1.30845 -1.58258
1.24636 -1.59865 -1.42835
2.00808 -2.18228 -1.00217
-0.304405 -3.1868 -0.31643
0.466169 -1.99987 -1.20625
0.0650929 -1.66286 -1.42472
-1.38172 -2.54679 -0.819086
-0.0731699 -3.15848 -0.325903
-1.37759 -2.5679 -0.810296
1.00706 -2.85225 -0.678684
0.582309 -2.20497 -1.07907
1.58378 -1.5794 -1.33428
2.30246 -2.30068 -0.860309
-0.216668 -2.39731 -0.853234
-0.547864 -2.02511 -1.06933
1.79372 -2.34934 -0.988072
-0.648207 -2.87995 -0.547137
-1.93072 -2.0577 -1.17091
0.044641 -1.4598 -1.61647
1.53834 -1.50944 -1.37608
1.77401 -0.67472 -1.36834
1.50266 -0.891708 -1.6024
-1.03326 -3.13321 -0.506397
1.16889 -3.17544 -0.412615
-0.585814 -2.39335 -0.828233
2.6883 -1.38953 -0.61343
2.36124 -2.98403 -0.527091
2.25155 -1.11702 -0.963575
2.07911 -2.20666 -0.971621
3.26551 -2.56424 0.162652
3.09953 -2.98267 0.139848
3.24268 -2.76268 0.346576
3.00188 -2.60562 1.53979
3.0397 -2.97245 0.97575
3.16589 -2.20848 1.49237
3.06349 -2.60816 1.40564
3.01768 -3.09754 0.748024
3.02492 -3.11444 0.214064
3.02349 -3.11729 0.65128
2.97278 -2.88706 1.26989
3.1978 -2.81101 0.746724
2.97952 -2.7454 1.43683
3.01774 -2.7182 1.38825
3.11697 -2.7713 1.08925
3.10134 -2.95762 0.100039
3.34523 -2.39793 0.533259
3.19846 -2.0283 -0.090818
3.2969 -2.37374 0.966657
3.05364 -2.39562 1.61503
3.17425 -2.30612 1.40311
3.12813 -2.80719 -0.0144348
3.1195 -2.99671 0.613416
3.03052 -3.0623 0.804168
3.23822 -2.10841 -0.0186638
2.98496 -2.91429 1.2041
3.24978 -2.42914 1.08655
2.86429 -3.19993 0.910812
3.35277 -2.25479 0.796412
3.17186 -2.88317 0.211117
3.01948 -3.13389 0.268195
2.82391 -2.97527 1.42821
2.8314 -2.80452 -0.387915
2.94571 -2.48701 1.76228
3.17259 -1.94955 -0.127674
2.73469 -2.95166 1.61669
2.94638 -2.37036 1.85688
3.35464 -2.19712 0.353517
3.17369 -2.77152 0.918184
2.71301 -2.95989 1.6401
3.14753 -2.15528 -0.181726
3.064 -3.09324 0.49075
2.87104 -2.63137 1.77031
3.00101 -2.19895 1.86776
3.33973 -2.26822 0.867713
2.89551 -2.99054 1.27078
3.29659 -2.46623 0.861447
3.20091 -2.29361 -0.0847346
2.87045 -2.92298 -0.281926
3.13929 -2.95007 0.669313
3.00484 -2.84534 -0.186895
3.26566 -2.44458 1.01596
3.05569 -3.08717 0.255688
2.92868 -2.44584 1.83109
3.07239 -2.80511 -0.117319
2.87958 -3.00828 1.27298
3.2905 -2.36208 1.0044
3.19683 -2.60518 -0.00443374
2.9807 -2.65396 -0.313775
3.08969 -2.61541 -0.190936
3.15047 -2.89017 0.140542
2.98331 -3.10729 0.836096
3.22788 -2.81219 0.425358
3.10788 -3.0357 0.424577
3.10572 -2.24799 -0.241815
3.1171 -2.23615 1.58986
3.02871 -2.37693 1.68277
3.04336 -3.07032 0.152571
3.12438 -2.7963 1.03362
2.95966 -2.61832 -0.349083
2.99191 -2.68578 -0.288512
3.27274 -2.18706 0.0603703
3.11534 -2.44256 -0.203722
3.07123 -2.98988 0.0724289
2.99509 -3.16888 0.318519
3.35737 -2.31924 0.610056
3.34225 -2.40515 0.611311
3.08574 -3.03165 0.672355
3.02334 -2.83322 -0.170435
2.9569 -3.20367 0.567597
2.97745 -3.1719 0.233521
3.32762 -2.38287 0.7999
3.0833 -2.36151 1.57643
3.20993 -2.79864 0.712827
3.35021 -2.35734 0.629354
2.91721 -2.96214 -0.203943
2.95277 -3.18682 0.680309
3.14926 -2.84238 0.881403
3.11533 -3.0013 0.621314
3.29519 -2.24215 0.126598
3.0782 -2.93743 0.932869
3.00569 -3.15471 0.558546
3.26152 -2.44739 1.02808
3.11405 -2.34724 1.51762
3.18758 -2.54877 1.15785
3.3236 -2.4479 0.723707
3.16013 -2.03998 -0.156961
3.00643 -3.12571 0.180609
2.95808 -3.2025 0.567903
3.18785 -2.58024 1.12388
