ply
format ascii 1.0
comment Created by Open3D
element vertex 250
property double x
property double y
property double z
end_header
0.0220943 -3.09374 -0.380242
1.36294 -1.45751 -1.46265
-0.865747 -2.12491 -0.982621
0.538357 -3.14325 -0.371974
-0.902829 -2.94302 -0.55204
-0.247724 -2.43459 -0.82581
0.727365 -2.05882 -1.18725
2.01144 -2.35189 -0.941191
1.38189 -1.23462 -1.55389
2.42603 -1.42665 -0.854245
-1.10069 -1.98103 -1.0712
1.48857 -2.56172 -0.904037
-1.07931 -2.79846 -0.652266
3.12671 -1.82814 -0.183109
-0.0483394 -2.71103 -0.660059
1.87277 -3.11348 -0.504461
2.54284 -2.90083 -0.512804
-0.108737 -2.76444 -0.618612
0.783029 -1.87032 -1.31212
2.40819 -2.84182 -0.602325
1.75881 -1.93127 -1.15871
1.87233 -2.36131 -0.968661
-0.58686 -2.18921 -0.955912
1.09897 -1.26007 -1.66904
2.40063 -1.15231 -0.837583
0.608481 -2.14523 -1.12125
-0.874217 -2.47894 -0.778998
1.04259 -2.8503 -0.684003
0.668787 -2.21596 -1.08029
2.08265 -0.812944 -1.07339
2.49653 -2.66281 -0.654633
2.89315 -2.43526 -0.4614
1.24677 -1.21456 -1.632
-1.20743 -2.44499 -0.827209
1.96764 -1.1307 -1.1957
-1.04027 -1.61863 -1.34765
-0.444016 -3.37488 -0.194935
3.1111 -1.8018 -0.202019
1.46752 -2.13755 -1.13059
-0.307134 -2.98759 -0.460001
0.0534753 -3.03386 -0.430101
2.49842 -1.89674 -0.815866
0.204372 -1.94913 -1.2146
-1.68197 -2.28651 -0.996046
-0.881869 -3.1 -0.474228
1.98627 -1.10206 -1.18119
-1.90022 -2.08557 -1.14758
2.22017 -0.881109 -0.95421
0.13811 -2.25216 -0.993489
1.35658 -2.38337 -1.00871
2.35492 -1.91078 -0.905922
-1.28646 -2.00803 -1.06142
2.12581 -2.00271 -1.0076
2.40201 -1.58136 -0.883948
1.22815 -1.69475 -1.38239
2.43408 -1.47051 -0.851947
1.1528 -1.18174 -1.69793
0.859979 -2.31168 -1.03481
0.42537 -2.87569 -0.589269
-0.938035 -2.71758 -0.663936
2.88565 -1.84551 -0.48657
2.73839 -1.39876 -0.565036
1.81482 -0.628258 -1.32332
2.59577 -1.21785 -0.66779
-0.840718 -2.80074 -0.610492
-1.76898 -1.73167 -1.30536
1.45689 -2.45978 -0.963491
2.2384 -2.58448 -0.784212
1.2552 -3.10409 -0.49169
-1.69001 -1.76532 -1.26508
1.7949 -2.37156 -0.977876
-0.956665 -1.63165 -1.34094
0.769311 -3.17171 -0.369639
2.89013 -2.47786 -0.455293
-1.36802 -1.78772 -1.2103
0.243292 -2.91157 -0.541189
1.95598 -1.49927 -1.17747
2.72816 -1.33914 -0.562418
0.283406 -2.54256 -0.813889
2.56457 -1.7292 -0.766548
2.55142 -2.1904 -0.75475
-0.984026 -2.33366 -0.861917
2.87488 -2.60737 -0.433585
1.77274 -1.74068 -1.21341
1.22935 -3.20545 -0.387487
2.27358 -2.78503 -0.676751
0.148811 -3.19608 -0.293804
2.95872 -1.93187 -0.415817
3.01907 -2.10179 -0.355692
-1.50442 -1.94407 -1.12155
0.581764 -2.97121 -0.53102
0.61905 -2.84106 -0.64026
0.721603 -1.80494 -1.35506
0.796096 -3.13927 -0.405262
-1.04855 -2.02978 -1.03991
1.86448 -1.23594 -1.26454
2.81002 -2.66784 -0.465732
1.59133 -1.35676 -1.40237
-1.35489 -1.80032 -1.20054
-1.22923 -1.75746 -1.22795
2.3004 -1.3483 -0.947582
0.195163 -1.99279 -1.1819
-0.998999 -1.68028 -1.29576
0.631196 -1.45036 -1.626
1.91868 -0.499529 -1.19423
-1.41329 -2.18236 -0.980735
1.80987 -0.847658 -1.33162
-0.761533 -2.12317 -0.987716
1.85613 -1.36331 -1.25429
0.341839 -1.88734 -1.27446
2.50145 -2.8457 -0.563545
1.73018 -1.03751 -1.38433
-0.66818 -3.32225 -0.295743
-0.0642623 -1.5742 -1.4918
-1.54923 -2.10739 -1.04089
-1.3272 -2.51417 -0.81912
-0.853702 -2.99309 -0.518213
1.05012 -1.2444 -1.69917
-0.78612 -2.38094 -0.83125
2.35523 -0.965927 -0.843196
-1.45804 -2.33221 -0.920828
2.32584 -3.07594 -0.466641
1.17862 -1.52003 -1.48651
1.08779 -2.04821 -1.20209
-0.277325 -2.6699 -0.671113
0.851398 -3.17654 -0.374464
-1.09816 -2.63747 -0.72456
1.77227 -3.0577 -0.556969
-0.0558239 -2.67627 -0.683204
2.18519 -2.95031 -0.595973
-0.200642 -2.24559 -0.955767
0.329595 -1.91394 -1.25386
-0.659378 -2.07533 -1.02543
-0.391613 -1.85274 -1.21342
1.27597 -2.90008 -0.667267
0.783265 -3.06152 -0.477082
1.04551 -2.49237 -0.933334
1.39218 -1.7101 -1.34066
2.01485 -3.08883 -0.514987
-0.165773 -2.89257 -0.526769
1.64082 -0.817431 -1.49234
-1.07364 -2.691 -0.696953
1.5977 -2.90959 -0.67518
0.724607 -2.77402 -0.704582
1.91473 -3.05874 -0.54959
1.90093 -0.427369 -1.20274
-0.971087 -1.9972 -1.06167
0.653185 -2.13132 -1.1344
-1.40458 -2.72937 -0.763649
1.75182 -2.94537 -0.647177
0.676369 -2.55821 -0.852889
2.36351 -2.45877 -0.787305
0.254059 -2.86556 -0.577699
1.90991 -0.761187 -1.23417
2.0134 -2.74435 -0.755966
2.35579 -1.34302 -0.902853
1.1426 -2.47558 -0.949832
0.440777 -1.79137 -1.35348
1.63581 -1.59282 -1.30997
-1.42013 -2.14453 -1.00057
1.15735 -2.52928 -0.916794
0.0652613 -3.17119 -0.314774
0.326267 -1.98026 -1.20586
2.95083 -2.16296 -0.432807
1.91134 -2.67647 -0.808919
1.76628 -2.46988 -0.935239
2.885 -2.46158 -0.463488
-0.0415104 -1.61925 -1.45229
-0.748513 -1.66102 -1.33219
-0.576296 -2.53013 -0.746418
0.174955 -3.12929 -0.355742
2.77906 -2.14088 -0.595153
0.657695 -2.98193 -0.531323
-1.62299 -2.45746 -0.91839
0.662183 -1.62501 -1.48382
0.378557 -1.48924 -1.60037
2.25533 -0.886798 -0.92188
1.78621 -2.85245 -0.712125
0.419011 -2.91321 -0.558947
1.35175 -2.19157 -1.11309
0.251611 -3.08788 -0.39704
0.0496281 -2.72489 -0.659503
0.0479549 -2.10247 -1.08542
0.330518 -2.36629 -0.940623
2.63344 -2.35067 -0.675841
-0.697461 -3.5351 -0.173243
2.86953 -2.6736 -0.414789
-1.04131 -1.74788 -1.23829
1.94501 -1.70051 -1.15032
-0.263259 -3.05866 -0.408565
-0.17808 -3.30249 -0.207428
1.89475 -1.42843 -1.22224
0.0746424 -3.22389 -0.266666
2.51582 -2.15323 -0.781862
1.70759 -2.05505 -1.12689
-0.874571 -1.57377 -1.40131
-0.651571 -2.81777 -0.582372
2.53574 -2.97668 -0.466162
1.07842 -1.42499 -1.5682
-0.809799 -2.56723 -0.728668
3.13695 -2.97578 0.29298
3.33822 -2.40917 0.417367
3.19913 -2.78264 0.149324
3.01317 -2.49287 -0.326072
3.09943 -3.04255 0.33982
3.10044 -2.39852 -0.233337
3.27081 -2.68834 0.381857
3.21526 -2.56652 0.0185019
3.00411 -2.19069 1.86672
3.0634 -3.08839 0.543528
3.00282 -2.55721 -0.321269
3.06584 -2.97297 0.0345333
3.05664 -2.48227 1.53728
2.95595 -2.92907 -0.186096
3.21244 -2.68233 0.0858902
3.29314 -2.54284 0.765339
2.88178 -2.98795 -0.219973
3.05535 -2.33258 1.65938
3.3468 -2.2605 0.832203
3.1103 -2.54898 1.35604
2.94573 -2.82901 -0.267306
3.12049 -2.28567 1.54775
3.13564 -2.99186 0.393118
3.20376 -2.32971 -0.0748963
3.36058 -2.29866 0.608926
3.20279 -2.65215 0.992787
3.32826 -2.38267 0.308098
3.11991 -3.01453 0.363738
2.98283 -2.59217 1.59182
3.22678 -2.76122 0.709142
3.00245 -3.1676 0.414996
3.22784 -2.69589 0.147564
3.21279 -2.14447 -0.0695517
3.32032 -2.5124 0.439768
3.35572 -2.32779 0.501319
3.06637 -2.88063 1.06297
2.98561 -3.11331 0.812319
3.13641 -2.87891 0.857358
3.19759 -2.6568 1.00377
3.35746 -2.31783 0.613939
3.31211 -2.5365 0.62277
3.30298 -2.288 1.02354
2.71612 -3.09158 1.42041
2.88763 -2.64489 1.7252
3.03743 -2.55236 1.51598
3.2616 -2.42791 1.04743
2.96112 -2.76498 1.45114
2.93475 -3.08663 -0.0488517
3.22969 -2.56437 1.0109
3.281 -2.30418 1.09228
