ply
format ascii 1.0
comment Created by Open3D
element vertex 250
property double x
property double y
property double z
end_header
1.1791 -1.74777 -2.29593
0.533323 0.538314 -2.35523
-0.193142 -1.66591 -1.84871
1.51873 -1.3927 -2.46213
0.439732 -2.30401 -2.06867
0.423866 -1.43174 -2.10737
0.604497 -0.375816 -2.38132
1.67421 0.343774 -2.74626
0.38327 0.711734 -2.27926
1.55831 1.18962 -2.19252
-0.458578 -1.73132 -1.75378
1.47882 -0.185078 -2.71558
0.201663 -2.322 -1.99735
2.60317 1.2912 -2.16985
0.778851 -1.4939 -2.22472
2.22395 -0.338066 -2.89745
2.52572 0.295088 -2.94575
0.793888 -1.58264 -2.21396
0.470352 -0.186508 -2.36154
2.359 0.253945 -2.93407
1.18737 0.467032 -2.55692
1.57661 0.241186 -2.7342
0.0220196 -1.50278 -1.9473
0.148919 0.515345 -2.30075
1.42846 1.33164 -1.99465
0.615355 -0.534989 -2.35894
0.0965974 -1.94104 -1.93372
1.4853 -0.753273 -2.62783
0.710843 -0.543535 -2.3925
0.927367 1.36179 -1.85365
2.29632 0.442395 -2.87801
2.55792 0.824909 -2.70005
0.241513 0.643642 -2.28482
-0.151525 -2.15741 -1.85547
0.923292 1.11684 -2.11659
-0.768367 -1.39246 -1.72886
1.14735 -2.31719 -2.22244
2.56935 1.30051 -2.16179
1.12422 0.116449 -2.59298
0.879768 -1.90905 -2.1939
1.13809 -1.6746 -2.30056
1.84195 0.949804 -2.49207
0.220836 -0.694458 -2.18748
-0.620674 -2.37198 -1.74291
0.574973 -2.40409 -2.12187
0.930926 1.14418 -2.09266
-0.94325 -2.37338 -1.65973
1.11938 1.39154 -1.85111
0.463806 -0.986879 -2.21117
1.24925 -0.148105 -2.63736
1.70293 0.858072 -2.5261
-0.551973 -1.88958 -1.71423
1.54024 0.658269 -2.59605
1.59512 1.08627 -2.3081
0.612847 0.272315 -2.41698
1.58472 1.16856 -2.22173
0.12673 0.610808 -2.28457
0.899702 -0.470218 -2.47461
1.18627 -1.25715 -2.41042
0.242332 -2.16407 -1.99099
2.26738 1.18204 -2.33055
1.92302 1.36246 -2.05433
0.518023 1.34002 -1.83724
1.68712 1.39249 -1.97021
0.373996 -2.15574 -2.03386
-1.12888 -2.01866 -1.57561
1.37426 -0.131222 -2.68245
2.02007 0.331137 -2.84862
1.85527 -0.799036 -2.71518
-1.03952 -1.99064 -1.59048
1.52855 0.179426 -2.72645
-0.707571 -1.33943 -1.75524
1.67265 -1.23729 -2.54157
2.57956 0.795282 -2.72274
-0.799163 -1.7775 -1.65351
1.12419 -1.42837 -2.35058
1.09664 0.880714 -2.34132
1.8913 1.39007 -2.01076
0.801575 -1.10178 -2.3132
1.83751 1.08719 -2.36565
2.0481 0.795774 -2.65504
-0.0902529 -1.91328 -1.86773
2.64374 0.6998 -2.78787
1.07292 0.607309 -2.47486
1.95407 -0.907796 -2.70071
2.20318 0.207399 -2.91317
1.35883 -1.7379 -2.33596
2.39717 1.16557 -2.35671
2.55055 1.09201 -2.44153
-0.752039 -1.99818 -1.65598
1.36238 -1.21327 -2.47395
1.25403 -1.07719 -2.47626
0.375344 -0.181501 -2.33257
1.65072 -1.18798 -2.55281
-0.38438 -1.73009 -1.77761
0.864173 0.994581 -2.20611
2.61123 0.623362 -2.83256
0.664495 0.754102 -2.30858
-0.779099 -1.7779 -1.65839
-0.740755 -1.65036 -1.68378
1.38569 1.16795 -2.17334
0.256591 -0.736559 -2.19039
-0.681381 -1.41276 -1.74361
-0.0183038 0.0380186 -2.26805
0.606194 1.46067 -1.68997
-0.496119 -2.11176 -1.73675
0.609895 1.20613 -1.98511
-0.134366 -1.58532 -1.87938
0.924041 0.908675 -2.27981
0.236453 -0.537865 -2.22664
2.4424 0.31105 -2.93442
0.61415 1.04604 -2.12484
0.922139 -2.42626 -2.19868
-0.293772 -0.594634 -2.06587
-0.651733 -2.15218 -1.69352
-0.186911 -2.29119 -1.86253
0.51437 -2.30654 -2.09075
0.0925885 0.496317 -2.2986
0.0708384 -1.80168 -1.93048
1.31219 1.4116 -1.86457
-0.415498 -2.25197 -1.78017
2.50495 0.0141578 -2.96879
0.435069 0.368795 -2.36307
0.80749 -0.0950759 -2.48242
0.614621 -1.63782 -2.1437
1.72125 -1.17733 -2.57034
0.0694679 -2.21941 -1.93819
2.1035 -0.365563 -2.87095
0.743323 -1.47226 -2.21635
2.27815 0.019492 -2.94011
0.280992 -1.24719 -2.08854
0.254677 -0.568675 -2.22614
-0.119219 -1.46963 -1.90244
-0.182164 -1.08359 -1.9624
1.65985 -0.612819 -2.71167
1.56051 -1.13124 -2.54933
1.16057 -0.46759 -2.5711
0.746121 0.374775 -2.44189
2.29157 -0.213784 -2.92724
0.878032 -1.72761 -2.21729
0.389063 1.14108 -2.03326
0.12677 -2.24079 -1.96028
1.85321 -0.375116 -2.81054
1.24507 -0.940152 -2.5065
2.19478 -0.261348 -2.90496
0.556941 1.49321 -1.64404
-0.366738 -1.64645 -1.79267
0.627389 -0.489511 -2.37125
-0.0990072 -2.49411 -1.94295
1.98088 -0.2887 -2.85582
1.02042 -0.805952 -2.45734
2.03609 0.501675 -2.80254
1.0858 -1.38265 -2.34926
0.694421 1.30698 -1.88678
1.9758 0.0582476 -2.87221
1.44593 1.20057 -2.15326
1.20072 -0.380175 -2.59807
0.200674 -0.384353 -2.2466
0.859604 0.61998 -2.40949
-0.530494 -2.08868 -1.72421
1.25575 -0.410459 -2.61378
1.28333 -1.77986 -2.31192
0.314344 -0.624188 -2.23462
2.48694 1.02478 -2.51755
1.84858 0.0370084 -2.83768
1.58407 0.0870812 -2.75279
2.56367 0.803478 -2.71651
-0.233639 -0.615448 -2.07352
-0.562799 -1.20341 -1.82456
0.321094 -1.75731 -2.02474
1.30361 -1.66121 -2.3432
2.26712 0.953207 -2.57144
1.41291 -1.16271 -2.50171
-0.456206 -2.45193 -1.81563
0.173114 -0.0826259 -2.29
-0.136275 -0.181858 -2.20696
1.16433 1.40573 -1.84148
1.91673 -0.189244 -2.85035
1.2194 -1.29277 -2.41177
1.09048 -0.00771798 -2.58456
1.30397 -1.56755 -2.36609
0.844677 -1.42893 -2.25989
0.280911 -0.939274 -2.15399
0.66664 -0.925762 -2.30041
2.22241 0.739203 -2.72614
1.08179 -2.60984 -2.24319
2.68306 0.650727 -2.81641
-0.638473 -1.50085 -1.73568
1.19975 0.743681 -2.45063
0.972334 -1.93295 -2.21583
1.2666 -2.07066 -2.25594
0.998059 0.889666 -2.31014
1.3445 -1.81765 -2.31487
1.99191 0.798843 -2.6403
1.23382 0.345294 -2.60143
-0.723921 -1.22659 -1.78233
0.514311 -2.03176 -2.07628
2.58658 0.231364 -2.9604
0.277777 0.373108 -2.33162
0.208717 -1.95964 -1.97324
3.44496 0.477395 -2.58571
3.3887 0.936664 -2.18206
3.30036 0.679467 -2.57794
2.7451 0.843527 -2.67447
3.48344 0.396277 -2.58606
2.81523 0.940832 -2.57088
3.45242 0.727219 -2.3713
3.12584 0.857405 -2.53362
4.03401 0.425749 -0.924077
3.61573 0.286461 -2.46221
2.7714 0.795637 -2.71031
3.23192 0.495686 -2.74738
3.98378 0.378314 -1.36172
3.0014 0.499475 -2.84497
3.2211 0.767157 -2.56086
3.64992 0.728017 -2.01113
2.96142 0.417472 -2.88732
3.99434 0.434651 -1.17725
3.59693 0.920577 -1.79392
3.92826 0.427335 -1.54798
2.89644 0.57417 -2.83426
3.9393 0.542024 -1.24316
3.51694 0.439604 -2.52505
2.94963 1.01698 -2.44184
3.47682 0.968296 -1.98047
3.79394 0.532731 -1.89726
3.29919 0.974757 -2.23932
3.49862 0.422075 -2.55638
4.0251 0.241869 -1.37498
3.67298 0.561654 -2.17557
3.53118 0.22773 -2.58834
3.27689 0.753834 -2.53028
2.87391 1.13411 -2.3195
3.43972 0.854875 -2.22881
3.41691 0.97619 -2.07427
3.86189 0.273532 -1.95998
3.75576 0.140343 -2.26737
3.76906 0.382732 -2.1232
3.8001 0.523052 -1.89113
3.48698 0.953034 -1.98859
3.56533 0.784652 -2.11293
3.70804 0.819336 -1.66473
3.98043 -0.213206 -1.75027
4.07887 0.102551 -1.28934
3.99032 0.327368 -1.41737
3.76262 0.697395 -1.72805
3.99909 0.159354 -1.58147
3.15028 0.351331 -2.84512
3.78189 0.600984 -1.83439
3.74708 0.774481 -1.62075
