ply
format ascii 1.0
comment Created by Open3D
element vertex 200
property double x
property double y
property double z
end_header
-2.40332 0.798236 0.12702
-2.44743 -0.385824 -0.434989
-1.47535 2.91451 0.289967
-2.38553 -0.607243 -0.381139
-2.22245 0.146975 0.288548
-2.64858 -0.646891 -0.828166
-2.17431 2.35115 0.31758
-1.69107 1.88611 0.810798
-1.28505 1.36796 1.37458
-2.24197 1.8224 0.415407
-2.14992 1.38747 0.589445
-2.75406 2.42553 -0.305484
-2.56326 1.47973 0.00141012
-2.98658 -0.00296817 -1.40233
-2.36361 -0.198763 -0.194079
-2.26633 1.01081 0.425541
-2.60273 0.629333 -0.352231
-0.892739 1.89148 1.09552
-2.81902 -0.961676 -1.02288
-2.26718 -0.290708 -0.0145169
-2.25079 1.20141 0.462443
-1.63519 2.09648 0.731739
-2.87188 1.50302 -0.633846
-1.88818 2.39763 0.464315
-2.19409 -1.40695 -0.142765
-1.77752 1.95823 0.728059
-1.72175 1.637 0.914471
-2.31494 3.00182 -0.114008
-1.84986 1.71661 0.786797
-2.85995 1.01506 -0.809597
-2.1678 -1.87869 -0.0124847
-2.87877 0.0495156 -1.16874
-2.89738 1.84872 -0.60193
-1.37828 1.57612 1.15634
-1.04192 1.57095 1.3016
-2.57886 -0.111844 -0.602814
-2.22311 -1.69075 -0.170907
-1.54154 2.33268 0.640304
-2.62502 -0.591729 -0.788018
-1.53676 1.56867 1.07286
-2.027 2.40905 0.385884
-2.439 -1.62856 -0.489778
-1.50599 2.22442 0.713441
-1.49298 1.48595 1.15393
-2.78122 -0.703231 -1.01224
-1.24282 2.27529 0.761886
-2.46533 2.44236 0.0469686
-2.58846 0.771981 -0.260299
-2.10279 -0.861255 0.190397
-2.78577 0.844078 -0.68365
-1.63584 2.77918 0.342497
-2.3808 2.35798 0.152318
-2.93064 1.75411 -0.727067
-2.15378 -0.86376 0.0440007
-2.51021 -0.153503 -0.480835
-2.15561 1.77449 0.510516
-2.58784 2.1094 -0.0185806
-2.53038 -0.931134 -0.670023
-2.2792 1.03521 0.406343
-2.4091 -0.476093 -0.388621
-2.14726 -0.980225 0.0255875
-2.9753 0.217153 -1.3971
-1.35756 1.79454 1.0207
-1.79545 2.44597 0.481918
-1.56377 1.71515 0.970687
-1.65097 3.25809 -0.0469674
-2.6946 1.37161 -0.264198
-1.7321 2.7524 0.329383
-1.42695 1.59409 1.11879
-2.16095 1.93872 0.463716
-2.16192 -1.13333 -0.0462049
-1.88813 1.08942 1.00271
-2.06571 1.15847 0.734894
-2.35002 2.05139 0.261262
-2.94043 0.044336 -1.30398
-2.32377 0.487445 0.18523
-2.14527 0.014639 0.443606
-2.65111 -1.17733 -0.807286
-2.91541 0.264695 -1.23203
-2.66513 -1.16907 -0.823873
-2.79763 1.21678 -0.550275
-2.43798 0.649312 0.00499247
-1.99569 1.50222 0.73735
-2.37762 2.37897 0.148417
-2.51245 -0.0654776 -0.453143
-2.30059 -0.474075 -0.164897
-2.49342 1.86567 0.123417
-2.79298 -0.371024 -1.03693
-2.40833 -1.8375 -0.395427
-2.06235 -0.0652494 0.698875
-1.9561 1.44161 0.796209
-1.21929 1.5686 1.23593
-1.52877 1.2888 1.27384
-3.0022 -0.707709 -1.27556
-2.94595 1.46301 -0.894955
-2.5047 -0.421627 -0.55318
-1.45403 2.68601 0.45296
-2.80941 2.58178 -0.446455
-1.39691 2.16273 0.785425
-2.35483 2.12925 0.239162
-2.08674 3.53585 -0.639232
-2.46635 3.42211 -0.853943
-2.17038 3.57152 -0.895084
-1.45526 3.53196 -1.89181
-2.05009 3.51309 -1.57566
-1.12858 3.6338 -1.62765
-1.52173 3.56822 -1.76506
-2.27098 3.4662 -1.44526
-2.54659 3.37916 -0.995914
-2.33537 3.4569 -1.37076
-1.83327 3.49012 -1.80093
-2.01787 3.60588 -1.26929
-1.62797 3.50907 -1.87493
-1.62718 3.53421 -1.81225
-1.81753 3.58378 -1.56051
-2.46393 3.41357 -0.807718
-1.75881 3.65962 -0.859485
-1.74468 3.35777 -0.183967
-1.52689 3.68755 -1.22852
-1.23422 3.56977 -1.84538
-1.25718 3.63807 -1.59583
-2.38813 3.40027 -0.632999
-2.24667 3.52868 -1.26045
-2.21253 3.48444 -1.47371
-1.77843 3.41958 -0.274778
-1.88892 3.49355 -1.755
-1.5176 3.6701 -1.36735
-2.28398 3.35867 -1.66613
-1.50518 3.69651 -1.01474
-2.34319 3.49308 -0.851921
-2.53721 3.38604 -1.05251
-1.836 3.38443 -2.01028
-2.57474 3.04314 -0.377711
-1.24426 3.50243 -2.03785
-1.69458 3.31605 -0.120898
-1.72518 3.32839 -2.17946
-1.09626 3.50555 -2.06327
-1.67135 3.61131 -0.609009
-1.90013 3.60833 -1.40222
-1.72138 3.31249 -2.20808
-1.90096 3.30757 -0.177564
-2.392 3.4645 -1.21352
-1.36783 3.44907 -2.12931
-0.940294 3.53938 -1.97955
-1.48231 3.69831 -1.08479
-1.92474 3.42783 -1.86751
-1.65898 3.67984 -1.18254
-1.97303 3.39442 -0.314138
-2.6254 3.11514 -0.515698
-2.17824 3.55224 -1.28177
-2.50835 3.25368 -0.530752
-1.56524 3.67481 -1.31093
-2.5018 3.41327 -1.01183
-1.17508 3.49307 -2.08083
-2.4378 3.3271 -0.556361
-1.93947 3.41489 -1.88125
-1.4984 3.68665 -1.25661
-2.20559 3.44386 -0.530972
-2.40399 3.18334 -0.337181
-2.30798 3.307 -0.400003
-2.38426 3.46037 -0.799661
-2.23716 3.44976 -1.53255
-2.17535 3.57747 -0.988976
-2.37324 3.48819 -1.12024
-2.01209 3.26754 -0.179259
-1.10609 3.60722 -1.73461
-1.18534 3.55532 -1.8998
-2.53778 3.38055 -0.918534
-1.86636 3.58411 -1.52324
-2.39062 3.152 -0.294776
-2.41915 3.20281 -0.37135
-1.80764 3.47733 -0.371913
-2.16294 3.30811 -0.301718
-2.50621 3.38325 -0.805989
-2.54364 3.37568 -1.11734
-1.65239 3.67547 -0.88516
-1.72702 3.67169 -0.930174
-2.24905 3.51073 -1.33465
-2.48933 3.27318 -0.535027
-2.45305 3.38766 -1.35474
-2.58821 3.34354 -1.05007
-1.6157 3.68861 -1.08379
-1.22272 3.58749 -1.78982
-2.0234 3.61007 -1.23186
-1.67633 3.67673 -0.921218
-2.62042 3.17971 -0.590581
-2.38334 3.40183 -1.44387
-1.98043 3.58671 -1.40968
-2.2469 3.52661 -1.27027
-1.82282 3.51806 -0.4496
-2.03969 3.53854 -1.51409
-2.41372 3.4275 -1.3132
-1.56185 3.6733 -1.32351
-1.23836 3.60511 -1.72616
-1.58841 3.63722 -1.49837
-1.70975 3.67908 -1.0504
-1.78803 3.30992 -0.141402
-2.57318 3.3565 -0.976729
-2.45185 3.38872 -1.35418
-1.63245 3.63529 -1.48421
