ply
format ascii 1.0
comment Created by Open3D
element vertex 400
property double x
property double y
property double z
end_header
1.18118 -2.48223 1.61593
2.15012 0.00387361 2.02291
1.13328 -1.82056 1.73179
0.669184 -0.350594 2.0446
1.6452 -2.38054 1.52927
1.39013 -2.31793 1.6067
0.455082 -1.02402 1.93096
1.50424 -1.6057 1.71416
2.22591 -0.10242 2.01823
2.07418 0.662038 2.2316
0.898879 -2.71857 1.61907
1.19366 -1.05307 1.82041
1.28141 0.0207875 1.9981
2.00207 -0.153486 1.95266
1.676 -0.326838 1.89394
0.819395 -3.12121 1.53081
0.996389 -2.51362 1.6441
1.65818 0.5258 2.11745
0.453173 -1.8509 1.79572
1.20737 0.175182 2.05672
1.53776 -1.3357 1.74955
1.67912 -1.00521 1.78767
1.69395 -0.251793 1.90785
1.09635 -1.16799 1.81747
0.533111 -1.78031 1.8008
1.65601 -1.54288 1.70788
0.654829 -0.342719 2.0511
2.35171 -1.17007 1.79681
1.18155 -0.365936 1.92772
2.33604 -1.40384 1.72862
1.31521 -2.71747 1.52538
1.49236 -0.319869 1.90143
0.560651 -0.748951 1.97007
1.84551 -0.11932 1.94094
0.762859 -0.735509 1.93244
1.00085 -0.865425 1.87113
2.37028 -0.293895 2.02125
2.26174 -1.41934 1.71736
0.86712 -2.11307 1.7262
0.550412 -0.916042 1.93659
1.23519 -0.256615 1.94131
2.00008 -1.89421 1.59423
1.73899 0.327272 2.04839
1.64235 -0.547899 1.85691
2.03351 -0.195911 1.94876
0.345001 -1.16965 1.91723
2.07185 -1.54084 1.68163
1.23823 -0.577723 1.88266
2.56465 -1.45912 1.74702
1.24415 -0.730899 1.85848
1.87249 0.703356 2.20604
0.622314 -0.940474 1.91946
1.274 0.117526 2.02582
2.13002 0.514176 2.18342
1.63138 0.47509 2.09887
1.68004 -1.34308 1.73751
1.5593 -2.21403 1.59356
1.38414 -2.71818 1.50455
0.875697 -1.3773 1.81863
0.776783 -1.0905 1.87067
1.42257 0.440562 2.10703
1.86088 -1.96153 1.59694
0.782403 -0.750573 1.92597
1.24532 -2.78408 1.52598
2.03789 -1.86392 1.5981
1.63728 0.359463 2.05837
2.30556 -1.53716 1.68551
1.32467 -1.6923 1.72386
1.53426 -0.122108 1.93732
2.15334 -1.44918 1.70428
2.09891 -1.39534 1.71598
0.427683 -1.11264 1.91747
1.20594 -2.15865 1.67144
1.96712 0.695779 2.21919
1.92835 -0.0587205 1.96298
1.59837 -2.23003 1.58119
0.905485 -2.40939 1.67644
0.73104 -2.75649 1.63451
1.91187 -0.911756 1.80263
2.04984 -1.72401 1.63606
2.20967 -1.05467 1.80165
2.4551 -1.33115 1.76957
2.19781 -0.748957 1.86539
1.85447 -1.30535 1.73523
2.07234 0.0184854 2.00695
0.729488 -1.63556 1.80259
1.22212 -1.94523 1.70214
2.02959 -0.677723 1.85317
0.983591 -1.94509 1.73479
1.37182 -2.43968 1.58332
2.41024 -0.683305 1.93749
1.68298 -0.446159 1.87315
0.640274 -0.721234 1.95957
1.63791 -0.00358168 1.95946
2.24439 -1.02885 1.81279
0.987891 -2.04196 1.72112
2.01611 -0.34056 1.91567
1.11002 -2.6922 1.58423
2.19078 -1.93904 1.55362
1.99187 -0.432985 1.89416
2.13156 -0.925032 1.81853
2.03761 -0.796325 1.83221
0.909208 -0.348648 1.98326
1.23429 -2.20497 1.65876
0.767462 -2.46725 1.6838
1.96514 -1.13582 1.76543
2.00953 -0.132227 1.95861
1.81577 -1.83464 1.63434
1.88217 -1.49974 1.69818
0.964652 -0.253262 1.99341
0.671936 -1.66418 1.80466
1.9164 -0.130766 1.94555
1.5249 0.345966 2.06063
0.834186 -0.584336 1.94812
2.03082 -1.65889 1.65427
1.45921 -2.225 1.61215
1.6821 -0.188768 1.91997
1.46589 0.236516 2.03221
0.497943 -0.474213 2.05793
2.0353 -2.02356 1.54866
0.808671 -0.965271 1.88503
0.77288 -2.98422 1.57685
1.40736 -0.211089 1.92903
2.70301 -1.49743 1.76742
2.50154 -1.01244 1.87988
0.241604 -0.891754 1.99982
1.16435 -0.782008 1.86082
0.975805 -3.01984 1.52767
2.42958 -0.741174 1.92947
0.808208 -3.09344 1.54113
2.51501 -0.941361 1.90541
2.48572 -1.33393 1.77509
1.23951 -1.99119 1.6927
0.566315 -1.15288 1.89073
0.858833 -2.2096 1.71346
1.3381 -1.00836 1.81063
0.869576 -1.61138 1.79026
1.79648 -0.153595 1.93042
0.619305 -2.03378 1.7604
1.49093 0.433723 2.09483
0.950326 0.0103345 2.07117
0.5765 -2.24317 1.73386
0.268051 -1.12858 1.93598
2.04498 -1.69225 1.64481
2.14468 -0.295327 1.94991
1.18061 0.203489 2.07215
1.717 0.24309 2.02266
0.563919 -0.471069 2.03992
1.9757 -0.246159 1.92893
2.13897 -1.71444 1.63268
0.857517 -3.21841 1.49152
0.737325 -2.08376 1.74382
0.508011 -1.8936 1.78675
1.65632 -1.63643 1.69223
0.66922 -0.94165 1.91137
1.81614 0.651138 2.17498
0.597512 -0.415132 2.04655
0.712052 -2.81879 1.62358
0.491575 -0.519285 2.04618
0.699368 -2.41688 1.69867
0.879313 -1.73382 1.77404
0.924827 -0.231007 2.00846
0.525576 -0.484506 2.04683
2.05311 -1.70864 1.63991
1.39094 -0.867701 1.82438
1.30329 -2.64156 1.54983
0.467024 -0.688154 2.00564
2.70675 -1.47136 1.78092
1.17708 -1.88662 1.71691
0.84551 -0.24971 2.02378
0.828781 -2.32421 1.69981
1.34699 -2.53146 1.56703
0.866657 -1.38353 1.81895
0.874213 -2.00611 1.73988
1.79211 -1.75196 1.6552
1.48062 -1.80976 1.68545
1.76229 -1.38661 1.72539
2.18786 -0.691345 1.87549
0.97631 -1.13852 1.83652
1.45773 -0.302403 1.90711
1.46546 -1.45834 1.73948
1.24617 -0.485694 1.8969
1.0727 -0.757571 1.87695
1.94636 -0.582137 1.86162
1.93372 -1.50774 1.69393
1.91658 -0.365973 1.89824
2.05945 0.584546 2.19096
1.74804 0.60615 2.15091
0.565694 -1.71864 1.8068
1.77364 0.637707 2.16592
1.09289 -2.30646 1.66532
0.596132 -2.11438 1.75095
0.280254 -1.09751 1.94141
2.05995 -1.73068 1.63347
2.30227 -1.30185 1.75355
2.09027 -1.27599 1.74228
1.83232 -2.16706 1.54533
1.46127 -1.2511 1.76774
1.78628 0.375701 2.06615
0.552738 -1.89555 1.78371
0.729512 -2.11397 1.74043
1.78722 -1.1944 1.75565
2.1309 -1.33571 1.73078
1.22126 -0.291293 1.93635
2.0467 -1.37295 1.72019
2.09668 -2.04791 1.5288
2.4201 -1.44791 1.72519
1.04366 -0.502837 1.92444
1.09293 -1.36717 1.79329
1.70726 -2.25803 1.54849
0.757246 -0.546116 1.97257
2.41529 -1.37289 1.74894
1.8936 -0.0712719 1.95599
1.47163 0.402541 2.08587
0.491751 -1.27283 1.88021
1.49446 -2.5259 1.52912
1.42811 -0.136482 1.94238
2.6499 -1.51144 1.74559
2.33503 -0.403776 1.98018
0.817386 -2.02121 1.74417
2.27209 -0.85232 1.8582
1.74905 -0.662435 1.8384
0.619242 -0.330452 2.06555
1.80355 -1.69521 1.66559
1.57663 -0.464136 1.87229
1.11842 -1.06783 1.82753
1.52682 -2.44853 1.54198
1.71721 -2.29657 1.53491
1.63725 -0.159756 1.92598
1.10867 -0.553429 1.90476
1.88133 -1.29039 1.73723
1.83979 -1.41506 1.71629
0.727277 -0.271797 2.05065
1.30698 -2.60095 1.55953
1.80881 -1.41661 1.71762
2.01434 -2.04726 1.54467
2.5409 -1.52964 1.71404
0.833966 -2.27845 1.70617
0.721959 -0.961019 1.89941
1.07805 -0.983104 1.84385
1.6912 -1.23986 1.75255
1.80858 0.0682366 1.98081
2.68364 -1.37804 1.81461
1.52792 -1.86842 1.66874
2.25678 -0.153267 2.01541
1.60208 -1.47508 1.72359
1.25046 -1.1389 1.8031
1.37834 -0.250202 1.92427
0.871033 -2.73007 1.62107
2.00088 -1.21904 1.75078
0.643012 -2.24952 1.72856
2.48428 -1.72716 1.62412
0.91045 -0.91863 1.8766
1.61124 -0.671929 1.83853
2.35138 -1.30591 1.75916
0.891447 -0.368667 1.98262
2.1404 -1.78692 1.6107
1.06133 0.0729589 2.06007
1.67558 0.487989 2.10258
1.13102 -1.88063 1.72406
1.05023 -2.88182 1.54947
2.19154 -0.735538 1.86699
0.86762 -2.89976 1.58266
1.22231 -0.79559 1.85173
1.81719 0.237941 2.02623
2.44299 -1.2582 1.79005
1.69016 -1.76024 1.666
2.38527 -0.887635 1.87798
1.92836 -1.50203 1.69536
2.05416 -2.00206 1.5525
0.403587 -0.943357 1.95684
0.882564 -1.60636 1.78938
1.46823 -0.590819 1.85808
2.59035 -1.24165 1.83564
1.04301 -0.0447461 2.0296
2.58507 -1.51212 1.72987
0.432833 -1.81655 1.80168
2.50054 -1.6488 1.65922
1.97041 0.287364 2.06078
0.664617 -1.13619 1.87969
1.72628 -0.959461 1.79315
1.25407 -2.47892 1.60119
2.27121 -1.4651 1.7051
1.54438 -1.6723 1.69919
2.02744 -0.0204953 1.98785
0.811246 -2.62521 1.65062
0.786219 -2.04642 1.74406
0.81985 -1.54678 1.80395
2.21093 -1.2262 1.76233
2.1923 0.173592 2.08399
2.48121 -1.31744 1.77958
2.19565 0.243227 2.10713
1.77438 -2.13045 1.56843
1.30996 -1.20678 1.7882
2.2169 -0.112185 2.01289
1.20942 -2.66284 1.56824
1.91276 -0.149328 1.94115
2.49682 -1.00931 1.87921
0.623565 -1.02156 1.90473
0.782717 -2.79414 1.6202
1.95072 -0.298936 1.915
0.985875 -1.8215 1.75051
1.50431 0.096257 1.98982
0.650277 -2.44587 1.69811
1.75037 0.0715105 1.97843
1.60542 -0.853905 1.81215
0.822324 -3.02236 1.5587
0.944255 -1.57775 1.78565
1.45565 -0.178807 1.93115
1.02836 -2.25953 1.68322
1.55938 0.271331 2.03442
1.85787 -2.15552 1.54303
1.69647 -1.49677 1.71181
0.43235 -1.21376 1.89775
1.47639 -2.04532 1.64492
1.40245 -1.66664 1.71756
2.33658 -1.82815 1.58241
1.0127 -0.14666 2.00919
1.02051 -0.0150972 2.04387
2.59598 -1.65536 1.66779
1.09082 -3.00821 1.5013
0.955455 -2.74163 1.6042
1.7552 0.023947 1.96727
0.450715 -1.4276 1.85924
0.774052 -1.01351 1.8828
1.45342 -1.56132 1.72642
1.91764 0.275823 2.04858
2.25444 0.112855 2.08811
1.55844 0.493177 2.11032
1.29683 -1.38719 1.76701
1.56326 -1.76681 1.68129
2.53833 -1.27257 1.80898
1.06427 -0.159262 1.99436
2.43663 -1.28131 1.78157
0.697998 -0.447968 2.01021
2.39074 -0.987108 1.85391
1.56303 -0.967824 1.79828
2.00668 -0.406298 1.90131
1.93559 -0.483944 1.87826
1.99559 0.745476 2.25172
0.906066 -0.602796 1.93054
0.537371 -0.860591 1.95037
1.13456 -2.42413 1.63668
1.55887 -2.29124 1.57511
1.35667 -2.10729 1.65452
0.913702 -0.752902 1.90247
1.2406 -0.382629 1.91595
1.84584 -1.23432 1.74767
1.83236 -0.704187 1.83364
1.66532 -1.63538 1.69143
1.70783 -1.194 1.75865
1.93618 0.496593 2.12633
1.76423 -1.57807 1.6919
0.715998 -2.32762 1.711
1.76997 -1.93356 1.61849
0.850038 -2.20639 1.71495
0.515503 -0.571423 2.02485
1.34611 -2.68384 1.52622
1.52434 0.109083 1.9916
0.699701 -1.48537 1.82529
0.663005 -1.16043 1.87612
0.66132 -0.82904 1.93356
1.42179 -1.58843 1.72627
1.14906 0.0461505 2.03068
0.609958 -0.469998 2.02756
1.17392 -1.52725 1.76398
1.10131 0.00474092 2.0297
1.27711 -2.65501 1.55316
1.16775 -0.0723999 1.99481
1.83402 -0.87122 1.80683
0.430164 -1.74425 1.81238
1.1231 -2.7124 1.57639
2.01004 -1.00308 1.79184
1.82573 -2.21674 1.5318
0.852598 -3.17969 1.50563
2.25168 0.040804 2.06588
1.79548 -0.828351 1.81296
1.9966 -1.86456 1.6031
1.19684 -0.570403 1.88921
1.2916 -2.37551 1.61533
1.84086 -0.246689 1.91461
1.11262 -2.45742 1.63431
0.724941 -2.18426 1.73108
2.18663 -0.119567 2.00191
1.51587 -1.5653 1.71885
1.42407 0.18716 2.02264
1.95098 -0.265159 1.92177
0.930428 -2.60583 1.63709
1.58052 0.0966955 1.98519
1.10613 -1.99171 1.71211
1.59299 -2.29698 1.56561
1.85298 0.336199 2.05905
1.05643 -0.414269 1.93924
2.26372 -0.441273 1.94843
0.668805 -2.59706 1.67108
1.06074 -0.611927 1.90222
1.31911 -1.94565 1.6876
2.09795 -0.967611 1.80608
1.69636 0.325299 2.04689
0.903172 -0.346822 1.98507
