ply
format ascii 1.0
comment Created by Open3D
element vertex 250
property double x
property double y
property double z
end_header
2.06711 -0.391694 2.29998
0.661154 -2.01237 1.2785
0.705564 0.0851035 2.39275
2.27792 -0.82455 2.107
1.55113 0.302882 2.69879
1.22937 -0.367849 2.2414
1.05886 -1.36227 1.78896
1.84152 -2.32707 1.28711
0.449052 -2.06514 1.1756
1.34572 -2.57887 0.434872
0.47006 0.243171 2.45018
1.84678 -1.87842 1.62987
1.32745 0.405514 2.73774
2.26755 -2.83022 -0.000595871
1.59655 -0.461774 2.24176
2.61566 -2.01739 1.59498
2.6736 -2.57433 1.16984
1.6406 -0.391589 2.27854
0.864365 -1.46589 1.71374
2.5331 -2.50583 1.24191
1.31992 -2.20826 1.24388
1.78665 -2.22523 1.36965
0.860271 -0.138832 2.30032
0.30715 -1.89021 1.38347
1.14468 -2.53357 0.251262
1.12254 -1.23147 1.85819
1.08415 0.182253 2.5115
2.04318 -1.40059 1.88224
1.21868 -1.2641 1.85517
0.650843 -2.374 0.301723
2.39909 -2.59851 1.11526
2.47512 -2.8162 0.675652
0.343867 -1.99225 1.26716
0.921356 0.438715 2.6606
0.775607 -2.3602 0.638474
0.0594095 0.0636304 2.34749
2.23095 0.0848438 2.57694
2.23184 -2.82579 -0.000197317
1.39321 -1.95921 1.49046
1.83373 -0.151584 2.41788
2.00381 -0.441616 2.27637
1.73914 -2.64486 0.696729
0.790172 -0.930706 1.9559
0.549163 0.756169 2.85935
1.71976 0.318454 2.74838
0.769127 -2.36653 0.602472
0.239899 0.869487 2.90926
0.816525 -2.42948 0.216674
1.12245 -0.772732 2.05458
1.61012 -1.81378 1.62971
1.64935 -2.57319 0.822032
0.434802 0.403327 2.54206
1.58212 -2.43995 1.04341
1.43456 -2.58305 0.567113
0.839377 -1.86875 1.44733
1.3821 -2.58681 0.459527
0.249959 -1.94676 1.32517
1.37888 -1.40585 1.81012
1.91525 -0.831519 2.10669
1.3072 0.284738 2.62985
2.02244 -2.79121 0.297564
1.59807 -2.68499 0.10769
0.27933 -2.27266 0.443199
1.35716 -2.61023 0.109209
1.43203 0.226975 2.61179
-0.0712973 0.6936 2.7103
1.72609 -1.87811 1.6108
2.18021 -2.44653 1.25145
2.41364 -1.49014 1.84567
0.00319627 0.646919 2.67477
1.76338 -2.16556 1.41528
0.100406 -0.00385211 2.31635
2.37608 -1.01927 2.02573
2.50918 -2.81271 0.7019
0.157656 0.404064 2.51876
1.91034 -0.654384 2.17983
1.05462 -2.36072 0.880255
1.55224 -2.67172 0.0704024
1.49036 -0.81445 2.07914
1.66623 -2.66492 0.525975
2.00934 -2.67269 0.834557
0.892008 0.238094 2.51094
2.61258 -2.79528 0.782407
1.15155 -2.23895 1.14279
2.5414 -1.41796 1.862
2.40315 -2.42939 1.30635
2.23519 -0.457534 2.26231
2.15187 -2.81944 0.281604
2.33254 -2.84723 0.33368
0.280638 0.558012 2.62877
2.07141 -0.937107 2.06872
1.92318 -1.02005 2.03117
0.770642 -1.43367 1.72204
2.33992 -1.05917 2.01393
0.541598 0.213414 2.44172
0.778892 -2.31608 0.794991
2.61699 -2.76125 0.870262
0.697234 -2.16676 1.07648
0.177022 0.397567 2.51571
0.170452 0.279396 2.44957
1.19166 -2.51897 0.49238
0.838647 -0.907781 1.96946
0.149042 0.0533901 2.33993
0.319529 -1.48371 1.68592
0.294449 -2.28374 0.234225
0.569448 0.543906 2.66493
0.434781 -2.28493 0.597841
0.735469 -0.00526573 2.34998
0.876214 -2.3105 0.878015
0.754376 -1.0752 1.89156
2.58942 -2.56373 1.18114
0.517733 -2.25652 0.791446
2.05914 0.222284 2.69848
0.261874 -0.832962 1.98628
0.434046 0.630129 2.7091
0.937896 0.540111 2.75356
1.62416 0.276959 2.69098
0.261796 -1.86441 1.41206
1.00992 0.0853832 2.43939
0.988879 -2.48818 0.148806
0.700694 0.605566 2.74869
2.75889 -2.37643 1.35272
0.632777 -1.87343 1.41394
1.16053 -1.67307 1.6363
1.48455 -0.272703 2.31892
2.40373 -1.09122 1.9967
1.1598 0.391348 2.68121
2.51056 -1.95794 1.63224
1.5548 -0.466005 2.23556
2.54377 -2.32062 1.4066
1.0287 -0.466953 2.17259
0.782134 -1.05528 1.90226
0.711437 -0.108903 2.2968
0.524169 -0.423106 2.14583
2.16637 -1.59077 1.80558
2.23598 -1.0827 2.01051
1.63295 -1.5174 1.79084
0.929116 -1.98526 1.36216
2.63788 -2.1413 1.52386
1.7706 -0.30125 2.3337
0.26229 -2.22729 0.746973
1.22363 0.382607 2.69003
2.27428 -1.86638 1.67884
1.87041 -1.13979 1.97967
2.56242 -2.07396 1.56743
0.230341 -2.26943 0.198452
0.530134 0.138301 2.39975
1.11919 -1.2754 1.83761
1.10407 0.623289 2.89793
2.36776 -1.98303 1.61994
1.60786 -1.16705 1.94477
2.12663 -2.54664 1.11518
1.85839 -0.680543 2.16632
0.461207 -2.3121 0.438001
2.24107 -2.25068 1.43833
1.2323 -2.54128 0.438096
1.64269 -1.60707 1.74789
0.669412 -1.19568 1.83233
0.940552 -2.16746 1.16036
0.527587 0.541074 2.65439
1.70665 -1.60468 1.75773
2.17704 -0.397103 2.29404
0.858294 -1.03032 1.9193
2.30987 -2.83453 0.450603
2.12626 -2.1895 1.46839
1.8517 -2.12394 1.46792
2.49064 -2.8119 0.698098
0.325877 -0.833356 1.98297
0.195537 -0.175981 2.2416
1.23889 -0.0538368 2.39856
2.15795 -0.509156 2.24358
2.14153 -2.77591 0.607367
2.10406 -1.00177 2.04356
0.74048 0.73889 2.90213
0.542425 -1.44298 1.70425
0.280443 -1.2594 1.80488
0.851315 -2.44203 0.185915
2.27217 -2.04179 1.58192
1.95874 -0.811932 2.11634
1.40542 -1.8553 1.56583
2.12819 -0.593603 2.2078
1.63926 -0.544702 2.20875
0.928187 -0.738036 2.04807
1.30099 -0.912543 2.01693
2.20108 -2.70811 0.85953
2.27886 0.301097 2.7802
2.6708 -2.7843 0.817885
0.218938 0.116182 2.36883
1.21559 -2.34789 1.00388
1.9309 -0.164777 2.4158
2.2574 -0.141779 2.42183
0.955852 -2.32936 0.885899
2.24737 -0.382043 2.29641
1.95425 -2.65525 0.841194
1.41325 -2.15481 1.32986
0.0490289 -0.102221 2.27869
1.52323 0.0819214 2.52519
2.75476 -2.54745 1.19572
0.481589 -1.82776 1.44229
1.20013 0.150234 2.51287
3.39874 -2.64583 0.47924
3.11979 -2.71753 -0.0630384
3.19189 -2.76477 0.409446
2.63678 -2.8477 0.581267
3.46334 -2.59274 0.511946
2.65042 -2.86622 0.424457
3.28284 -2.69509 0.174977
2.96054 -2.8368 0.336192
3.70306 -1.64602 -0.941473
3.60541 -2.45551 0.435261
2.68372 -2.83993 0.626059
3.22102 -2.7246 0.663823
3.7414 -1.88308 -0.569127
3.02253 -2.74818 0.814565
3.08482 -2.80456 0.374588
3.40876 -2.50001 -0.163869
3.0217 -2.70715 0.906394
3.70242 -1.80825 -0.742904
3.25733 -2.49386 -0.417046
3.70144 -2.02921 -0.437888
2.89745 -2.77773 0.800694
3.62338 -1.92047 -0.734994
3.4692 -2.59183 0.430179
2.72689 -2.86435 0.23828
3.15844 -2.62745 -0.262534
3.59386 -2.30778 -0.188928
3.03256 -2.76638 -0.0106365
3.46347 -2.5956 0.469895
3.83045 -1.79766 -0.496521
3.51508 -2.48625 0.0453086
3.56814 -2.47756 0.592209
3.13624 -2.78515 0.33988
2.59625 -2.85897 0.106644
3.20333 -2.69607 0.000514265
3.11493 -2.68273 -0.175924
3.75914 -2.16773 -0.0192088
3.7567 -2.24705 0.323129
3.65967 -2.33701 0.0737151
3.60206 -2.29776 -0.1902
3.17452 -2.62318 -0.251341
3.32628 -2.5922 -0.0902151
3.37602 -2.35572 -0.495258
4.01062 -1.69245 0.057018
3.91675 -1.64876 -0.500771
3.77429 -1.88217 -0.500918
3.47981 -2.3157 -0.397873
3.868 -1.86436 -0.286125
3.21278 -2.66523 0.846755
3.54856 -2.31591 -0.270404
3.42127 -2.30119 -0.516443
