ply
format ascii 1.0
comment Created by Open3D
element vertex 200
property double x
property double y
property double z
end_header
1.54531 -1.15773 1.64345
2.22482 -1.04897 0.5271
-0.402752 -1.71391 2.76684
2.29974 -0.87656 0.384208
1.76678 -0.648541 1.22557
2.52303 -1.30899 0.200495
0.492315 -1.67347 2.70434
0.371527 -0.880298 2.48225
0.347004 -0.033292 2.30013
0.848335 -1.36452 2.4369
1.02246 -0.982222 2.21009
0.907151 -2.41627 2.6268
1.29091 -1.64532 2.09437
2.42038 -2.20035 0.431751
2.05952 -0.917076 0.762335
1.32387 -0.972969 1.90783
1.78723 -1.53022 1.32612
-0.281355 -0.366124 2.31552
2.83329 -1.37381 -0.0556039
2.03795 -0.694588 0.767566
1.20552 -1.03007 2.05157
0.20444 -1.02466 2.55202
1.50964 -2.27464 1.8589
0.234989 -1.47513 2.70151
2.59853 -0.23057 -0.0916287
0.399542 -1.01246 2.51786
0.540405 -0.688443 2.39049
0.227885 -2.38285 2.94159
0.597027 -0.875152 2.42187
1.76683 -2.1744 1.41965
2.84608 0.110793 -0.341424
2.31042 -2.00052 0.561806
1.33811 -2.4256 2.12151
0.299354 -0.341611 2.34833
0.029374 -0.101233 2.28835
2.17373 -1.36283 0.666341
2.7806 -0.126329 -0.286981
-0.00884223 -1.17765 2.61549
2.4741 -1.29512 0.251716
0.431545 -0.462063 2.36086
0.34052 -1.59355 2.72136
2.91253 -0.488786 -0.345087
0.0251515 -1.05415 2.57161
0.444697 -0.341603 2.33541
2.65752 -1.47654 0.108371
-0.219279 -0.944566 2.52225
0.671912 -2.03881 2.72708
1.69885 -1.52077 1.47139
2.2294 -0.195851 0.437194
1.80599 -1.96448 1.34892
-0.192175 -1.66495 2.77636
0.65318 -1.88341 2.6977
1.41403 -2.49161 1.99663
2.26757 -0.329762 0.369007
2.14481 -1.2206 0.68253
0.807279 -1.23425 2.42509
0.957497 -1.97456 2.51618
2.59045 -1.00269 0.0541788
1.32012 -1.00473 1.91816
2.24543 -0.954482 0.477968
2.32679 -0.285757 0.276797
2.28784 -2.2985 0.578065
0.154743 -0.547703 2.40443
0.131829 -1.4508 2.70489
0.36798 -0.624061 2.40925
-0.462558 -2.21215 2.86975
1.45034 -1.85231 1.91767
-0.0980159 -1.69741 2.79169
0.328148 -0.397886 2.35861
0.717891 -1.35285 2.50954
2.42209 -0.274251 0.13682
0.988295 -0.41389 2.14692
1.08657 -0.725084 2.10782
0.803635 -1.63725 2.54414
2.35932 -2.12812 0.503131
1.6559 -0.932226 1.43554
1.78286 -0.433035 1.1971
2.82327 -1.03685 -0.142441
2.21775 -2.16825 0.683981
2.82962 -1.05915 -0.140889
1.61179 -2.04273 1.68507
1.65296 -1.19552 1.48454
0.836025 -0.863871 2.3104
0.638639 -1.89551 2.7081
2.09834 -1.24191 0.759385
2.16282 -0.737854 0.567845
1.02128 -1.70934 2.39755
2.4801 -1.66108 0.321859
3.00779 -0.301492 -0.441759
1.76851 -0.160984 1.26192
0.83943 -0.773307 2.2882
0.174997 -0.216828 2.32316
0.589275 -0.163793 2.29058
2.83309 -1.76437 0.0411501
1.58368 -2.49017 1.70616
2.28789 -1.1466 0.45624
-0.28625 -1.46589 2.70246
0.860116 -2.62419 2.67049
-0.0278311 -0.927377 2.52683
0.763146 -1.69423 2.5852
-0.279719 -2.97644 2.88581
0.0901328 -3.23036 2.84247
-0.239999 -3.22784 2.79123
-0.846285 -3.7428 1.85654
-0.331928 -3.69795 2.28962
-1.16384 -3.46297 1.94441
-0.806933 -3.68353 1.9859
-0.118092 -3.65167 2.43148
0.175332 -3.35182 2.7623
-0.0568536 -3.61122 2.49779
-0.506758 -3.7875 2.04528
-0.399275 -3.48709 2.52311
-0.689952 -3.78103 1.92536
-0.702381 -3.74297 1.97975
-0.563389 -3.63558 2.2466
0.0946242 -3.18853 2.86359
-0.628534 -3.09257 2.69554
-0.44599 -2.40349 2.89425
-0.849704 -3.31575 2.39217
-1.04862 -3.64381 1.81523
-1.05868 -3.48641 2.02161
0.0458436 -3.01541 2.92761
-0.166391 -3.52584 2.57461
-0.177722 -3.66191 2.40151
-0.456088 -2.51796 2.89546
-0.460947 -3.7728 2.09916
-0.852743 -3.41451 2.29267
-0.0552267 -3.78032 2.23145
-0.86478 -3.14192 2.51792
-0.0514631 -3.21832 2.83861
0.16162 -3.39681 2.72874
-0.452998 -3.90414 1.84903
0.409882 -2.70723 2.92157
-1.00968 -3.7682 1.65809
-0.461716 -2.31489 2.88279
-0.519517 -3.97154 1.66175
-1.1348 -3.73619 1.58141
-0.664536 -2.83795 2.77674
-0.502958 -3.55138 2.39405
-0.514806 -3.98527 1.63216
-0.288331 -2.4309 2.93135
-0.00844394 -3.51023 2.62207
-0.880927 -3.86013 1.61999
-1.27969 -3.62921 1.58784
-0.887298 -3.19029 2.46704
-0.398637 -3.84364 2.00242
-0.734409 -3.32338 2.47136
-0.282456 -2.60784 2.9382
0.406317 -2.87033 2.90841
-0.236992 -3.52935 2.54824
0.231268 -2.90678 2.94229
-0.813891 -3.38916 2.3503
0.118571 -3.36471 2.75643
-1.06325 -3.77278 1.59621
0.130796 -2.93704 2.94596
-0.379704 -3.85369 1.99174
-0.873809 -3.32734 2.3624
-0.125817 -2.88891 2.94025
0.191531 -2.6807 2.96711
0.040456 -2.75564 2.97117
0.00278024 -3.1758 2.86576
-0.140076 -3.70095 2.35324
-0.242694 -3.3073 2.74069
-0.0338012 -3.44058 2.68626
-0.174025 -2.45326 2.95105
-1.17151 -3.52714 1.85235
-1.08296 -3.66241 1.75173
0.170132 -3.28766 2.80616
-0.521794 -3.62379 2.29025
0.199613 -2.62692 2.9659
0.191891 -2.72283 2.96606
-0.467893 -2.63385 2.88818
-0.0765149 -2.6252 2.96907
0.146666 -3.18786 2.86237
0.170351 -3.44577 2.68541
-0.726409 -3.08202 2.64508
-0.664214 -3.14316 2.64736
-0.157106 -3.57712 2.51877
0.204441 -2.9127 2.94467
0.0799056 -3.60773 2.51135
0.227728 -3.39284 2.7235
-0.771472 -3.23326 2.5183
-1.06601 -3.60395 1.85575
-0.395663 -3.46131 2.55088
-0.708639 -3.12005 2.63442
0.363231 -2.95938 2.90449
0.0109972 -3.66026 2.4372
-0.424695 -3.57604 2.40944
-0.165402 -3.53275 2.56739
-0.481043 -2.72093 2.87518
-0.352525 -3.65744 2.33944
0.026574 -3.57962 2.54635
-0.816313 -3.39721 2.34025
-1.06059 -3.56744 1.91272
-0.780586 -3.52869 2.22183
-0.687098 -3.23622 2.57236
-0.381732 -2.36221 2.90635
0.210738 -3.33524 2.77004
0.0783411 -3.60737 2.51188
-0.742544 -3.53248 2.24796
