ply
format ascii 1.0
comment Created by Open3D
element vertex 250
property double x
property double y
property double z
end_header
-1.21132 -0.0883584 2.87075
-2.34048 0.130966 0.79141
-0.639083 1.04278 2.17589
-1.59522 -0.417361 2.75487
-0.601021 0.631082 3.00362
-1.0859 0.504149 2.2885
-1.89757 0.233488 1.58809
-2.76624 -0.781277 1.48345
-2.34118 0.217354 0.565805
-2.72529 -0.99225 0.4888
-0.478951 1.2733 2.10543
-2.43013 -0.514839 1.85066
-0.490168 0.834921 2.9128
-2.94348 -1.99413 0.715076
-1.21391 0.219264 2.50321
-2.63331 -1.12868 2.29068
-3.05732 -1.50755 1.87721
-1.16125 0.217529 2.57698
-1.95626 0.319485 1.37981
-2.99672 -1.348 1.85491
-2.58681 -0.406005 1.14428
-2.68542 -0.675652 1.53353
-0.844422 0.843174 2.151
-2.2153 0.477695 0.66743
-2.61142 -0.956724 0.239889
-1.79771 0.244493 1.71404
-0.617438 0.846473 2.53347
-2.06142 -0.44779 2.28672
-1.83808 0.167037 1.76588
-2.42121 -0.536858 -0.00386526
-3.03728 -1.33983 1.65274
-3.13454 -1.70658 1.33265
-2.2853 0.363611 0.581564
-0.395465 1.09253 2.60195
-2.51205 -0.409009 0.319492
-0.580478 1.4956 1.71596
-0.847134 0.0190414 3.30257
-2.93565 -1.96663 0.693225
-2.42276 -0.274101 1.43391
-0.989243 0.188561 2.86662
-1.24616 -0.061484 2.79919
-2.90004 -1.12308 0.913114
-1.50187 0.588745 1.64739
-0.106868 1.53439 2.58524
-0.617 0.538622 3.15306
-2.5077 -0.428324 0.28809
0.0201084 1.81068 2.44916
-2.46845 -0.722425 0.0292204
-1.41179 0.420358 1.97699
-2.34371 -0.330751 1.71344
-2.85606 -0.966458 0.962454
-0.346874 1.37635 2.1907
-2.78147 -0.757618 1.11113
-2.77427 -0.972916 0.63921
-2.26716 0.122466 1.06609
-2.74332 -1.00425 0.527852
-2.24773 0.476648 0.573543
-1.97815 0.00278097 1.80033
-1.56425 -0.146286 2.51585
-0.574473 0.767112 2.7906
-2.96144 -1.61148 0.776339
-2.76445 -1.40624 0.393586
-2.32404 -0.155306 -0.119108
-2.66836 -1.21682 0.257507
-0.637796 0.655718 2.84375
-0.0621708 1.89589 2.05758
-2.41218 -0.436748 1.75841
-2.906 -1.07096 1.64718
-2.1756 -0.758799 2.47864
-0.104947 1.81197 2.06849
-2.63825 -0.622207 1.56674
-0.640885 1.43753 1.70246
-1.76976 -0.564235 2.70884
-3.14183 -1.71461 1.3744
-0.311164 1.56906 1.99336
-1.414 -0.0764723 2.61229
-2.60686 -0.460374 0.672596
-2.73691 -1.39485 0.340868
-1.49646 0.156154 2.22342
-2.86548 -1.18202 0.739313
-2.99195 -1.23857 1.17956
-0.543945 0.996001 2.42266
-3.15764 -1.73776 1.5036
-2.5714 -0.348945 0.954504
-2.12416 -0.836473 2.59319
-2.92753 -1.20052 1.83627
-1.28155 -0.245845 2.93609
-2.99754 -1.7219 0.841967
-3.05694 -1.82626 0.989301
-0.206323 1.56463 2.19315
-1.6712 -0.299145 2.56244
-1.72508 -0.221091 2.41661
-1.91796 0.398531 1.33316
-1.80102 -0.548953 2.66608
-0.512549 1.21103 2.13812
-2.51251 -0.304654 0.444254
-3.1493 -1.68015 1.57781
-2.43731 -0.0440535 0.630359
-0.318562 1.55187 2.0021
-0.413089 1.50135 1.91907
-2.66756 -0.832929 0.445027
-1.48862 0.563625 1.69485
-0.597514 1.42238 1.76639
-1.90936 0.708093 0.999383
-2.27965 -0.304311 -0.259995
-0.259517 1.37019 2.40358
-2.39372 -0.17214 0.0884741
-0.717101 0.983054 2.14073
-2.53972 -0.322829 0.568049
-1.61905 0.5586 1.53941
-3.04152 -1.43593 1.83307
-2.4275 -0.104933 0.287253
-0.730686 0.241533 3.31346
-1.36184 1.01494 1.35019
-0.174922 1.50952 2.36969
-0.325287 1.15136 2.70593
-0.631282 0.56853 3.03879
-2.19364 0.533057 0.664996
-0.682953 0.845014 2.40777
-2.52413 -0.902107 0.0779411
-0.236759 1.33286 2.56523
-2.92623 -1.43155 2.11579
-2.24121 0.255115 0.906238
-2.16426 0.0253165 1.46247
-1.04223 0.373262 2.53576
-1.83363 -0.611388 2.68691
-0.471071 0.922261 2.75948
-2.57562 -1.01936 2.26446
-1.21196 0.246099 2.4704
-2.86512 -1.22923 2.02846
-1.14135 0.599438 2.08193
-1.60576 0.546833 1.5705
-0.799413 0.955601 2.05938
-1.0399 0.964893 1.74527
-2.23546 -0.609953 2.26152
-1.81184 -0.475674 2.5894
-2.10601 -0.211928 1.92249
-2.36491 -0.0125432 1.03296
-2.73497 -1.20464 2.22138
-1.10317 0.165412 2.72536
-2.36104 0.0606229 0.0968393
-0.488431 0.879239 2.80504
-2.47613 -0.802224 2.16783
-1.82029 -0.227555 2.31332
-2.67449 -1.11261 2.22112
-2.24964 -0.278118 -0.323298
-0.571896 1.18443 2.08063
-1.83385 0.229016 1.68541
-0.30195 1.12965 2.93907
-2.58152 -0.922896 2.15568
-1.80974 -0.0562642 2.10975
-2.95939 -1.13016 1.48872
-1.43 -0.0490448 2.56172
-2.3792 -0.299193 -0.0146374
-2.77542 -0.974231 1.87207
-2.67843 -0.90118 0.427152
-2.18122 -0.256571 1.87421
-1.70954 0.571149 1.40942
-2.48588 -0.171823 0.84843
-0.255042 1.39441 2.36802
-2.18822 -0.297864 1.9236
-1.22627 -0.175246 2.93689
-1.59437 0.50343 1.63906
-3.07408 -1.73156 1.0606
-2.71311 -0.862149 1.83488
-2.6218 -0.649751 1.67292
-3.1381 -1.70311 1.35983
-1.36794 0.96473 1.38955
-0.795253 1.29952 1.66517
-0.828864 0.632187 2.49081
-1.31789 -0.205498 2.85842
-3.04296 -1.49682 1.07734
-1.72967 -0.346761 2.54848
-0.154793 1.41706 2.7358
-1.89842 0.557113 1.16898
-1.72282 0.83835 1.11866
-2.47574 -0.769912 0.0268027
-2.61757 -0.882122 2.05045
-1.55262 -0.170567 2.55638
-2.34497 -0.223263 1.52331
-1.38595 -0.215292 2.79083
-1.28877 0.157087 2.48532
-1.3567 0.565399 1.85486
-1.5539 0.24738 2.02917
-3.05247 -1.36973 1.31289
-0.700119 0.138285 3.53612
-3.16276 -1.75711 1.56969
-0.552474 1.39534 1.84948
-2.64471 -0.499013 0.868635
-1.01137 0.112961 2.92506
-1.0248 -0.125595 3.14884
-2.56815 -0.37936 0.620547
-1.21978 -0.224887 2.98859
-2.97136 -1.19111 1.15298
-2.56859 -0.414304 1.28051
-0.719524 1.44127 1.61565
-0.76264 0.515724 2.80284
-3.04701 -1.54872 1.9558
-2.18951 0.391761 0.839881
-0.660466 0.757069 2.60155
-3.01398 -2.50996 1.84325
-2.90697 -2.66243 1.25817
-3.08751 -2.41274 1.62659
-3.15589 -1.89275 1.363
-2.9787 -2.53155 1.92295
-3.13259 -2.00733 1.25601
-2.96679 -2.62691 1.53906
-3.11267 -2.29454 1.40415
-1.70412 -3.56279 1.30801
-2.84132 -2.67399 1.99867
-3.16543 -1.89788 1.42744
-3.12091 -2.26425 1.83636
-2.03574 -3.37285 1.5322
-3.16372 -2.01934 1.80689
-3.10507 -2.35933 1.52122
-2.70142 -2.92251 1.43451
-3.14921 -1.95448 1.88239
-1.91306 -3.44939 1.4041
-2.61135 -2.9737 1.15822
-2.20698 -3.27227 1.55934
-3.17529 -1.93765 1.70738
-2.01442 -3.39656 1.32769
-2.95631 -2.58927 1.86921
-3.08834 -2.18612 1.17483
-2.77078 -2.81242 1.16673
-2.52982 -3.0578 1.58973
-2.95887 -2.56784 1.22502
-2.97008 -2.55941 1.89252
-1.98285 -3.38336 1.66483
-2.75587 -2.86417 1.6556
-2.90103 -2.54578 2.07933
-3.08243 -2.41855 1.53552
-3.03405 -2.17358 0.99786
-2.91228 -2.68135 1.36349
-2.84262 -2.72893 1.18458
-2.45882 -3.05638 1.85561
-2.62712 -2.83912 2.07463
-2.63568 -2.9386 1.81053
-2.52074 -3.06374 1.5969
-2.77138 -2.81672 1.1863
-2.80105 -2.82208 1.40776
-2.47026 -3.0995 1.21784
-2.0506 -3.14598 2.20241
-1.84813 -3.43544 1.75849
-2.05673 -3.35286 1.60216
-2.46905 -3.10958 1.36533
-2.10751 -3.28098 1.82008
-3.11274 -2.13241 1.97639
-2.51086 -3.07789 1.50033
-2.41702 -3.14163 1.24718
