ply
format ascii 1.0
comment Created by Open3D
element vertex 400
property double x
property double y
property double z
end_header
-2.28069 1.75883 -0.290386
-2.12383 1.1857 1.34527
-2.50979 1.27793 0.99708
-2.78908 1.61703 -0.312593
-2.35324 1.17885 1.3682
-1.40322 2.11495 -0.433994
-2.32367 1.19299 1.29992
-1.60956 1.52611 0.710124
-1.48888 1.4139 1.11982
-1.93729 1.81226 -0.161165
-1.35419 1.92067 0.0238669
-2.30237 1.67506 -0.0966256
-2.13398 1.08255 2.01849
-2.51825 1.4209 0.503391
-2.36739 1.17586 1.38693
-2.54897 1.22717 1.23564
-2.74219 1.64132 -0.359261
-2.28729 1.99274 -0.903068
-2.21059 1.22544 1.18135
-1.77318 1.1413 1.81196
-2.2703 1.78233 -0.340543
-1.16142 1.81822 0.429767
-2.404 1.38244 0.645804
-1.38559 1.63329 0.653269
-1.73341 1.53579 0.592507
-2.28681 1.55365 0.22012
-1.92365 1.15429 1.56908
-2.13864 1.23946 1.15185
-1.02895 1.74239 0.80562
-1.66382 1.38355 1.02701
-2.18717 1.58162 0.205082
-3.07193 1.53093 -0.115165
-1.42976 1.58571 0.72651
-2.55 1.62151 -0.122475
-2.30993 2.05801 -1.12549
-1.67992 1.95233 -0.279585
-1.43321 1.37304 1.32391
-1.81563 1.28508 1.18326
-1.3815 1.74801 0.387232
-1.43492 2.16745 -0.569859
-1.33062 1.72509 0.486349
-2.42963 1.26905 1.01701
-2.36181 1.21187 1.22765
-2.33836 1.75587 -0.329666
-1.89247 2.35026 -1.37417
-1.58319 1.82389 0.0624973
-2.15964 1.43638 0.581744
-2.56334 1.28832 0.971548
-2.03707 1.78995 -0.182262
-1.1342 1.96 0.113987
-1.56926 1.30056 1.37998
-2.17199 1.47955 0.465665
-2.05031 1.55554 0.345473
-2.39676 1.69603 -0.219322
-2.83733 1.45789 0.341482
-2.79834 1.41702 0.515363
-2.8071 1.50918 0.124311
-1.28769 2.22737 -0.606709
-2.24777 1.82442 -0.425901
-1.82291 1.88128 -0.229741
-1.95211 2.16865 -0.976759
-2.95531 1.5451 -0.122386
-2.00586 1.68724 0.0697283
-2.35265 1.6612 -0.0956134
-1.75769 1.96145 -0.354634
-2.73107 1.50737 0.156818
-1.33978 1.76224 0.391284
-2.06702 2.12977 -1.00098
-1.37059 1.65545 0.614207
-2.10388 2.0883 -0.93715
-2.15908 1.50095 0.418436
-1.2784 2.15171 -0.430847
-1.81892 1.22649 1.36977
-1.49058 1.31555 1.44154
-1.64319 2.10763 -0.585248
-2.72833 1.45734 0.346082
-0.962047 2.10463 -0.0917299
-0.974919 1.98297 0.20815
-1.65001 1.47375 0.804861
-1.50044 1.37241 1.23124
-1.52966 2.05535 -0.392791
-1.80636 1.38578 0.909184
-2.35975 1.80427 -0.475509
-1.53934 1.80188 0.142061
-1.18899 2.28471 -0.678253
-1.5482 1.65955 0.449312
-2.37283 1.15293 1.50962
-1.84908 1.17373 1.54569
-0.723271 2.08932 0.192892
-2.46989 1.34249 0.762886
-1.75482 1.70518 0.197041
-1.97749 1.09377 1.90851
-1.50987 1.29513 1.4898
-1.97278 2.06378 -0.749516
-2.25253 1.16958 1.39371
-1.28484 1.45534 1.28976
-2.19499 1.9565 -0.703731
-3.22148 1.52238 -0.147703
-1.79811 2.01593 -0.501513
-1.80744 1.98071 -0.432355
-1.43439 2.17278 -0.581184
-1.80813 1.56401 0.475683
-2.0393 2.07868 -0.846634
-1.14815 2.03008 -0.0617756
-1.86534 2.27221 -1.14277
-2.28739 2.08205 -1.16252
-1.79688 1.56703 0.476325
-1.31243 1.48978 1.12776
-2.11651 2.27829 -1.48615
-1.53802 1.32295 1.34407
-1.64062 1.3877 1.03646
-1.8058 2.35054 -1.27983
-1.5433 1.95581 -0.190295
-2.23453 1.3577 0.764551
-2.39214 1.94452 -0.907199
-1.77525 2.47777 -1.59674
-1.61941 1.28147 1.38289
-1.55998 2.07999 -0.46671
-1.61484 1.66432 0.387127
-2.20262 1.41681 0.614316
-1.91126 1.17443 1.49221
-3.15498 1.52266 -0.0863411
-2.12633 1.87962 -0.455797
-2.13972 1.97244 -0.6885
-2.06113 1.72359 -0.0489755
-1.57203 1.69812 0.344451
-1.48837 1.4135 1.12159
-1.24368 2.15262 -0.409724
-2.94145 1.54878 -0.13261
-1.82587 1.93922 -0.356484
-1.46575 1.66082 0.514591
-1.89166 1.20702 1.38238
-2.08335 2.07821 -0.890069
-1.92915 2.45376 -1.74539
-1.42111 1.58721 0.731324
-2.15321 2.05001 -0.894773
-0.80136 2.05319 0.206907
-1.20795 2.0717 -0.202384
-2.63333 1.69745 -0.440743
-1.8664 2.33162 -1.29467
-1.45226 2.33542 -0.958247
-1.06237 1.78967 0.619672
-2.37459 1.9459 -0.886205
-1.2843 2.04593 -0.200011
-1.84019 2.41056 -1.47929
-1.80835 1.15049 1.70056
-2.66445 1.37819 0.645452
-1.9778 1.09285 1.91947
-2.95495 1.57541 -0.306818
-1.56813 1.98596 -0.271926
-1.9166 2.0511 -0.672309
-2.43543 1.66332 -0.159772
-2.32021 1.85918 -0.58177
-1.03678 1.80489 0.611801
-1.24938 1.5049 1.18222
-3.01149 1.5273 -0.047974
-2.39681 1.30289 0.898405
-1.50652 2.40497 -1.16051
-1.02687 1.83578 0.539557
-2.03341 1.37984 0.788885
-2.52988 1.57097 0.041873
-0.87208 1.87051 0.669807
-1.49297 1.75244 0.285506
-2.18428 1.49463 0.421613
-2.29522 1.92916 -0.740102
-2.34206 1.13103 1.62732
-2.44693 1.38071 0.642689
-0.932829 2.11973 -0.106153
-2.4235 1.96711 -1.02826
-3.14507 1.50333 0.14827
-2.4874 1.35972 0.704823
-2.06733 2.00386 -0.695497
-2.61038 1.34701 0.754906
-1.03999 1.77511 0.691615
-2.73091 1.37316 0.682618
-2.68682 1.30838 0.945539
-1.50679 2.34222 -1.01125
-1.48117 2.03211 -0.309212
-1.07995 1.89454 0.324835
-1.32051 1.84583 0.217337
-2.2494 1.12745 1.60451
-2.51935 1.36596 0.682122
-2.29694 1.24591 1.09865
-2.62689 1.38461 0.617375
-2.26246 2.09556 -1.16345
-1.40797 1.764 0.32846
-2.25419 1.31814 0.874028
-1.77477 2.3898 -1.35012
-2.50649 1.8687 -0.84181
-1.95909 1.13978 1.61185
-2.91499 1.45097 0.391218
-2.19443 1.15131 1.47594
-1.00149 2.06613 -0.0281514
-1.38955 1.9923 -0.158606
-2.41784 1.61301 -0.0104886
-3.17157 1.529 -0.217501
-1.47554 1.39277 1.19968
-2.37992 1.21567 1.21526
-1.80603 1.19541 1.49668
-1.93439 2.43274 -1.68094
-1.78215 1.6112 0.386164
-1.41705 2.21531 -0.663307
-1.84197 1.99057 -0.479562
-1.87476 1.12841 1.74814
-1.91913 2.30499 -1.28385
-1.06754 1.86035 0.425297
-2.56024 1.6009 -0.0668599
-3.1005 1.51085 0.0551937
-2.50448 1.89695 -0.934337
-2.1732 1.39129 0.694672
-1.23509 2.25634 -0.64002
-2.20762 1.44738 0.531688
-3.17989 1.5091 0.108257
-2.32954 1.25433 1.06724
-1.17107 1.84219 0.36135
-2.52578 1.8375 -0.768112
-2.18831 1.44932 0.535252
-1.50082 1.6155 0.589836
-1.52294 2.06898 -0.417292
-2.57173 1.23627 1.20717
-1.38101 1.51667 0.957713
-0.951297 2.08613 -0.0354798
-2.63043 1.58676 -0.0683973
-2.03223 1.16521 1.45873
-2.35428 1.90531 -0.743775
-2.66488 1.77607 -0.779651
-1.49316 1.43608 1.05146
-2.72722 1.62997 -0.29896
-2.04021 1.99356 -0.64702
-2.57196 1.74187 -0.517371
-1.05935 1.93912 0.234301
-2.841 1.62312 -0.405926
-1.54364 1.36398 1.20456
-2.40243 1.17363 1.41342
-1.19233 2.26797 -0.641065
-2.2102 1.60477 0.135405
-1.17391 1.85373 0.330678
-2.17162 2.01264 -0.820192
-2.45747 1.73712 -0.383521
-2.01591 2.33822 -1.50747
-3.04579 1.55549 -0.302683
-2.24666 2.06869 -1.06131
-2.3172 1.61017 0.0585187
-2.26065 2.02099 -0.946762
-1.70537 1.39782 0.953722
-2.45437 1.93713 -0.982706
-1.74392 1.94049 -0.299992
-2.63875 1.58446 -0.0662643
-1.80491 1.66957 0.240957
-1.15355 1.91564 0.201905
-2.84585 1.46044 0.330602
-2.7476 1.69939 -0.607989
-1.65955 1.76466 0.134936
-2.55793 1.80138 -0.695151
-2.97766 1.58182 -0.388452
-1.84623 1.78427 -0.0370936
-1.86696 1.60963 0.333443
-2.7571 1.56897 -0.0900474
-2.26686 1.13296 1.57709
-2.09378 1.86547 -0.396476
-2.44184 1.47547 0.360868
-1.40807 1.7241 0.418897
-1.81352 1.1876 1.52105
-1.79429 1.94877 -0.353989
-1.89529 1.30141 1.0803
-2.12856 2.26735 -1.47215
-2.60665 1.41073 0.524833
-1.80547 2.33424 -1.23803
-1.35869 1.69512 0.530796
-2.26573 1.93477 -0.722283
-1.62875 1.78844 0.105748
-1.97374 2.27075 -1.25731
-2.93813 1.59664 -0.415653
-1.85243 2.51252 -1.82433
-2.38279 1.35504 0.73356
-2.55322 1.47771 0.315623
-1.36307 2.38757 -1.02386
-2.08531 1.83493 -0.31975
-1.45872 1.89785 -0.00520479
-1.96791 2.0276 -0.662441
-1.35864 1.67896 0.569286
-0.814688 1.98146 0.407864
-2.06839 1.22627 1.22032
-1.19502 2.25272 -0.6072
-2.41769 1.64147 -0.0876346
-1.86706 1.72176 0.0847556
-2.56278 1.75515 -0.549347
-1.80221 2.00807 -0.48757
-1.9529 1.89959 -0.36439
-2.00571 1.10211 1.80481
-1.81667 1.52499 0.560277
-1.75556 1.42133 0.854268
-2.38822 1.4595 0.426116
-2.53332 1.30444 0.900794
-1.99107 1.23076 1.24104
-1.04762 2.09449 -0.135262
-1.41888 1.35416 1.41695
-2.76848 1.63325 -0.357114
-2.37171 1.70631 -0.227232
-1.60728 2.30958 -1.0085
-2.04658 1.14405 1.54398
-2.25485 1.26706 1.03322
-1.55099 2.28304 -0.906227
-2.15136 1.91887 -0.570345
-1.70798 2.45275 -1.45099
-2.24363 1.71013 -0.142664
-1.91483 2.00982 -0.578596
-1.97609 1.10272 1.82349
-1.63706 1.98577 -0.320214
-2.01648 1.82816 -0.253078
-1.81456 2.38549 -1.38068
-2.37067 1.25314 1.07108
-1.55811 2.0939 -0.49525
-0.909264 2.0174 0.185848
-1.38035 1.73288 0.422944
-2.33323 1.51676 0.292943
-1.13765 1.6457 0.923358
-2.75239 1.64594 -0.389873
-2.00475 2.35411 -1.5395
-2.60609 1.66906 -0.317412
-2.47593 1.50032 0.275575
-2.7324 1.65301 -0.393976
-1.41543 1.72128 0.418997
-3.28557 1.5205 -0.0680369
-1.53065 1.37193 1.19559
-2.2853 1.42847 0.550145
-1.93876 1.18346 1.43782
-1.01291 1.85079 0.516405
-2.37082 1.84481 -0.595839
-1.96449 1.28565 1.08517
-2.77594 1.49774 0.180149
-1.42065 2.04778 -0.300576
-3.15597 1.50464 0.142627
-2.24635 2.12725 -1.23379
-0.952017 1.92447 0.390481
-1.64978 2.25781 -0.922006
-1.95061 2.36168 -1.4815
-1.76596 2.29378 -1.10152
-1.42947 2.31324 -0.892026
-2.23819 1.26155 1.05438
-2.48727 1.60279 -0.0255413
-1.54117 1.29347 1.44588
-2.8886 1.42653 0.505366
-1.42984 1.87254 0.0712592
-1.65483 1.61983 0.457073
-2.25862 1.34539 0.792344
-2.05279 1.41206 0.695504
-2.27567 1.14938 1.49092
-2.36635 1.62265 -0.00397463
-2.06423 1.08204 2.06329
-0.896245 1.89229 0.560297
-1.61463 1.35414 1.15657
-1.37169 2.21656 -0.636359
-2.73422 1.36104 0.736097
-2.2817 1.5286 0.287057
-2.02504 2.26952 -1.31897
-1.31554 1.68201 0.604467
-1.11514 1.94274 0.172263
-1.16198 1.90556 0.218129
-1.60166 1.50656 0.764148
-1.21037 1.55081 1.09907
-1.11632 2.20205 -0.439643
-2.69579 1.52483 0.10692
-2.13838 2.15832 -1.16296
-0.976472 2.17075 -0.269179
-2.83282 1.64326 -0.492784
-2.00102 2.20919 -1.12862
-2.24277 1.45761 0.489563
-2.80333 1.50743 0.132815
-2.2354 1.10914 1.72295
-1.06442 2.02351 0.0225735
-1.72954 2.13856 -0.716797
-2.72352 1.63069 -0.29798
-1.89265 2.08605 -0.730931
-1.19905 1.87027 0.267508
-2.16378 1.99361 -0.764312
-2.18231 1.52428 0.348546
-1.82511 1.21138 1.41854
-2.81585 1.40198 0.589336
-2.0332 1.49917 0.489577
-0.783682 1.94532 0.578501
-1.98735 1.60349 0.271495
-1.78848 2.15645 -0.803055
-3.16842 1.52462 -0.127967
-2.66377 1.2897 1.01698
-2.4071 1.21818 1.2108
-2.64597 1.39525 0.579471
-2.35163 1.59853 0.0681444
-0.989634 1.99877 0.152543
-2.55478 1.24483 1.15493
-2.48799 1.81958 -0.658864
-2.83544 1.497 0.168684
-2.55813 1.38484 0.616507
-2.17449 1.11695 1.65653
-2.00932 1.36751 0.833759
-1.49665 1.43418 1.05293
-2.56122 1.81002 -0.72928
-2.09029 1.50364 0.44763
-2.08294 1.73689 -0.0940824
-2.34214 1.62575 0.00312206
