ply
format ascii 1.0
comment Created by Open3D
element vertex 200
property double x
property double y
property double z
end_header
-0.0453191 -2.04363 -1.50026
0.672772 -2.38064 -0.455959
-0.563803 -0.540706 -3.1851
0.64457 -2.39583 -0.222011
-0.131277 -2.08979 -0.812199
1.11203 -2.60461 -0.314183
-0.460613 -1.37628 -2.87229
-0.922913 -1.11844 -2.22977
-1.44173 -0.957978 -1.55429
-0.480743 -1.61267 -2.38501
-0.601262 -1.67836 -1.92776
0.190105 -1.82926 -3.19046
-0.000547883 -1.97265 -2.20648
1.61885 -2.66125 -1.08779
0.403057 -2.27243 -0.580859
-0.37953 -1.88409 -1.62642
0.46641 -2.22787 -1.45375
-1.26723 -0.395202 -1.95263
1.36008 -2.83898 -0.0914843
0.230541 -2.23016 -0.445048
-0.442869 -1.81563 -1.7974
-0.877518 -0.992349 -2.41862
0.647924 -2.18345 -2.39192
-0.634164 -1.10869 -2.81035
0.501873 -2.48615 0.617321
-0.844147 -1.16858 -2.3337
-0.98937 -1.23538 -1.99385
-0.110954 -1.26085 -3.57503
-0.863972 -1.3174 -2.12269
0.886328 -2.30037 -1.94624
0.434672 -2.62014 1.08394
1.37262 -2.5705 -1.07896
0.571823 -2.10597 -2.72264
-1.24691 -0.957341 -1.80268
-1.41597 -0.657819 -1.67629
0.811909 -2.40193 -0.773278
0.570167 -2.59676 0.872823
-0.826327 -0.821233 -2.62116
1.0631 -2.5702 -0.354581
-1.15107 -1.09973 -1.85446
-0.547387 -1.22732 -2.87318
0.893631 -2.74484 0.712823
-0.886766 -0.829106 -2.50025
-1.22343 -1.09295 -1.75421
1.31181 -2.72576 -0.322107
-0.962023 -0.570456 -2.4599
-0.182862 -1.59216 -3.07843
0.35527 -2.18162 -1.57422
0.0921402 -2.27236 0.166183
0.779155 -2.29696 -1.74849
-0.584932 -0.739755 -3.10286
-0.282164 -1.55019 -2.96121
0.710776 -2.15168 -2.65692
0.241071 -2.30431 0.137245
0.691668 -2.3639 -0.699636
-0.574982 -1.55669 -2.30266
-0.0636968 -1.80177 -2.81005
0.984871 -2.59783 0.00762456
-0.362848 -1.88659 -1.65549
0.636136 -2.3773 -0.35391
0.274438 -2.33147 0.247219
1.58315 -2.58415 -1.29123
-1.14396 -0.855455 -2.01612
-0.665305 -1.00835 -2.82476
-1.06776 -1.06876 -2.01171
-0.263543 -0.562907 -3.59954
0.28664 -2.09886 -2.17362
-0.560853 -0.837388 -3.10943
-1.20844 -0.993509 -1.83892
-0.550457 -1.50627 -2.46405
0.367123 -2.38362 0.379504
-0.989787 -1.56972 -1.52106
-0.720666 -1.68542 -1.67011
-0.350885 -1.62715 -2.6511
1.51172 -2.61465 -1.1076
-0.0671675 -2.06986 -1.176
-0.272645 -2.07517 -0.646931
1.16305 -2.77099 0.187337
1.40901 -2.53223 -1.30001
1.17942 -2.77981 0.173394
0.598131 -2.21016 -2.08986
0.097987 -2.10757 -1.38345
-0.774863 -1.51481 -1.97182
-0.281385 -1.54034 -2.9804
0.652632 -2.34243 -0.780478
0.406395 -2.30012 -0.298298
-0.178507 -1.80325 -2.53565
1.29237 -2.63282 -0.641629
0.826179 -2.79046 0.929313
-0.520515 -2.0508 -0.518924
-0.827931 -1.50268 -1.89604
-1.33693 -0.818585 -1.73702
-1.31253 -1.20079 -1.56723
1.58977 -2.90541 -0.415101
0.917021 -2.2353 -2.40468
0.798817 -2.43195 -0.452566
-0.695695 -0.609105 -2.94602
0.312632 -1.8176 -3.36991
-0.95808 -0.753151 -2.40011
-0.339166 -1.60541 -2.72832
0.318113 -0.821395 -4.06072
0.57517 -1.18995 -4.09587
0.57257 -0.859849 -4.14733
1.50662 -0.0799703 -3.98688
1.24332 -0.684811 -4.12463
1.20646 0.229167 -3.95213
1.38173 -0.146503 -4.02898
1.13808 -0.923069 -4.13684
0.727461 -1.26238 -4.09548
1.07077 -0.995436 -4.14073
1.45201 -0.460635 -4.05766
0.925671 -0.661698 -4.1702
1.50652 -0.252179 -4.01821
1.44116 -0.251061 -4.03517
1.20068 -0.44518 -4.1161
0.530469 -1.19563 -4.08226
0.4934 -0.448079 -4.09643
-0.134324 -0.605208 -3.73739
0.836062 -0.177416 -4.08756
1.43841 0.135111 -3.94775
1.1845 0.105192 -3.99358
0.353754 -1.14834 -4.02764
0.945205 -0.902543 -4.16891
1.15917 -0.858948 -4.13847
-0.0503098 -0.607723 -3.81575
1.41052 -0.517538 -4.07376
0.97482 -0.15781 -4.08255
1.37175 -0.942433 -4.06243
0.621983 -0.179014 -4.06701
0.553995 -1.05213 -4.12359
0.781704 -1.24483 -4.10485
1.67326 -0.471065 -3.98055
0.164256 -1.46322 -3.72353
1.63839 0.127486 -3.90736
-0.194916 -0.577881 -3.67566
1.83927 -0.363699 -3.91015
1.65152 0.271299 -3.86609
0.245655 -0.409229 -3.99726
1.04746 -0.534198 -4.149
1.86938 -0.361624 -3.89692
-0.121683 -0.768982 -3.73886
0.918847 -1.06494 -4.14954
1.74557 0.00504592 -3.90563
1.55208 0.419319 -3.83995
0.689158 -0.148703 -4.06872
1.53331 -0.558336 -4.03478
0.801994 -0.309985 -4.11735
0.00715549 -0.794782 -3.85771
0.294818 -1.47313 -3.82174
0.957753 -0.8282 -4.17167
0.281888 -1.31853 -3.91688
0.922179 -0.207965 -4.09623
0.735088 -1.2078 -4.11511
1.67671 0.195032 -3.88109
0.291786 -1.2265 -3.96643
1.54978 -0.574607 -4.02867
0.861709 -0.147488 -4.08061
0.232845 -0.974363 -4.00039
0.0920019 -1.2638 -3.79748
0.129904 -1.12807 -3.89019
0.509986 -1.107 -4.10034
1.22388 -0.885961 -4.11966
0.664905 -0.851824 -4.16423
0.82205 -1.05083 -4.15628
-0.105939 -0.88603 -3.73647
1.31394 0.254768 -3.93103
1.49029 0.183242 -3.92429
0.650149 -1.26262 -4.08598
1.16763 -0.495582 -4.12801
0.0532921 -1.26564 -3.75931
0.124316 -1.26823 -3.82417
0.0401423 -0.606457 -3.88951
0.0213414 -1.00204 -3.83515
0.536147 -1.24504 -4.06688
0.847641 -1.24653 -4.10383
0.508316 -0.339656 -4.08035
0.559119 -0.40613 -4.10507
1.02111 -0.901631 -4.16042
0.281998 -1.29412 -3.92969
1.07346 -1.12964 -4.11103
0.789001 -1.30628 -4.08067
0.699893 -0.277881 -4.10169
1.38025 0.144925 -3.95507
0.888566 -0.670003 -4.17202
0.545636 -0.357717 -4.09284
0.359702 -1.44005 -3.8888
1.15415 -1.04906 -4.11156
1.06401 -0.615821 -4.15481
0.955206 -0.90225 -4.16805
0.112582 -0.599371 -3.94076
1.17826 -0.674382 -4.13896
1.02399 -1.08515 -4.13185
0.934539 -0.203761 -4.09503
1.31621 0.128102 -3.97003
1.11421 -0.219525 -4.08752
0.675536 -0.373572 -4.11902
-0.166539 -0.665709 -3.70158
0.713637 -1.29664 -4.08054
1.07268 -1.12825 -4.11159
1.10391 -0.2634 -4.09818
