ply
format ascii 1.0
comment Created by Open3D
element vertex 400
property double x
property double y
property double z
end_header
1.78568 1.12629 1.98045
1.5393 2.22121 0.65045
1.93664 2.06266 0.95979
2.31097 1.16961 1.94497
1.75722 2.295 0.66674
0.877845 0.947127 2.22772
1.73539 2.23579 0.70861
1.055 1.70611 1.18327
0.90755 1.97435 0.86497
1.42474 1.17515 1.91115
0.812437 1.23687 1.82578
1.799 1.2588 1.81524
1.47621 2.75123 0.22728
1.98128 1.70874 1.32991
1.76877 2.31316 0.65689
1.95189 2.25288 0.80292
2.26685 1.12916 1.98217
1.82325 0.711901 2.48741
1.6364 2.12115 0.77904
1.14644 2.51159 0.32786
1.77721 1.09162 2.02406
0.594111 1.4883 1.50715
1.8607 1.78415 1.20914
0.822167 1.65059 1.27038
1.18834 1.64111 1.26848
1.76807 1.46977 1.55096
1.32278 2.34784 0.48242
1.56836 2.08439 0.79522
0.431236 1.74134 1.2351
1.09616 1.92499 0.91109
1.66792 1.44481 1.56776
2.57429 1.36948 1.81419
0.865605 1.70239 1.19962
2.05318 1.27416 1.81872
1.86117 0.557547 2.65765
1.16072 1.07376 2.05223
0.834591 2.11595 0.7199
1.24319 2.0513 0.77115
0.828531 1.47493 1.50072
0.914968 0.86308 2.3451
0.771043 1.53633 1.42415
1.85921 2.05557 0.93051
1.77775 2.19227 0.76645
1.84737 1.10582 2.00601
1.42498 0.374512 2.9703
1.05016 1.28285 1.75739
1.62271 1.69304 1.25143
1.98903 2.059 0.98927
1.5289 1.1719 1.91727
0.578859 1.27677 1.78207
0.974718 2.16469 0.64992
1.64075 1.61678 1.34812
1.52289 1.5185 1.45526
1.90207 1.18725 1.90831
2.30115 1.66722 1.48916
2.24858 1.78721 1.36163
2.2912 1.49774 1.6371
0.764467 0.82221 2.39311
1.75762 1.03237 2.09937
1.30805 1.11958 1.9876
1.46925 0.645617 2.62532
2.4602 1.34064 1.81281
1.4878 1.33223 1.69904
1.85043 1.2659 1.81027
1.24386 1.03332 2.10893
2.21411 1.50565 1.60817
0.78445 1.47446 1.50473
1.5925 0.635901 2.62107
0.80799 1.62362 1.30663
1.6288 0.68064 2.55916
1.62996 1.58302 1.38811
0.748734 0.93541 2.23924
1.23368 2.18454 0.62837
0.886648 2.20443 0.62041
1.13151 0.87467 2.33224
2.19629 1.64364 1.47043
0.408057 1.12426 1.98317
0.406876 1.32783 1.73127
1.09293 1.77316 1.09713
0.91267 2.05337 0.77554
1.00773 0.986661 2.17476
1.24929 1.86108 0.99278
1.87711 1.00881 2.12337
1.00204 1.32974 1.6924
0.666144 0.762678 2.46337
1.0011 1.52915 1.41859
1.76174 2.40876 0.57677
1.24997 2.31812 0.49979
0.141669 1.3005 1.79282
1.91661 1.8823 1.12615
1.2244 1.38634 1.61393
1.33973 2.62336 0.26893
0.903145 2.2411 0.58168
1.48198 0.79681 2.42521
1.65941 2.28736 0.63132
0.677019 2.08733 0.78549
1.71478 0.842405 2.34329
2.72433 1.37519 1.84506
1.29044 0.942955 2.23479
1.29806 0.988217 2.17151
0.914777 0.855719 2.35524
1.26991 1.57297 1.36192
1.55614 0.737357 2.49623
0.600433 1.16227 1.93181
1.38464 0.529559 2.78401
1.83902 0.531292 2.69338
1.25829 1.57209 1.36253
0.718534 1.9717 0.89993
1.6738 0.302041 2.99767
0.944475 2.13647 0.68241
1.07154 1.92916 0.90651
1.32813 0.433499 2.91068
1.01601 1.11741 1.99055
1.6873 1.83183 1.10383
1.93626 0.712544 2.46367
1.3135 0.213511 3.17326
1.02707 2.17099 0.63951
1.04142 0.942411 2.23719
1.0728 1.49492 1.46351
1.66398 1.72264 1.22473
1.31714 2.28834 0.53623
2.65163 1.41107 1.80488
1.63197 1.00172 2.14365
1.65566 0.848875 2.34119
1.549 1.26134 1.79751
1.02963 1.46324 1.50743
0.9069 1.97555 0.86367
0.712184 0.945175 2.22437
2.4475 1.33013 1.81904
1.31496 1.03862 2.10086
0.912309 1.56484 1.37496
1.30632 2.20459 0.61609
1.60478 0.711081 2.524
1.48857 0.114134 3.24963
0.856257 1.70503 1.19722
1.67939 0.711639 2.51251
0.223389 1.31547 1.76641
0.667848 1.07623 2.0464
2.16056 1.05805 2.05488
1.39304 0.427326 2.91083
0.946441 0.612687 2.68521
0.478641 1.61259 1.37332
1.91605 0.726708 2.45178
0.747016 1.08556 2.0344
1.37525 0.299276 3.06668
1.19413 2.4295 0.39655
2.1111 1.84702 1.24383
1.33866 2.63237 0.26271
2.47928 1.19698 1.93085
1.04421 1.06772 2.06073
1.42007 0.842871 2.36756
1.93853 1.2328 1.85628
1.84109 0.933324 2.21758
0.451495 1.60643 1.3865
0.64643 2.00934 0.87637
2.50752 1.41006 1.76864
1.83671 1.9616 1.01389
1.01061 0.485401 2.85365
0.444862 1.55641 1.44754
1.4857 1.81244 1.08111
2.0225 1.38631 1.69046
0.268955 1.64476 1.38939
0.949008 1.41799 1.57169
1.65519 1.58914 1.38482
1.82286 0.823921 2.35282
1.72053 2.49152 0.49472
1.90268 1.79143 1.21551
0.378429 1.11154 1.99899
1.97835 0.62738 2.54808
2.61263 1.60001 1.66962
1.93756 1.84499 1.17245
1.57955 0.839166 2.3609
2.05111 1.91267 1.15457
0.450314 1.66174 1.32165
2.17051 1.89306 1.23069
2.106 2.07684 1.03748
1.00469 0.58419 2.7255
0.954898 1.03525 2.10603
0.512419 1.41326 1.61283
0.770584 1.35938 1.66023
1.63608 2.44725 0.4895
1.9699 1.83646 1.19381
1.72604 2.0815 0.85051
2.07765 1.8166 1.25785
1.8119 0.530443 2.70173
0.858477 1.43869 1.54763
1.69996 1.91211 1.01821
1.29891 0.38369 2.97479
2.05508 0.762289 2.38301
1.35407 2.38657 0.45384
2.36992 1.72592 1.46976
1.59633 2.33468 0.5661
0.446128 1.17078 1.92429
0.855104 1.1227 1.98333
1.91241 1.33283 1.73612
2.68513 1.30616 1.8783
0.888374 2.02952 0.80505
1.79595 2.18797 0.77854
1.21053 2.27543 0.53649
1.4894 0.160846 3.20023
1.24636 1.51164 1.44315
0.899581 0.800728 2.43006
1.33555 0.961064 2.20859
1.25623 2.47663 0.36364
1.44858 0.437572 2.89041
0.494374 1.48028 1.5316
2.05999 1.31477 1.77482
2.58172 1.51285 1.71605
2.05965 0.695722 2.45309
1.63043 1.77221 1.15846
0.71176 0.793869 2.42679
1.67322 1.66734 1.29287
2.65037 1.57719 1.69965
1.75975 2.06669 0.87817
0.607376 1.44328 1.56323
2.07056 0.815754 2.32235
1.65372 1.66644 1.28992
0.946187 1.61712 1.30379
1.00148 0.970299 2.19766
1.97556 2.23842 0.82826
0.802347 1.85599 1.01795
0.394155 1.16113 1.93768
2.13093 1.32455 1.7738
1.44013 2.28579 0.56282
1.88589 0.824649 2.34295
2.22073 0.8126 2.29606
0.916106 1.92721 0.91871
2.24653 1.1717 1.94014
1.54907 0.869055 2.3239
2.10194 0.997607 2.12212
0.494819 1.35121 1.69313
2.3728 1.10571 2.00444
0.960032 2.03755 0.78801
1.79899 2.34351 0.64687
0.668074 0.787604 2.43098
1.69438 1.40168 1.62573
0.611704 1.42308 1.58883
1.69542 0.76282 2.44602
1.97395 1.08106 2.03437
1.56565 0.286088 3.04475
2.5706 1.21412 1.92508
1.78854 0.601394 2.62541
1.8067 1.36527 1.68445
1.79708 0.680859 2.52947
1.14309 1.87935 0.966
2.00873 0.660275 2.50423
1.22793 1.06693 2.0617
2.13915 1.32739 1.77199
1.27481 1.42007 1.56891
0.595596 1.33638 1.70308
2.31025 1.66123 1.49803
2.29394 0.944751 2.15689
1.12744 1.3367 1.6818
2.09967 0.869557 2.25975
2.51137 1.13591 1.98046
1.32641 1.2455 1.81189
1.33565 1.48712 1.48059
2.25979 1.3296 1.78799
1.65543 2.43073 0.51047
1.59567 1.03775 2.09714
1.91538 1.59293 1.43656
0.855302 1.49767 1.46837
1.21608 2.29453 0.51874
1.28198 1.03722 2.10314
1.33044 1.9908 0.84823
1.68601 0.312004 2.9831
2.0653 1.74449 1.32345
1.32577 0.461642 2.87582
0.798903 1.56759 1.38045
1.79063 0.834322 2.34438
1.09629 1.31496 1.71218
1.50552 0.458226 2.85591
2.47382 1.10958 2.00092
1.41201 0.0544331 3.32802
1.8344 1.84123 1.13877
2.02806 1.58318 1.4774
0.857657 0.558225 2.74946
1.58396 1.08716 2.03147
0.922456 1.22776 1.83614
1.47361 0.853379 2.35008
0.797249 1.59304 1.34741
0.224648 1.45755 1.60666
1.49439 2.11924 0.73944
0.66951 0.81021 2.40142
1.91646 1.27995 1.79896
1.34413 1.32614 1.70066
2.09451 0.974089 2.1481
1.29429 0.952289 2.22171
1.4476 1.04551 2.08959
1.37985 2.54571 0.33203
1.27544 1.62948 1.28757
1.19983 1.81775 1.04314
1.8585 1.62792 1.38245
1.96663 1.99847 1.03401
1.41624 2.11965 0.72158
0.498871 1.10386 2.00881
0.811978 2.18316 0.65516
2.29371 1.13387 1.97806
1.87668 1.17894 1.91737
1.10864 0.596734 2.71098
1.44668 2.35247 0.50423
1.69006 2.0248 0.89511
1.04641 0.657829 2.62895
1.66289 0.928148 2.23809
1.23402 0.309663 3.06918
1.74076 1.22085 1.85959
1.41497 0.903548 2.28521
1.3486 2.55453 0.31888
1.11729 1.04365 2.09481
1.51001 1.12377 1.98228
1.34255 0.365581 2.99222
1.79884 2.07971 0.88126
1.04033 0.923941 2.26306
0.338697 1.30811 1.76219
0.825986 1.4982 1.46978
1.81106 1.52667 1.48986
0.542202 1.82481 1.10962
2.27995 1.10769 2.00291
1.55568 0.26322 3.0727
2.12353 1.14353 1.96499
1.95429 1.54001 1.50541
2.25964 1.10242 2.00807
0.863038 1.4983 1.46699
2.77447 1.45835 1.81301
0.946922 2.03028 0.79738
1.74959 1.69387 1.27888
1.34917 2.25291 0.57516
0.431144 1.54001 1.46988
1.89519 0.927399 2.21976
1.39989 2.00505 0.84248
2.25606 1.53238 1.59485
0.891782 1.03466 2.10623
2.62355 1.59851 1.67516
1.79887 0.480861 2.76159
0.372879 1.45099 1.58682
1.14959 0.657524 2.62977
1.49349 0.302649 3.04223
1.27808 0.54979 2.76724
0.920476 0.653374 2.62983
1.67239 2.03618 0.87739
1.98363 1.33266 1.74509
0.939957 2.21068 0.6068
2.33406 1.80558 1.38796
0.889936 1.27423 1.77208
1.11195 1.54428 1.39642
1.70935 1.85595 1.08296
1.50987 1.75231 1.15814
1.67238 2.36688 0.56886
1.85977 1.32992 1.73355
1.40302 2.77179 0.19423
0.302677 1.56728 1.46627
1.03747 2.00984 0.814
0.851908 0.812961 2.41101
2.16888 1.93399 1.19409
1.75964 1.51418 1.49536
1.56396 0.417858 2.8932
0.750085 1.61369 1.32611
0.556394 1.31386 1.73541
0.603806 1.34772 1.6876
1.04442 1.74131 1.13841
0.609795 1.94959 0.95142
0.58231 0.910393 2.26287
2.1833 1.46222 1.64285
1.67738 0.528534 2.73688
0.431321 1.00662 2.13044
2.37266 1.03873 2.06386
1.52818 0.546756 2.74301
1.71048 1.64484 1.32781
2.28678 1.50325 1.6308
1.60991 2.53648 0.4126
0.509577 1.21033 1.87177
1.22568 0.798111 2.43706
2.24267 1.17194 1.93972
1.397 0.802821 2.42319
0.640872 1.38301 1.63822
1.68449 0.799858 2.40069
1.6566 1.53984 1.44637
1.23624 2.2208 0.59199
2.25827 1.84785 1.31437
1.4995 1.61146 1.33259
0.179018 1.57892 1.48595
1.46147 1.46154 1.52396
1.29026 0.747398 2.50409
2.67011 1.37979 1.82933
2.07815 2.12352 0.98244
1.82199 2.19209 0.78689
2.0988 1.79388 1.28868
1.84114 1.37677 1.67475
0.425155 1.29126 1.77471
1.96486 2.19351 0.8592
2.02286 0.891365 2.2469
2.31486 1.53713 1.60867
2.01191 1.79877 1.24841
1.55938 2.46813 0.44356
1.45916 1.83909 1.04462
0.919713 1.92847 0.91686
2.10566 0.845198 2.28467
1.55916 1.59197 1.36574
1.57315 1.23438 1.83461
1.83479 1.33134 1.7291
