ply
format ascii 1.0
comment Created by Open3D
element vertex 400
property double x
property double y
property double z
end_header
2.88101 -0.340009 1.20596
3.31746 0.397282 0.697023
2.58091 0.129103 1.16724
1.61368 2.13486 0.866121
2.87558 -0.340249 1.20974
1.08189 0.387661 1.87886
2.04881 -0.0701407 1.53501
2.1664 0.976947 0.985346
2.26837 0.9273 0.964727
1.94313 1.70849 0.826834
3.10081 0.975197 0.710338
2.3551 1.55341 0.757276
2.97748 1.13558 0.71801
2.04202 -0.496704 1.73954
2.79905 -0.624048 1.39347
1.95533 -0.101533 1.5961
1.44598 0.574069 1.54747
2.1104 0.0677467 1.43586
2.93668 1.18064 0.719877
3.37448 0.75221 0.655467
3.01671 0.295403 0.874458
1.56244 0.565177 1.4802
2.45928 1.34895 0.777117
2.90806 -1.18941 1.56636
2.84805 -0.77009 1.42745
2.76446 0.489684 0.929662
2.8794 1.24549 0.721525
2.78816 -0.611858 1.39504
1.59411 1.28921 1.12603
2.09391 0.400832 1.27843
1.79954 2.18467 0.792928
2.38578 1.55481 0.751421
1.95748 -0.139592 1.61336
1.43288 1.90152 1.00945
2.10953 0.162407 1.38897
2.39766 1.37617 0.784782
3.2006 0.0364209 0.840877
1.99002 1.76848 0.799243
2.38778 1.19088 0.835079
2.1628 0.48615 1.2037
1.63958 1.9303 0.890912
2.56332 -0.509699 1.48449
1.26457 1.24789 1.36926
2.71025 -0.0709549 1.18901
1.35124 1.2192 1.31458
1.34693 0.107097 1.8128
2.68082 0.526999 0.952374
2.97485 -0.237545 1.09669
1.77769 2.22301 0.796909
2.99314 0.564171 0.810846
1.8357 -0.156461 1.67955
3.10912 -0.0413557 0.928205
2.42727 -0.913668 1.74377
2.59694 -0.509209 1.46488
3.13801 1.01078 0.701103
2.10462 1.4696 0.838812
1.8958 1.84931 0.810762
2.26758 1.06545 0.913914
2.76989 -0.00701584 1.126
2.64361 -0.692718 1.52488
1.78598 2.20979 0.795233
2.60352 1.15793 0.787073
2.73664 1.40469 0.722684
1.70414 -0.207637 1.76392
2.09549 -0.282328 1.61551
1.12212 0.650276 1.74685
1.98055 -0.455543 1.74853
2.13833 0.256764 1.3276
3.07024 1.03484 0.711321
2.60677 1.16988 0.783609
1.87481 2.27109 0.76953
1.93863 0.191032 1.46054
2.54704 1.41097 0.748253
1.73806 1.64793 0.921353
2.581 -0.388419 1.41544
1.99604 0.305873 1.37424
2.28271 1.20954 0.86098
2.96189 0.228092 0.925348
1.62184 2.00428 0.883756
1.45602 -0.0228942 1.80634
2.85554 -1.18957 1.60576
2.34032 -0.889285 1.7752
2.21486 0.327524 1.25509
2.5994 -1.15148 1.7522
1.3332 1.16179 1.35331
2.15433 -0.289086 1.59033
1.62929 1.83369 0.918871
1.49606 1.61734 1.05748
2.17537 1.50195 0.80975
2.04238 0.580449 1.21646
2.66951 -0.446831 1.39166
1.77971 1.38888 0.990225
2.97603 -1.0775 1.46516
1.74076 0.368486 1.4756
2.32159 1.35772 0.807778
2.25612 1.00176 0.941159
2.18906 -0.188388 1.52399
1.93346 0.604547 1.2586
2.87191 -1.21405 1.60368
2.75591 1.38505 0.722536
1.37638 1.80271 1.07472
1.2675 0.972314 1.48893
3.07322 0.0190947 0.931451
1.35971 0.941201 1.43395
2.69208 1.19273 0.760331
1.6508 1.49999 1.01263
1.6597 1.21422 1.12088
2.72152 -0.805845 1.52934
2.34012 1.57039 0.757021
1.73754 2.49167 0.812133
2.86594 0.0850706 1.03216
3.15522 0.880562 0.706216
1.87741 0.840668 1.17453
2.93355 -0.701874 1.33309
2.29136 -0.437937 1.59458
2.28508 -0.253039 1.50765
2.49029 0.76489 0.941258
2.66983 0.190144 1.09386
2.06836 1.16031 0.953357
2.14599 1.31377 0.872146
2.27267 -0.543125 1.65363
2.85893 1.34516 0.715302
2.64574 -0.807788 1.57717
3.04485 -0.316309 1.07871
2.47491 1.07862 0.842256
2.89724 1.10164 0.735363
1.80625 1.05233 1.11443
2.9542 -0.150438 1.07434
1.68219 1.11176 1.15303
2.41203 0.57527 1.04908
2.98689 0.987373 0.732548
1.43091 0.366184 1.653
2.87999 0.594508 0.847892
1.90219 1.34545 0.952176
2.09156 0.812189 1.08639
3.05071 -0.153393 1.00964
1.28947 1.24065 1.35241
2.19316 1.08403 0.934166
1.2976 1.05035 1.43031
1.95617 -0.243845 1.66336
1.87144 1.88047 0.812331
2.73174 -1.03417 1.62484
3.1397 0.98286 0.702355
3.31856 0.793093 0.670358
2.84012 -0.893528 1.48936
1.37892 1.42866 1.20614
2.36728 1.183 0.843338
1.82634 2.26453 0.781459
2.07958 1.55921 0.822245
2.76091 -0.436914 1.33007
1.51717 1.3866 1.13167
2.80176 0.664105 0.857721
2.43969 0.202424 1.20473
2.95999 0.781054 0.7739
2.27115 -0.809437 1.77332
2.03131 0.895233 1.07694
2.34362 1.57174 0.756123
1.9059 1.29867 0.967753
1.13031 0.617554 1.7534
1.68849 1.49153 0.996568
1.58163 1.01741 1.25315
1.97542 1.13325 1.00192
3.33884 0.734379 0.66567
2.36303 1.74893 0.727429
2.85869 -0.515737 1.30197
1.49324 2.03835 0.942199
2.71585 1.19459 0.755261
1.59828 0.546377 1.46822
1.23919 1.2424 1.39257
2.78382 0.531433 0.906942
3.0899 0.712294 0.744986
2.36177 1.78488 0.723872
1.41985 0.588958 1.55724
1.91516 1.79368 0.816256
1.37135 1.33411 1.25053
2.10594 1.58487 0.808287
1.30312 1.01962 1.43997
2.78434 0.673452 0.861447
2.12642 1.36711 0.86197
1.93512 -0.224986 1.66444
2.70763 -0.240392 1.26977
3.09573 0.438958 0.796733
2.73782 0.252984 1.03259
2.03459 1.77643 0.785567
3.05575 -0.541473 1.16466
2.66092 -0.00958535 1.18844
2.60615 -0.279008 1.34775
1.74517 0.731347 1.29536
1.90813 1.63554 0.857388
2.4882 -0.799149 1.66219
2.75375 1.47781 0.714715
2.39635 0.390793 1.13793
2.4494 -0.469828 1.52819
2.03415 -0.588317 1.78285
1.34212 1.7598 1.11251
1.98231 0.407077 1.33087
2.47628 -0.406065 1.48259
2.6808 -0.111119 1.22454
1.95012 1.14854 1.00672
3.00193 -0.263373 1.08839
2.41895 0.00405519 1.3112
2.51633 -0.606643 1.55747
1.43144 1.92229 1.00505
1.46155 1.63952 1.07116
2.93945 -0.688244 1.32238
1.32324 1.51989 1.2113
2.12137 0.90086 1.03508
1.58306 0.502604 1.49827
3.02659 -0.358098 1.10985
3.04315 -0.207158 1.03598
1.84464 1.56939 0.900592
2.04043 2.12031 0.74201
1.57917 0.581873 1.46223
2.00592 0.480691 1.28276
1.91834 1.03511 1.06795
2.74102 0.442858 0.957012
1.47464 1.18624 1.24359
2.46872 1.40428 0.763746
2.75508 -0.404998 1.31864
2.937 0.167352 0.960484
2.47751 -0.913096 1.71812
1.52682 0.890949 1.34576
1.65222 0.928099 1.25345
1.70438 2.51397 0.824083
1.82353 0.293238 1.46891
3.02262 0.0738586 0.944186
1.46348 0.703297 1.47514
1.57665 0.550697 1.47879
1.5782 1.09559 1.21957
2.82637 -1.21594 1.63721
1.27481 0.411834 1.73233
3.23293 0.290587 0.759348
3.02263 0.38745 0.844498
1.42144 0.731729 1.48915
1.83436 0.426066 1.39741
2.1122 -0.000294159 1.46892
2.62943 -0.0156511 1.20862
1.62767 0.118067 1.65603
2.81407 0.427777 0.929244
2.98101 -0.415682 1.16876
1.56373 1.27284 1.15064
2.45517 0.738877 0.964713
1.61584 2.17508 0.860224
1.73311 1.05694 1.15
1.65615 0.937713 1.24671
1.852 0.155325 1.52227
1.97503 0.582374 1.24857
2.17976 1.99936 0.72832
2.95555 -0.794735 1.35796
2.42784 1.05899 0.862578
2.3557 0.374908 1.16456
3.18095 0.967742 0.695475
1.45944 1.85953 1.00413
1.58603 1.24836 1.14791
2.32802 1.17314 0.858173
1.92271 1.6525 0.847743
2.36524 -0.733205 1.69542
2.86712 0.821436 0.793869
2.67756 0.0367521 1.15805
2.06543 1.50684 0.840587
1.8056 0.0641309 1.59018
1.65846 0.460135 1.47583
2.85828 0.661165 0.837462
1.14842 0.623291 1.73648
3.04151 0.146908 0.907953
2.58308 1.47169 0.73356
3.17958 0.723327 0.71468
1.37339 0.198065 1.76063
2.90845 0.452048 0.87841
2.96166 -1.00147 1.44447
2.66514 1.45303 0.725569
2.18521 0.78939 1.0552
3.0857 -0.502804 1.12339
2.85073 -1.22203 1.62234
3.25647 0.503769 0.712552
2.44767 0.826244 0.934831
1.83511 -0.213746 1.70604
2.55863 -0.124524 1.29946
2.38013 1.17927 0.840665
1.60451 0.167272 1.64555
2.94665 0.877552 0.759362
1.84667 0.307923 1.44959
2.92588 -0.421403 1.21149
1.46418 0.506101 1.56798
2.33529 -0.762723 1.72316
2.59288 -0.117346 1.27707
1.56456 1.54277 1.04381
2.77778 0.231071 1.02108
2.35614 -0.672444 1.67238
1.83608 0.952116 1.14416
1.9376 0.609593 1.25408
1.84215 -0.0491155 1.62615
2.24445 0.878513 0.993372
2.19199 1.48746 0.808909
1.86976 -0.419839 1.7813
1.43233 1.49536 1.14293
1.99629 1.54123 0.853336
2.10936 1.48358 0.833495
2.80865 0.890597 0.795332
2.54378 0.836219 0.896343
2.25193 -0.0811573 1.43915
2.2467 0.740687 1.04969
3.35027 0.754482 0.662198
3.04392 0.838362 0.739323
3.06354 -0.197315 1.01739
1.43098 1.94333 1.00012
2.85353 -0.611562 1.35014
1.85735 0.668304 1.26648
1.37756 1.01859 1.38558
2.01271 1.02121 1.03146
2.84566 -0.185386 1.15959
1.39696 1.15293 1.31097
2.82147 -0.105319 1.13901
1.24302 1.18421 1.41456
3.08019 0.444967 0.802467
2.38024 0.468029 1.11038
1.43625 1.72766 1.05794
3.1784 0.794087 0.707793
1.47754 1.63443 1.06292
1.33102 0.362857 1.7165
2.62646 0.535199 0.972611
1.39626 1.34598 1.22781
3.09715 0.860628 0.722366
3.07029 -0.528651 1.14714
2.94179 0.467967 0.858696
3.20238 1.02917 0.690157
2.72513 -0.0318355 1.16266
1.33295 1.30069 1.29303
1.6236 -0.0131672 1.71757
1.96928 1.35517 0.921749
2.19161 -0.460658 1.65411
2.58918 -0.79238 1.60329
2.75083 -0.389249 1.31385
2.235 1.23549 0.867952
2.36592 1.61029 0.745651
2.87013 0.31895 0.940989
1.24871 1.1006 1.44661
2.58494 1.45202 0.736027
1.99675 0.764865 1.15156
1.59332 0.143432 1.66251
1.46522 1.03694 1.31716
2.39869 0.599458 1.0446
1.51294 1.69174 1.02238
2.42028 0.15158 1.23877
2.47993 1.15647 0.818943
2.44398 0.0529527 1.27434
1.32184 1.52657 1.20981
2.0542 0.708849 1.15031
2.53625 0.486415 1.03167
1.79372 0.883699 1.19717
1.69368 -0.198096 1.76464
1.64265 1.49283 1.01946
2.24421 1.06096 0.92387
2.67227 0.18379 1.09536
1.51974 1.95751 0.944673
1.2186 0.256726 1.83177
1.5063 2.02965 0.936683
1.42818 1.71506 1.06725
3.02665 -0.420182 1.13609
1.65985 2.40179 0.831996
2.52523 -0.8804 1.67864
2.65395 0.464068 0.988083
1.11635 0.532692 1.7983
1.94955 0.504363 1.29939
1.43161 0.534107 1.57531
2.7041 0.810953 0.849044
1.25234 0.794099 1.58105
1.32662 0.414038 1.69717
1.86431 -0.179588 1.67669
1.37125 0.593062 1.58731
1.53685 0.219776 1.65826
2.74493 -0.194738 1.22595
1.06938 0.346343 1.90253
1.72867 1.51949 0.967322
2.9104 0.0522501 1.01953
2.90207 -1.05712 1.51562
3.29113 0.78288 0.677825
1.61585 0.196708 1.62577
1.32342 0.250236 1.76873
2.5644 0.130974 1.17494
2.81581 -1.15557 1.62005
2.99311 0.984409 0.731587
1.17526 0.291959 1.84702
3.05203 0.29318 0.856653
1.69701 1.47409 0.998633
2.89921 -0.720442 1.36744
2.06737 1.24443 0.923114
1.85398 0.0860391 1.55518
1.37059 1.48963 1.18795
2.83587 0.00839316 1.08119
2.91301 -0.617816 1.31016
1.64491 0.0511702 1.67781
1.37221 0.998455 1.39864
2.06657 -0.454322 1.70947
2.90149 -0.594329 1.30785
2.70118 0.397502 0.992552
1.34988 0.0960693 1.8155
2.1357 -0.709216 1.79063
2.22812 -0.259765 1.53963
2.36537 1.76503 0.725435
