ply
format ascii 1.0
comment Created by Open3D
element vertex 200
property double x
property double y
property double z
end_header
2.26384 1.13496 0.12702
1.45778 2.00341 -0.434989
3.1041 -1.01764 0.289967
1.25744 2.11621 -0.381139
1.67543 1.46758 0.288548
1.41541 2.33025 -0.828166
3.19998 -0.125043 0.31758
2.52945 -0.137915 0.810798
1.87596 -0.0586289 1.37458
2.87394 0.29668 0.415407
2.50131 0.539132 0.589445
3.66252 0.232311 -0.305484
2.85882 0.76617 0.00141012
2.10973 2.11393 -1.40233
1.53077 1.81187 -0.194079
2.31729 0.887789 0.425541
2.28542 1.3954 -0.352231
1.96874 -0.706214 1.09552
1.31334 2.67336 -1.02288
1.39758 1.8087 -0.0145169
2.44107 0.742024 0.462443
2.63869 -0.326178 0.731739
3.09352 0.967926 -0.633846
3.03052 -0.360234 0.464315
0.556594 2.54632 -0.142765
2.64157 -0.127787 0.728059
2.37499 0.0599308 0.914471
3.75952 -0.485704 -0.114008
2.52187 0.0942266 0.786797
2.74005 1.30453 -0.809597
0.204432 2.8613 -0.0124847
2.07061 2.00058 -1.16874
3.356 0.741515 -0.60193
2.08908 -0.139894 1.15634
1.84758 -0.374084 1.3016
1.74444 1.90261 -0.602814
0.376434 2.76752 -0.170907
2.73948 -0.559422 0.640304
1.43775 2.27459 -0.788018
2.19587 -0.0225591 1.07286
3.13676 -0.27015 0.385884
0.573069 2.8762 -0.489778
2.6378 -0.508007 0.713441
2.10642 0.00496894 1.15393
1.46936 2.46388 -1.01224
2.48768 -0.730067 0.761886
3.47026 0.0162477 0.0469686
2.37619 1.28444 -0.260299
0.877897 2.0959 0.190397
2.56669 1.37298 -0.68365
3.12189 -0.808466 0.342497
3.35082 0.0161311 0.152318
3.31261 0.831935 -0.727067
0.912181 2.13372 0.0440007
1.66644 1.88353 -0.480835
2.779 0.269494 0.510516
3.32145 0.338313 -0.0185806
1.13084 2.44766 -0.670023
2.34365 0.879632 0.406343
1.36684 2.04014 -0.388621
0.825216 2.21146 0.0255875
2.25741 1.95031 -1.3971
2.22887 -0.308988 1.0207
2.99914 -0.459988 0.481918
2.31854 -0.107043 0.970687
3.47123 -1.1364 -0.0469674
2.87525 0.935493 -0.264198
3.17102 -0.721462 0.329383
2.1362 -0.118189 1.11879
2.89891 0.157141 0.463716
0.727326 2.33009 -0.0462049
2.10545 0.564775 1.00271
2.27984 0.641519 0.734894
3.11227 0.21116 0.261262
2.11055 2.04785 -1.30398
1.98783 1.29848 0.18523
1.52728 1.50658 0.443606
1.04212 2.70711 -0.807286
2.24867 1.87433 -1.23203
1.05787 2.71119 -0.823873
2.83862 1.11783 -0.550275
2.18305 1.26478 0.00499247
2.4734 0.348938 0.73735
3.36341 -0.000957375 0.148417
1.73027 1.82287 -0.453143
1.29154 1.96199 -0.164897
3.08234 0.443881 0.123417
1.71258 2.23729 -1.03693
0.40364 3.00226 -0.395427
1.41217 1.50444 0.698875
2.40254 0.363801 0.796209
1.97134 -0.246994 1.23593
1.99232 0.169687 1.27384
1.62245 2.6233 -1.27556
3.11761 1.04859 -0.894955
1.47295 2.06922 -0.55318
2.92745 -0.871141 0.45296
3.81215 0.160957 -0.446455
2.51705 -0.541515 0.785425
3.17072 0.159508 0.239162
3.97577 -1.02468 -0.639232
4.16377 -0.675823 -0.853943
4.06014 -0.990762 -0.895084
3.5265 -1.46845 -1.89181
3.93376 -1.03449 -1.57566
3.36751 -1.77146 -1.62765
3.59914 -1.44709 -1.76506
4.0568 -0.845149 -1.44526
4.19014 -0.588717 -0.995914
4.09575 -0.793041 -1.37076
3.7642 -1.17157 -1.80093
3.97659 -1.1229 -1.26929
3.63244 -1.33014 -1.87493
3.64965 -1.34847 -1.81225
3.8193 -1.24893 -1.56051
4.15602 -0.6715 -0.807718
3.83141 -1.34408 -0.859485
3.60798 -1.14062 -0.183967
3.68716 -1.52781 -1.22852
3.39693 -1.65148 -1.84538
3.46147 -1.68354 -1.59583
4.09302 -0.715694 -0.632999
4.08379 -0.90652 -1.26045
4.02836 -0.899375 -1.47371
3.67555 -1.16047 -0.274778
3.80598 -1.13465 -1.755
3.66826 -1.52204 -1.36735
3.98996 -0.75992 -1.66613
3.67815 -1.54951 -1.01474
4.12687 -0.813093 -0.851921
4.18837 -0.600215 -1.05251
3.6914 -1.09491 -2.01028
3.97244 -0.331209 -0.377711
3.35642 -1.59677 -2.03785
3.54305 -1.14655 -0.120898
3.57341 -1.13364 -2.17946
3.25397 -1.70362 -2.06327
3.73541 -1.37176 -0.609009
3.89507 -1.20788 -1.40222
3.55948 -1.12509 -2.20808
3.68299 -0.994621 -0.177564
4.14117 -0.758367 -1.21352
3.40607 -1.47166 -2.12931
3.16761 -1.83783 -1.97955
3.66325 -1.56695 -1.08479
3.78484 -1.06285 -1.86751
3.77512 -1.42896 -1.18254
3.79536 -1.00507 -0.314138
4.05917 -0.3463 -0.515698
4.05206 -0.971561 -1.28177
4.07437 -0.527024 -0.530752
3.70527 -1.49169 -1.31093
4.18259 -0.644505 -1.01183
3.30088 -1.63907 -2.08083
4.0764 -0.628827 -0.556361
3.78611 -1.04328 -1.88125
3.66638 -1.54733 -1.25661
3.99477 -0.875586 -0.530972
3.95084 -0.551085 -0.337181
3.97039 -0.706414 -0.400003
4.13278 -0.760927 -0.799661
4.02126 -0.857431 -1.53255
4.06786 -0.99145 -0.988976
4.14466 -0.788394 -1.12024
3.73326 -0.887738 -0.179259
3.33282 -1.76857 -1.73461
3.35216 -1.67583 -1.8998
4.1849 -0.595926 -0.918534
3.85407 -1.21463 -1.52324
3.91923 -0.538376 -0.294776
3.97532 -0.554132 -0.37135
3.73704 -1.18064 -0.371913
3.86861 -0.809761 -0.301718
4.16448 -0.620161 -0.805989
4.18559 -0.58834 -1.11734
3.76737 -1.43054 -0.88516
3.81746 -1.37509 -0.930174
4.07278 -0.892144 -1.33465
4.07471 -0.554264 -0.535027
4.13 -0.660869 -1.35474
4.19438 -0.534098 -1.05007
3.75072 -1.46577 -1.08379
3.40133 -1.67215 -1.78982
3.98346 -1.12195 -1.23186
3.78518 -1.41449 -0.921218
4.10131 -0.395474 -0.590581
4.09073 -0.72018 -1.44387
3.93656 -1.13582 -1.40968
4.08249 -0.904892 -1.27027
3.77657 -1.19871 -0.4496
3.94441 -1.05985 -1.51409
4.13037 -0.716851 -1.3132
3.70181 -1.49302 -1.32351
3.42485 -1.67355 -1.72616
3.69507 -1.44873 -1.49837
3.81048 -1.39253 -1.0504
3.60479 -1.07614 -0.141402
4.19292 -0.553896 -0.976729
4.1299 -0.662465 -1.35418
3.72485 -1.41622 -1.48421
