ply
format ascii 1.0
comment Created by Open3D
element vertex 400
property double x
property double y
property double z
end_header
2.66305 0.137725 -1.12629
1.54839 -0.628512 -2.22121
2.04808 -0.690736 -2.06266
3.0094 -0.258799 -1.16961
1.714 -0.771084 -2.295
2.19597 0.954506 -0.947127
1.72817 -0.726042 -2.23579
1.58269 0.0907032 -1.70611
1.25336 -0.0301088 -1.97435
2.35883 0.343947 -1.17515
1.8655 0.716541 -1.23687
2.55565 0.0114835 -1.2588
1.20455 -0.883129 -2.75123
2.34137 -0.460592 -1.70874
1.7152 -0.786219 -2.31316
1.94795 -0.812445 -2.25288
3.00451 -0.201299 -1.12916
3.04809 0.469634 -0.711901
1.70797 -0.606246 -2.12115
1.04249 -0.578823 -2.51159
2.68791 0.174547 -1.09162
1.48582 0.645616 -1.4883
2.17071 -0.460724 -1.78415
1.47965 0.316934 -1.65059
1.73723 0.0566708 -1.64111
2.34691 -0.153521 -1.46977
1.27647 -0.594223 -2.34784
1.6713 -0.54669 -2.08439
1.17828 0.568418 -1.74134
1.41934 -0.130867 -1.92499
2.28797 -0.0708213 -1.44481
3.10313 -0.537474 -1.36948
1.46033 0.236184 -1.70239
2.73785 -0.165791 -1.27416
3.19529 0.563197 -0.557547
2.2719 0.630391 -1.07376
1.09919 -0.0810988 -2.11595
1.42436 -0.333785 -2.0513
1.64703 0.475309 -1.47493
2.30522 1.01126 -0.86308
1.55224 0.461816 -1.53633
1.97263 -0.65669 -2.05557
1.79902 -0.715098 -2.19227
2.72475 0.112178 -1.10582
3.10793 1.09271 -0.374512
1.98524 0.500087 -1.28285
2.03232 -0.262535 -1.69304
2.10597 -0.706935 -2.059
2.43681 0.27462 -1.1719
1.66943 0.850799 -1.27677
1.14879 -0.229667 -2.16469
2.11345 -0.20692 -1.61678
2.10587 -0.0478208 -1.5185
2.69434 0.00441394 -1.18725
2.68016 -0.574165 -1.66722
2.5528 -0.627167 -1.78721
2.77772 -0.462515 -1.49774
2.23274 1.15162 -0.82221
2.7273 0.241654 -1.03237
2.33038 0.480515 -1.11958
2.8953 0.817462 -0.645617
3.02148 -0.457775 -1.34064
2.25343 0.149373 -1.33223
2.58851 -0.0284008 -1.2659
2.37078 0.611694 -1.03332
2.70276 -0.428467 -1.50565
1.61869 0.509315 -1.47446
2.97945 0.727306 -0.635901
1.49526 0.352592 -1.62362
2.96133 0.657864 -0.68064
2.1341 -0.171013 -1.58302
2.11282 1.05395 -0.93541
1.31666 -0.428015 -2.18454
1.06565 -0.188259 -2.20443
2.44924 0.849048 -0.87467
2.59276 -0.513259 -1.64364
1.69085 1.11377 -1.12426
1.5119 0.936488 -1.32783
1.54861 0.00296806 -1.77316
1.19374 -0.0969654 -2.05337
2.25036 0.825213 -0.986661
1.58538 -0.181379 -1.86108
2.82876 0.174134 -1.00881
1.90526 0.488158 -1.32974
2.2129 1.27083 -0.762678
1.71098 0.29521 -1.52915
1.65358 -0.837902 -2.40876
1.23727 -0.53046 -2.31812
1.36789 1.16754 -1.3005
2.15155 -0.558937 -1.8823
2.007 0.275441 -1.38634
1.1375 -0.757173 -2.62336
1.04993 -0.22731 -2.2411
2.7628 0.666962 -0.79681
1.61979 -0.726969 -2.28736
1.03415 0.0767003 -2.08733
2.86949 0.444426 -0.842405
3.23105 -0.621741 -1.37519
2.49272 0.667755 -0.942955
2.45335 0.617624 -0.988217
2.31225 1.01856 -0.855719
1.86098 0.0650629 -1.57297
2.86546 0.664741 -0.737357
1.79057 0.941426 -1.16227
2.94768 0.989507 -0.529559
3.20489 0.604127 -0.531292
1.8532 0.0737092 -1.57209
1.14443 0.128267 -1.9717
3.30323 0.936118 -0.302041
1.15038 -0.185308 -2.13647
1.39869 -0.116691 -1.92916
2.99729 1.11903 -0.433499
2.12596 0.689101 -1.11741
1.97363 -0.412574 -1.83183
3.11122 0.372933 -0.712544
3.17262 1.31505 -0.213511
1.17845 -0.274043 -2.17099
2.31833 0.845537 -0.942411
1.79344 0.276273 -1.49492
2.04262 -0.310595 -1.72264
1.31053 -0.552188 -2.28834
3.15123 -0.598742 -1.41107
2.66976 0.361814 -1.00172
2.8262 0.484746 -0.848875
2.36634 0.175727 -1.26134
1.79397 0.337859 -1.46324
1.25198 -0.0305681 -1.97555
2.07646 1.06928 -0.945175
3.0169 -0.444389 -1.33013
2.41535 0.555717 -1.03862
1.61734 0.327144 -1.56484
1.35935 -0.488069 -2.20459
2.91949 0.649988 -0.711081
3.35041 1.24526 -0.114134
1.45203 0.241097 -1.70503
2.96412 0.589108 -0.711639
1.407 1.09108 -1.31547
1.91926 0.974783 -1.07623
2.98076 -0.0747254 -1.05805
3.04329 1.07324 -0.427326
2.56797 1.2295 -0.612687
1.30953 0.632634 -1.61259
3.08852 0.37882 -0.726708
1.96676 0.910318 -1.08556
3.14092 1.19602 -0.299276
1.12478 -0.563972 -2.4295
2.37229 -0.613249 -1.84702
1.13234 -0.760811 -2.63237
3.11843 -0.387798 -1.19698
2.19552 0.718791 -1.06772
2.67826 0.669978 -0.842871
2.68334 -0.0581618 -1.2328
2.86992 0.266216 -0.933324
1.29966 0.661149 -1.60643
1.07678 0.162592 -2.00934
3.0237 -0.522468 -1.41006
2.01568 -0.581822 -1.9616
2.73245 1.30323 -0.485401
1.33813 0.709 -1.55641
1.81501 -0.28609 -1.81244
2.62546 -0.234784 -1.38631
1.17263 0.792267 -1.64476
1.7824 0.440303 -1.41799
2.14961 -0.191179 -1.58914
2.95265 0.374735 -0.823921
1.56642 -0.86678 -2.49152
2.20489 -0.4859 -1.79143
1.68109 1.14591 -1.11154
3.20067 0.40286 -0.62738
3.028 -0.666805 -1.60001
2.19911 -0.541018 -1.84499
2.78632 0.552498 -0.839166
2.26676 -0.633951 -1.91267
1.25297 0.616128 -1.66174
2.40501 -0.664556 -1.89306
2.22278 -0.755561 -2.07684
2.63764 1.21679 -0.58419
2.1644 0.813973 -1.03525
1.50278 0.778108 -1.41326
1.71884 0.629075 -1.35938
1.50301 -0.810756 -2.44725
2.23708 -0.548779 -1.83646
1.8219 -0.619094 -2.0815
2.35855 -0.579686 -1.8166
3.19162 0.629202 -0.530443
1.70137 0.487305 -1.43869
1.92204 -0.482072 -1.91211
3.02196 1.18502 -0.38369
3.1382 0.231883 -0.762289
1.27838 -0.636557 -2.38657
2.71507 -0.636513 -1.72592
1.52907 -0.728482 -2.33468
1.67614 1.04522 -1.17078
2.00708 0.797776 -1.1227
2.5799 -0.124658 -1.33283
3.22683 -0.570516 -1.30616
1.19743 -0.0589187 -2.02952
1.82044 -0.719414 -2.18797
1.23533 -0.476619 -2.27543
3.31607 1.20974 -0.160846
1.90177 0.139151 -1.51164
2.35441 1.08221 -0.800728
2.50608 0.617334 -0.961064
1.14542 -0.631158 -2.47663
3.06813 1.01953 -0.437572
1.43258 0.73343 -1.48028
2.71162 -0.201648 -1.31477
3.03898 -0.612119 -1.51285
3.19099 0.278207 -0.695722
1.97204 -0.333735 -1.77221
2.21929 1.21271 -0.793869
2.09734 -0.268948 -1.66734
3.07593 -0.672261 -1.57719
1.86529 -0.62337 -2.06669
1.53485 0.675891 -1.44328
3.10625 0.178044 -0.815754
2.08147 -0.257249 -1.66644
1.59097 0.252864 -1.61712
2.26214 0.845825 -0.970299
1.9826 -0.811267 -2.23842
1.28714 0.152454 -1.85599
1.64886 1.09144 -1.16113
2.76106 -0.252529 -1.32455
1.4163 -0.620351 -2.28579
2.99024 0.323191 -0.824649
3.19385 0.0532646 -0.8126
1.29741 0.00184107 -1.92721
2.96042 -0.216649 -1.1717
2.7386 0.54789 -0.869055
2.98686 0.0142704 -0.997607
1.54711 0.847334 -1.35121
3.09518 -0.260472 -1.10571
1.23605 -0.121638 -2.03755
1.72948 -0.814669 -2.34351
2.19136 1.24656 -0.787604
2.34767 -0.0485403 -1.40168
1.55601 0.690932 -1.42308
2.92844 0.530752 -0.76282
2.83431 0.0427218 -1.08106
3.26005 1.04588 -0.286088
3.17893 -0.456453 -1.21412
3.12114 0.591755 -0.601394
2.46862 -0.086444 -1.36527
3.05934 0.517875 -0.680859
1.49136 -0.125225 -1.87935
3.19114 0.350373 -0.660275
2.32612 0.589567 -1.06693
2.7656 -0.259624 -1.32739
2.01082 0.207957 -1.42007
1.62541 0.783109 -1.33638
2.69286 -0.574328 -1.66123
3.14721 -0.0969085 -0.944751
1.98643 0.391992 -1.3367
3.08257 0.113195 -0.869557
3.17621 -0.375413 -1.13591
2.21911 0.34329 -1.2455
1.99138 0.10249 -1.48712
2.86221 -0.33361 -1.3296
1.53152 -0.809608 -2.43073
2.61121 0.354592 -1.03775
2.37018 -0.338579 -1.59293
1.64308 0.433504 -1.49767
1.2267 -0.493095 -2.29453
2.39364 0.58065 -1.03722
1.54055 -0.340976 -1.9908
3.30156 0.91718 -0.312004
2.39621 -0.52457 -1.74449
2.97097 1.09605 -0.461642
1.54104 0.411216 -1.56759
2.92389 0.391562 -0.834322
1.98589 0.435499 -1.31496
3.084 0.954868 -0.458226
3.16412 -0.334391 -1.10958
3.35171 1.35483 -0.0544331
2.10235 -0.491883 -1.84123
2.47873 -0.389375 -1.58318
2.55062 1.33771 -0.558225
2.5565 0.316436 -1.08716
1.95062 0.646072 -1.22776
2.70376 0.619758 -0.853379
1.5165 0.389023 -1.59304
1.29493 0.97723 -1.45755
1.57955 -0.533827 -2.11924
2.17148 1.22465 -0.81021
2.6272 -0.0830832 -1.27995
2.15299 0.252108 -1.32614
2.99998 0.0378911 -0.974089
2.48619 0.655786 -0.952289
2.50117 0.453953 -1.04551
1.21048 -0.740919 -2.54571
1.81232 0.00857448 -1.62948
1.58602 -0.110794 -1.81775
2.2917 -0.33662 -1.62792
2.12177 -0.65946 -1.99847
1.51166 -0.491196 -2.11965
1.7732 1.06769 -1.10386
1.03742 -0.110887 -2.18316
3.0206 -0.2232 -1.13387
2.6828 0.0287703 -1.17894
2.70088 1.13303 -0.596734
1.3795 -0.666411 -2.35247
1.82799 -0.562112 -2.0248
2.59887 1.11902 -0.657829
2.75841 0.406729 -0.928148
3.04282 1.29765 -0.309663
2.54583 0.0840287 -1.22085
2.61642 0.615352 -0.903548
1.17909 -0.728123 -2.55453
2.2713 0.691209 -1.04365
2.46942 0.333949 -1.12377
3.06514 1.16649 -0.365581
1.89511 -0.648825 -2.07971
2.33585 0.8646 -0.923941
1.48555 1.00656 -1.30811
1.62335 0.455231 -1.4982
2.3341 -0.22712 -1.52667
1.16801 0.401225 -1.82481
3.02844 -0.195894 -1.10769
3.27276 1.07269 -0.26322
2.89102 -0.112102 -1.14353
2.44638 -0.317404 -1.54001
3.01773 -0.17789 -1.10242
1.64758 0.427059 -1.4983
3.24384 -0.679858 -1.45835
1.23341 -0.105742 -2.03028
2.14145 -0.33284 -1.69387
1.36071 -0.54731 -2.25291
1.34423 0.734497 -1.54001
2.90971 0.229507 -0.927399
1.5856 -0.394152 -2.00505
2.723 -0.467546 -1.53238
2.11991 0.858745 -1.03466
3.03965 -0.670613 -1.59851
3.22473 0.680749 -0.480861
1.38572 0.858386 -1.45099
2.67241 1.04665 -0.657524
3.20724 1.09513 -0.302649
2.86047 1.05299 -0.54979
2.51045 1.2087 -0.653374
1.80296 -0.562147 -2.03618
2.6366 -0.16867 -1.33266
1.09372 -0.235578 -2.21068
2.63187 -0.668994 -1.80558
1.88233 0.62377 -1.27423
1.77369 0.201148 -1.54428
1.97446 -0.442927 -1.85595
1.88657 -0.248711 -1.75231
1.58479 -0.780305 -2.36688
2.54086 -0.08925 -1.32992
1.12943 -0.854744 -2.77179
1.25083 0.822784 -1.56728
1.30918 -0.158015 -2.00984
2.30723 1.10245 -0.812961
2.37798 -0.689281 -1.93399
2.30163 -0.186876 -1.51418
3.15169 0.939911 -0.417858
1.46809 0.407311 -1.61369
1.62055 0.83369 -1.31386
1.62027 0.766358 -1.34772
1.54349 0.0664624 -1.74131
1.10395 0.241566 -1.94959
2.01185 1.18834 -0.910393
2.7055 -0.382155 -1.46222
3.12136 0.749176 -0.528534
1.81144 1.20146 -1.00662
3.13709 -0.218356 -1.03873
3.02019 0.859016 -0.546756
2.14839 -0.270587 -1.64484
2.77015 -0.46385 -1.50325
1.43013 -0.846628 -2.53648
1.68387 0.963216 -1.21033
2.58995 0.856572 -0.798111
2.95739 -0.214216 -1.17194
2.70128 0.725624 -0.802821
1.61156 0.705231 -1.38301
2.88866 0.506429 -0.799858
2.19413 -0.148652 -1.53984
1.29276 -0.455555 -2.2208
2.52623 -0.667435 -1.84785
2.00259 -0.118022 -1.61146
1.17731 0.92414 -1.57892
2.11102 0.0441875 -1.46154
2.68301 0.858309 -0.747398
3.18158 -0.594518 -1.37979
2.16416 -0.774785 -2.12352
1.84476 -0.73193 -2.19209
2.39531 -0.572841 -1.79388
2.48611 -0.117658 -1.37677
1.55554 0.954279 -1.29126
1.99691 -0.781819 -2.19351
3.01918 0.158418 -0.891365
2.77436 -0.499354 -1.53713
2.30539 -0.539876 -1.79877
1.41629 -0.789006 -2.46813
1.77044 -0.293122 -1.83909
1.29865 -0.00201708 -1.92847
3.10443 0.126581 -0.845198
2.06822 -0.136771 -1.59197
2.40965 0.18488 -1.23438
2.52005 -0.0747317 -1.33134
