ply
format ascii 1.0
comment Created by Open3D
element vertex 400
property double x
property double y
property double z
end_header
0.68907 0.919981 -2.97434
-0.35729 -1.5231 -2.50353
0.25236 0.48598 -2.70149
-0.93586 -0.225277 -1.95564
0.93152 0.519964 -3.09423
0.71792 0.656054 -2.99014
-0.62584 0.402301 -2.10494
0.34287 0.0717431 -2.76706
-0.26294 -1.50153 -2.59127
-0.87191 -1.9348 -2.28405
0.66387 1.28672 -2.95358
-0.16386 -0.0994121 -2.41059
-0.78256 -0.920794 -2.04319
-0.30296 -1.30714 -2.45851
-0.3378 -0.954 -2.34064
0.88786 1.62763 -3.05275
0.59245 1.07284 -2.91756
-0.93107 -1.54431 -2.06345
-0.11773 0.988344 -2.42181
-0.93823 -0.97761 -1.97042
0.19961 -0.142878 -2.67385
0.07809 -0.476526 -2.60623
-0.37618 -1.01976 -2.32193
-0.15297 0.0506571 -2.41732
-0.11665 0.881904 -2.43007
0.39179 -0.079995 -2.80709
-0.95157 -0.220695 -1.94912
0.49035 -0.835546 -3.03142
-0.58936 -0.576723 -2.13684
0.64762 -0.659165 -3.09226
0.93774 0.991548 -3.09495
-0.4384 -0.829076 -2.25063
-0.73825 0.133148 -2.04785
-0.39004 -1.2206 -2.35487
-0.61726 -0.0193394 -2.11563
-0.38995 -0.0957635 -2.25623
-0.09715 -1.46823 -2.76133
0.62619 -0.595667 -3.0549
0.26949 0.88102 -2.7107
-0.63615 0.258539 -2.1026
-0.62681 -0.691961 -2.11862
0.81985 -0.0748614 -3.07444
-0.74257 -1.46107 -2.15429
-0.21791 -0.773893 -2.40816
-0.26327 -1.29938 -2.49269
-0.59836 0.583116 -2.11301
0.61726 -0.375481 -2.99544
-0.42326 -0.467051 -2.23922
0.77655 -0.781728 -3.24721
-0.32662 -0.362923 -2.30167
-0.97534 -1.8214 -2.14448
-0.57587 0.224973 -2.13866
-0.85423 -0.98396 -2.01071
-0.73599 -1.86973 -2.35184
-0.90598 -1.4895 -2.06227
0.28295 -0.238267 -2.74017
0.75985 0.462964 -3.01348
0.98728 0.943309 -3.11503
-0.15947 0.354685 -2.41246
-0.38912 0.221834 -2.25641
-0.99889 -1.31743 -1.9809
0.78199 0.0711703 -3.04041
-0.59538 -0.0225072 -2.12836
0.93567 1.08807 -3.09373
0.82088 -0.123015 -3.08093
-0.81658 -1.41191 -2.09439
0.72952 -0.543341 -3.11319
0.28953 0.259954 -2.72743
-0.54171 -0.998541 -2.19808
0.59615 -0.497916 -3.00636
0.53374 -0.497499 -2.96051
-0.58569 0.48434 -2.12602
0.50041 0.673668 -2.86419
-0.93353 -1.88295 -2.20487
-0.3945 -1.32203 -2.38157
0.79613 0.446651 -3.03227
0.47202 1.06342 -2.84286
0.58799 1.43221 -2.89954
0.13716 -0.707185 -2.68646
0.73005 -0.230397 -3.04379
0.35821 -0.816708 -2.90612
0.64185 -0.794753 -3.1444
0.15435 -1.02449 -2.79241
0.35292 -0.388286 -2.8069
-0.3922 -1.47844 -2.44606
-0.0921 0.640688 -2.45715
0.38008 0.511316 -2.78727
0.04327 -0.955916 -2.66405
0.23766 0.679883 -2.69102
0.78617 0.755091 -3.02533
0.17676 -1.22112 -2.91678
-0.25995 -0.874564 -2.38909
-0.70487 0.0572474 -2.06638
-0.5648 -1.15565 -2.20629
0.35478 -0.859517 -2.91846
0.29791 0.74534 -2.73194
-0.17625 -1.18479 -2.53292
0.78089 1.11877 -3.02133
0.96633 -0.178007 -3.16348
-0.12694 -1.1023 -2.5518
0.2424 -0.853146 -2.81419
0.1214 -0.877725 -2.71254
-0.77345 -0.396376 -2.03131
0.54671 0.686374 -2.89255
0.42673 1.20193 -2.80798
0.30213 -0.586418 -2.79883
-0.31407 -1.32745 -2.45582
0.66955 0.0133431 -2.98086
0.49016 -0.270419 -2.89175
-0.8006 -0.503029 -2.01851
-0.10803 0.70162 -2.44414
-0.35213 -1.26263 -2.39929
-0.86762 -1.3229 -2.04656
-0.66827 -0.176671 -2.08679
0.67511 -0.262994 -3.0146
0.70214 0.541495 -2.98206
-0.42219 -1.05594 -2.29306
-0.8223 -1.20379 -2.05168
-0.9691 -0.0167796 -1.94126
0.93436 -0.00830143 -3.12449
-0.44595 0.110733 -2.21989
0.76355 1.56365 -2.99355
-0.55481 -0.845891 -2.17326
0.85046 -0.852474 -3.34997
0.42772 -1.05295 -3.08627
-0.84741 0.459725 -1.98077
-0.34262 -0.270355 -2.28898
0.9176 1.44535 -3.07805
0.22104 -1.19389 -2.94972
0.86108 1.6159 -3.04057
0.38086 -1.11274 -3.07551
0.65465 -0.814439 -3.165
0.41843 0.531518 -2.81226
-0.47735 0.414768 -2.19655
0.32262 0.955139 -2.74582
-0.10708 -0.233161 -2.45353
-0.02543 0.524532 -2.50638
-0.38997 -1.1617 -2.34005
0.08175 1.00018 -2.57133
-0.95267 -1.36093 -2.00987
-0.99454 -0.679289 -1.93453
0.18381 1.17851 -2.63586
-0.67063 0.608487 -2.06726
0.70556 -0.249418 -3.03167
-0.15879 -1.30769 -2.59879
-0.97667 -0.978706 -1.95379
-0.69328 -1.38599 -2.16719
-0.92495 -0.0656549 -1.95994
-0.25303 -1.22297 -2.47489
0.77223 -0.300188 -3.08118
0.9833 1.6694 -3.09262
0.17747 0.95207 -2.64361
-0.06262 0.97976 -2.46423
0.44979 -0.0140644 -2.84296
-0.54611 0.192637 -2.15698
-0.95544 -1.74463 -2.12044
-0.94081 -0.128962 -1.95345
0.61738 1.48969 -2.91346
-0.94144 0.0195939 -1.9523
0.35698 1.21446 -2.75927
0.05213 0.60423 -2.56101
-0.84228 -0.490605 -1.99811
-0.94229 -0.0290409 -1.95237
0.72128 -0.243577 -3.04047
-0.16071 -0.369987 -2.41935
0.87653 0.9463 -3.06833
-0.84061 0.156363 -1.99579
0.82976 -0.873553 -3.34836
0.31781 0.501721 -2.74589
-0.88342 -0.421294 -1.97864
0.37455 1.05743 -2.77844
0.83117 0.837547 -3.04728
-0.1611 0.365482 -2.41128
0.20988 0.800374 -2.67045
0.60163 -0.0283903 -2.94243
0.45339 0.232737 -2.83698
0.35442 -0.265646 -2.79449
0.11343 -1.05819 -2.76577
-0.2412 0.1147 -2.35603
-0.46846 -0.816942 -2.2286
0.2319 -0.0050346 -2.6919
-0.47538 -0.537741 -2.20725
-0.41207 -0.222831 -2.24234
-0.05212 -0.964649 -2.58061
0.52294 -0.301213 -2.91851
-0.20098 -1.09645 -2.48354
-0.81179 -1.86959 -2.2867
-0.94998 -1.66466 -2.09187
-0.13543 0.815259 -2.41977
-0.96357 -1.70508 -2.09951
0.52212 0.858124 -2.87724
0.11715 1.07356 -2.59336
-0.6839 0.57789 -2.06167
0.74028 -0.232829 -3.05035
0.56211 -0.707404 -3.042
0.45115 -0.575783 -2.9151
0.90698 0.236697 -3.0924
0.1062 -0.148613 -2.60616
-0.7557 -1.52875 -2.16628
-0.03713 0.94951 -2.48542
0.19107 0.978961 -2.65241
0.24938 -0.419187 -2.73225
0.50946 -0.562284 -2.95716
-0.61293 -0.657588 -2.12549
0.49347 -0.476413 -2.92618
0.99127 -0.0344856 -3.15332
0.71411 -0.687442 -3.1539
-0.58754 -0.382417 -2.13403
-0.038 0.193917 -2.4981
0.88769 0.389453 -3.07759
-0.74314 -0.149291 -2.0465
0.6574 -0.737088 -3.13077
-0.40066 -1.28858 -2.36553
-0.94039 -1.32524 -2.00948
-0.44722 0.552307 -2.2118
0.92893 0.729338 -3.09143
-0.59117 -0.91332 -2.15576
0.84635 -0.805013 -3.31499
-0.0308 -1.3656 -2.7696
0.18598 0.851229 -2.65261
0.24826 -1.00393 -2.87615
-0.0942 -0.768356 -2.50569
-0.98572 -0.204205 -1.93541
0.57163 -0.0766079 -2.92713
-0.30353 -0.786649 -2.34429
-0.19913 -0.0357725 -2.38539
0.89733 0.651747 -3.07801
0.92155 0.409669 -3.09223
-0.46337 -1.04474 -2.26037
-0.51582 -0.392614 -2.17792
0.35745 -0.417858 -2.81427
0.41382 -0.300329 -2.84102
-0.95049 -0.322073 -1.94956
0.85121 0.914975 -3.05672
0.39817 -0.277327 -2.82725
0.93855 0.023278 -3.12305
0.82326 -0.715069 -3.24727
0.34976 1.0214 -2.76265
-0.5016 0.169041 -2.18458
-0.27322 -0.0671398 -2.33438
0.22629 -0.319146 -2.70477
-0.53047 -1.32711 -2.27082
0.74772 -0.923199 -3.31397
0.51819 0.24077 -2.87815
-0.22009 -1.48741 -2.63013
0.31982 -0.0898026 -2.75735
-0.0803 -0.0788848 -2.46967
-0.54639 -0.797715 -2.17493
0.65428 1.31454 -2.94683
0.37197 -0.552844 -2.84794
0.22399 1.13597 -2.66854
0.95729 -0.535365 -3.25415
-0.41242 0.00578413 -2.2415
-0.15845 -0.664192 -2.44162
0.58473 -0.739259 -3.07256
-0.77187 -0.369661 -2.03198
0.82472 -0.249948 -3.1026
-0.9625 -0.802064 -1.95087
-0.89295 -1.52988 -2.08054
0.28673 0.530054 -2.72491
0.87038 1.29513 -3.06167
0.14338 -1.02955 -2.7837
0.76458 1.43694 -3.0028
-0.30042 -0.301737 -2.31832
-0.64314 -1.4532 -2.22239
0.58484 -0.837773 -3.11635
0.54716 0.049554 -2.90324
0.30852 -1.05899 -2.96439
0.5164 -0.301461 -2.91399
0.93033 -0.0368403 -3.12589
-0.71022 0.381675 -2.05716
-0.02082 0.511804 -2.50975
-0.28434 -0.620423 -2.34339
0.61801 -0.953675 -3.214
-0.89127 -0.705876 -1.97902
0.82539 -0.75869 -3.27179
-0.14929 0.978438 -2.39868
0.90142 -0.602271 -3.24791
-0.61567 -1.59648 -2.29871
-0.42874 0.33345 -2.22954
0.07492 -0.542224 -2.61082
0.73428 0.8661 -2.99871
0.66247 -0.570006 -3.07384
0.40683 0.0904531 -2.80984
-0.38166 -1.41912 -2.42959
0.55106 1.28266 -2.88539
0.18308 0.891096 -2.64956
-0.09227 0.514017 -2.4589
0.47241 -0.696309 -2.96472
-0.46425 -1.67294 -2.48296
0.64097 -0.82291 -3.15768
-0.51375 -1.72455 -2.46618
0.84337 0.25178 -3.06147
-0.00608 -0.0729593 -2.52282
-0.25878 -1.48826 -2.58787
0.82721 1.02772 -3.04504
-0.34156 -1.24693 -2.40365
0.42426 -1.05183 -3.08186
-0.52429 0.281421 -2.16941
0.64277 1.42229 -2.93408
-0.22928 -1.16798 -2.47893
0.16589 0.59088 -2.64149
-0.70299 -1.13177 -2.11105
0.34733 1.26967 -2.74881
-0.55953 -1.28826 -2.23839
-0.05172 -0.531405 -2.51105
0.82018 1.55566 -3.02451
-0.00164 0.447952 -2.52365
-0.5483 -0.902862 -2.18275
0.45373 0.870569 -2.83416
-0.79453 -1.29451 -2.08258
0.91561 0.21047 -3.09779
0.38619 -0.141209 -2.80706
-0.51886 0.55254 -2.16497
0.59772 0.402294 -2.92399
0.32005 0.186811 -2.74904
0.96343 -0.359514 -3.20129
-0.84103 -0.612383 -2.00039
-0.92743 -0.710932 -1.96303
0.94637 -0.665119 -3.30497
0.98793 1.3558 -3.11109
0.7142 1.26301 -2.98288
-0.52544 -1.25805 -2.2567
-0.37552 0.690766 -2.25384
-0.43756 0.169324 -2.22512
0.2866 0.0762968 -2.72813
-0.62766 -1.55101 -2.26947
-0.40572 -1.67393 -2.54731
-0.95959 -1.45071 -2.02486
0.09254 0.0638942 -2.59148
0.47618 0.143932 -2.85389
0.62631 -0.895027 -3.1846
-0.79846 -0.639939 -2.02199
0.59921 -0.816935 -3.11874
-0.84845 -0.176798 -1.99442
0.37801 -0.992516 -2.99984
-0.00615 -0.420877 -2.53701
-0.13794 -1.13164 -2.55092
-0.11836 -1.02647 -2.5379
-0.96715 -1.93823 -2.21727
-0.61067 -0.214444 -2.11953
-0.68014 0.228551 -2.0781
0.62204 0.911864 -2.93665
0.81129 0.517864 -3.03883
0.56206 0.530768 -2.90191
-0.51195 -0.113703 -2.17855
-0.54317 -0.606676 -2.1664
0.30429 -0.43241 -2.77587
-0.02831 -0.797737 -2.56485
0.45433 -0.0211708 -2.84637
0.20736 -0.363333 -2.69447
-0.78375 -1.72023 -2.22333
0.4748 -0.131635 -2.8675
0.31195 1.13959 -2.73167
0.70732 0.115676 -2.99622
0.31556 0.959084 -2.74087
-0.88832 0.0395414 -1.97525
0.93578 0.945918 -3.09418
-0.70065 -1.155 -2.1159
-0.19814 0.555553 -2.38321
-0.4149 0.351736 -2.23834
-0.62205 0.118596 -2.11241
0.28446 0.117832 -2.72577
-0.88445 -0.845141 -1.98736
-0.89372 -0.0989667 -1.97368
0.10326 0.249842 -2.5979
-0.88693 -0.782095 -1.9835
0.86781 0.974322 -3.0643
-0.79047 -0.774529 -2.03062
0.075 -0.680802 -2.63024
-0.19434 0.929202 -2.36876
0.80308 1.1238 -3.03243
0.23954 -0.712028 -2.77358
0.93809 0.276486 -3.10438
0.9515 1.6455 -3.08079
-0.35536 -1.62103 -2.56623
0.02996 -0.683864 -2.59387
0.79702 -0.0933664 -3.06415
-0.45225 -0.44296 -2.2195
0.69135 0.76644 -2.97577
-0.31006 -1.12725 -2.39761
0.62939 0.950917 -2.94066
0.23054 1.0319 -2.67866
-0.26247 -1.46163 -2.56866
0.32518 0.0349523 -2.756
-0.81177 -1.13931 -2.04868
-0.25083 -1.19205 -2.46697
0.61053 1.18469 -2.92573
-0.66183 -1.18597 -2.14566
0.33828 0.6262 -2.75957
0.83793 0.497796 -3.05204
-0.69758 -1.54798 -2.21436
-0.6359 -0.454076 -2.1066
-0.02525 -1.28867 -2.73025
0.4513 1.36348 -2.81456
-0.50874 -0.317357 -2.1814
0.43907 0.443031 -2.8257
0.25569 -0.799271 -2.80987
-0.76184 -1.42953 -2.1329
-0.77866 -0.393399 -2.02865
