ply
format ascii 1.0
comment Created by Open3D
element vertex 400
property double x
property double y
property double z
end_header
-0.290386 0.369006 -2.85637
1.34527 0.663362 -2.34019
0.99708 0.87106 -2.67832
-0.312593 0.828763 -3.11559
1.3682 0.830414 -2.49756
-0.433994 -0.503276 -2.48772
1.29992 0.799517 -2.48665
0.710124 0.059006 -2.21725
1.11982 0.0530211 -2.05258
-0.161165 0.0884152 -2.65133
0.0238669 -0.400567 -2.31568
-0.0966256 0.443576 -2.81247
2.01849 0.743479 -2.27443
0.503391 0.775939 -2.7854
1.38693 0.842541 -2.50546
1.23564 0.934656 -2.67013
-0.359261 0.778431 -3.09961
-0.903068 0.208278 -3.02644
1.18135 0.6966 -2.42964
1.81196 0.446803 -2.06085
-0.340543 0.345053 -2.86564
0.429767 -0.464427 -2.10692
0.645804 0.722356 -2.67742
0.653269 -0.175149 -2.13467
0.592507 0.139733 -2.31167
0.22012 0.51842 -2.71562
1.56908 0.544018 -2.17643
1.15185 0.635814 -2.38868
0.80562 -0.50448 -1.95963
1.02701 0.198181 -2.15482
0.205082 0.428188 -2.66494
-0.115165 1.08965 -3.25471
0.72651 -0.11028 -2.13226
-0.122475 0.656545 -2.9497
-1.12549 0.178131 -3.0886
-0.279585 -0.192625 -2.56839
1.32391 0.0425438 -1.98432
1.18326 0.37515 -2.19253
0.387232 -0.259162 -2.2129
-0.569859 -0.517971 -2.54726
0.486349 -0.278939 -2.16071
1.01701 0.820648 -2.61536
1.22765 0.81313 -2.52697
-0.329666 0.411876 -2.89506
-1.37417 -0.323703 -3.00006
0.0624973 -0.170197 -2.40917
0.581744 0.511416 -2.54277
0.971548 0.901572 -2.72353
-0.182262 0.174742 -2.70611
0.113987 -0.583927 -2.18793
1.37998 0.190002 -2.02927
0.465665 0.489635 -2.58203
0.345473 0.349857 -2.54972
-0.219322 0.495492 -2.89404
0.341482 0.975418 -3.03718
0.515363 0.976737 -2.98071
0.124311 0.917769 -3.05207
-0.606709 -0.664451 -2.48552
-0.425901 0.299351 -2.87947
-0.229741 -0.0412689 -2.61926
-0.976759 -0.153121 -2.91382
-0.122386 0.997176 -3.18227
0.0697283 0.225292 -2.61142
-0.0956134 0.488923 -2.83822
-0.354634 -0.144086 -2.62983
0.156818 0.865282 -2.99703
0.391284 -0.298724 -2.19346
-1.00098 -0.0443738 -2.96758
0.614207 -0.201427 -2.13973
-0.93715 0.0110097 -2.96432
0.418436 0.465374 -2.58803
-0.430847 -0.617523 -2.42545
1.36977 0.418905 -2.15343
1.44154 0.123766 -1.98423
-0.585248 -0.328412 -2.65223
0.346082 0.898728 -2.95972
-0.0917299 -0.80793 -2.16847
0.20815 -0.7128 -2.09154
0.804861 0.124639 -2.20883
1.23124 0.0905327 -2.03141
-0.392791 -0.371719 -2.53498
0.909184 0.297396 -2.25718
-0.475509 0.392789 -2.94441
0.142061 -0.185641 -2.3626
-0.678253 -0.774787 -2.45628
0.449312 -0.0787416 -2.26822
1.50962 0.862602 -2.49309
1.54569 0.477544 -2.13745
0.192892 -0.965942 -1.9888
0.762886 0.797194 -2.69576
0.197041 0.0350992 -2.44659
1.90851 0.624887 -2.17171
1.4898 0.15184 -1.98343
-0.749516 -0.0643438 -2.85428
1.39371 0.765758 -2.4198
1.28976 -0.120555 -1.9376
-0.703731 0.168641 -2.93555
-0.147703 1.20144 -3.35442
-0.501513 -0.154027 -2.69693
-0.432355 -0.122515 -2.67863
-0.581184 -0.522126 -2.55065
0.475683 0.172617 -2.38446
-0.846634 -0.0278464 -2.91185
-0.0617756 -0.623614 -2.24735
-1.14277 -0.287697 -2.92569
-1.16252 0.145202 -3.08966
0.476325 0.162525 -2.37864
1.12776 -0.125406 -1.98146
-1.48615 -0.114391 -3.10759
1.34407 0.152076 -2.02301
1.03646 0.178839 -2.14135
-1.27983 -0.385194 -2.93898
-0.190295 -0.291695 -2.47424
0.764551 0.620019 -2.54009
-0.907199 0.316519 -3.06648
-1.59674 -0.496755 -3.00734
1.38289 0.238965 -2.05123
-0.46671 -0.3677 -2.57385
0.387127 -0.0349872 -2.31872
0.614316 0.555654 -2.55932
1.49221 0.521016 -2.18191
-0.0863411 1.15422 -3.30759
-0.455797 0.174447 -2.83263
-0.6885 0.11828 -2.90774
-0.0489755 0.238676 -2.6762
0.344451 -0.089161 -2.31235
1.12159 0.0529398 -2.05193
-0.409724 -0.642716 -2.40155
-0.13261 0.98476 -3.17507
-0.356484 -0.0801463 -2.66232
0.514591 -0.137941 -2.21082
1.38238 0.484117 -2.1911
-0.890069 0.00362906 -2.94267
-1.74539 -0.370959 -3.09919
0.731324 -0.117444 -2.1272
-0.894773 0.0729732 -2.97213
0.206907 -0.885177 -2.01847
-0.202384 -0.610766 -2.31906
-0.440743 0.661763 -3.06232
-1.29467 -0.328965 -2.96845
-0.958247 -0.624493 -2.67829
0.619672 -0.514272 -2.0167
-0.886205 0.303135 -3.05505
-0.200011 -0.538559 -2.35483
-1.47929 -0.403317 -3.00573
1.70056 0.465184 -2.09222
0.645452 0.909528 -2.85858
1.91947 0.625761 -2.17128
-0.306818 0.975478 -3.20345
-0.271926 -0.295444 -2.51312
-0.672309 -0.0951114 -2.80559
-0.159772 0.545962 -2.89825
-0.58177 0.326 -2.95528
0.611801 -0.543131 -2.00936
1.18222 -0.180683 -1.94757
-0.047974 1.04948 -3.20941
0.898405 0.773515 -2.61608
-1.16051 -0.6353 -2.76584
0.539557 -0.571987 -2.0242
0.788885 0.462145 -2.41353
0.041873 0.678057 -2.89974
0.669807 -0.705997 -1.9393
0.285506 -0.183476 -2.29485
0.421613 0.487657 -2.60138
-0.740102 0.258842 -2.98709
1.62732 0.856332 -2.45585
0.642689 0.753931 -2.70655
-0.106153 -0.839267 -2.15849
-1.02826 0.32271 -3.10463
0.14827 1.16089 -3.28692
0.704823 0.797397 -2.72032
-0.695497 0.0448866 -2.87877
0.754906 0.893344 -2.7983
0.691615 -0.519815 -1.99058
0.682618 0.960072 -2.90202
0.945539 0.974701 -2.82503
-1.01125 -0.590744 -2.72166
-0.309212 -0.389568 -2.48426
0.324835 -0.576005 -2.10328
0.217337 -0.371457 -2.23894
1.60451 0.793343 -2.38779
0.682122 0.815568 -2.74733
1.09865 0.743184 -2.50517
0.617375 0.878425 -2.83656
-1.16345 0.118011 -3.08159
0.32846 -0.25175 -2.24292
0.874028 0.661882 -2.52602
-1.35012 -0.434894 -2.9448
-0.84181 0.45098 -3.09373
1.61185 0.579343 -2.19123
0.391218 1.03522 -3.0872
1.47594 0.737597 -2.3658
-0.0281514 -0.752809 -2.16913
-0.158606 -0.426204 -2.39133
-0.0104886 0.569099 -2.85024
-0.217501 1.16147 -3.3238
1.19968 0.0585335 -2.0282
1.21526 0.823245 -2.54247
1.49668 0.431779 -2.12234
-1.68094 -0.352388 -3.08803
0.386164 0.120886 -2.39946
-0.663307 -0.564453 -2.56847
-0.479562 -0.105078 -2.71002
1.74814 0.527747 -2.12356
-1.28385 -0.272846 -2.9869
0.425297 -0.560607 -2.07033
-0.0668599 0.67836 -2.94237
0.0551937 1.12406 -3.26072
-0.934337 0.429587 -3.11228
0.694672 0.552898 -2.52048
-0.64002 -0.72213 -2.46881
0.531688 0.537572 -2.58448
0.108257 1.18143 -3.31562
1.06724 0.760295 -2.53418
0.36135 -0.47455 -2.1307
-0.768112 0.486692 -3.0853
0.535252 0.522538 -2.57219
0.589836 -0.0810956 -2.20357
-0.417292 -0.386108 -2.53987
1.20717 0.94431 -2.69266
0.957713 -0.0959328 -2.04897
-0.0354798 -0.80245 -2.14779
-0.0683973 0.737987 -2.982
1.45873 0.613071 -2.26093
-0.743775 0.317465 -3.01198
-0.779651 0.628481 -3.14023
1.05146 0.0403569 -2.07129
-0.29896 0.77587 -3.081
-0.64702 0.0329902 -2.85231
-0.517371 0.586961 -3.05034
0.234301 -0.622091 -2.12024
-0.405926 0.861166 -3.15661
1.20456 0.127041 -2.056
1.41342 0.868896 -2.52866
-0.641065 -0.760595 -2.4468
0.135405 0.428105 -2.69759
0.330678 -0.480698 -2.14086
-0.820192 0.112412 -2.95872
-0.383521 0.509371 -2.96602
-1.50747 -0.227902 -3.07883
-0.302683 1.0538 -3.2536
-1.06131 0.125839 -3.05141
0.0585187 0.499951 -2.77707
-0.946762 0.169462 -3.02758
0.953722 0.217468 -2.19429
-0.982706 0.365746 -3.10526
-0.299992 -0.138998 -2.60527
-0.0662643 0.745494 -2.98626
0.240957 0.0957031 -2.45683
0.201905 -0.538875 -2.17025
0.330602 0.979628 -3.04501
-0.607989 0.741199 -3.1445
0.134936 -0.0743256 -2.42128
-0.695151 0.534961 -3.0825
-0.388452 0.987012 -3.22404
-0.0370936 0.0438136 -2.56715
0.333443 0.181967 -2.45832
-0.0900474 0.840137 -3.05899
1.57709 0.80179 -2.40404
-0.396476 0.161446 -2.79961
0.360868 0.683322 -2.76996
0.418897 -0.223467 -2.21478
1.52105 0.442595 -2.12211
-0.353989 -0.109231 -2.64674
1.0803 0.419944 -2.26041
-1.47215 -0.0981413 -3.10838
0.524833 0.845647 -2.84072
-1.23803 -0.373902 -2.92722
0.530796 -0.237886 -2.15937
-0.722283 0.234023 -2.9702
0.105748 -0.112918 -2.41632
-1.25731 -0.210017 -3.00131
-0.415653 0.948583 -3.20657
-1.82433 -0.466758 -3.08649
0.73356 0.72673 -2.64304
0.315623 0.760507 -2.8503
-1.02386 -0.724424 -2.6521
-0.31975 0.17705 -2.77203
-0.00520479 -0.310505 -2.37345
-0.662441 -0.0422092 -2.82525
0.569286 -0.226506 -2.14791
0.407864 -0.825034 -1.97718
1.22032 0.595462 -2.32968
-0.6072 -0.7479 -2.43792
-0.0876346 0.548875 -2.87026
0.0847556 0.102744 -2.53768
-0.549347 0.571077 -3.05324
-0.48757 -0.14557 -2.69427
-0.36439 0.0376996 -2.72412
1.80481 0.638948 -2.19756
0.560277 0.206243 -2.36291
0.854268 0.236342 -2.2464
0.426116 0.656704 -2.72075
0.900794 0.868946 -2.71371
1.24104 0.537627 -2.27818
-0.135262 -0.740248 -2.22181
1.41695 0.0457705 -1.96084
-0.357114 0.802724 -3.11249
-0.227232 0.470512 -2.8836
-1.0085 -0.496599 -2.76964
1.54398 0.63819 -2.25612
1.03322 0.698473 -2.49037
-0.906227 -0.517643 -2.71107
-0.570345 0.164395 -2.87809
-1.45099 -0.526636 -2.94208
-0.142664 0.377244 -2.79573
-0.578596 -0.067174 -2.77515
1.82349 0.617561 -2.17705
-0.320214 -0.246576 -2.56173
-0.253078 0.133158 -2.71857
-1.38068 -0.403711 -2.96988
1.07108 0.790207 -2.56242
-0.49525 -0.37886 -2.58236
0.185848 -0.783568 -2.06946
0.422944 -0.249274 -2.20139
0.292943 0.577327 -2.72235
0.923358 -0.359248 -1.96813
-0.389873 0.782383 -3.11009
-1.5395 -0.247038 -3.08218
-0.317412 0.662582 -3.02299
0.275575 0.689855 -2.81163
-0.393976 0.763246 -3.10095
0.418997 -0.216267 -2.21799
-0.0680369 1.24809 -3.3984
1.19559 0.112231 -2.05243
0.550145 0.605865 -2.62603
1.43782 0.53408 -2.20774
0.516405 -0.592465 -2.02494
-0.595839 0.371949 -2.9809
1.08517 0.480012 -2.2982
0.180149 0.903831 -3.02195
-0.300576 -0.443454 -2.45255
0.142627 1.16766 -3.29555
-1.23379 0.0842123 -3.0926
0.390481 -0.687631 -2.03399
-0.922006 -0.429944 -2.76308
-1.4815 -0.290666 -3.04925
-1.10152 -0.373224 -2.87067
-0.892026 -0.624924 -2.6465
1.05438 0.690584 -2.47469
-0.0255413 0.625421 -2.89211
1.44588 0.175156 -2.00439
0.505366 1.03384 -3.05126
0.0712592 -0.313039 -2.33514
0.457073 0.0247475 -2.31553
0.792344 0.645746 -2.54842
0.695504 0.453066 -2.45002
1.49092 0.796412 -2.42188
-0.00397463 0.525875 -2.82065
2.06329 0.694518 -2.22475
0.560297 -0.704307 -1.97179
1.15657 0.1842 -2.09924
-0.636359 -0.597411 -2.53728
0.736097 0.970983 -2.89579
0.287057 0.532523 -2.69429
-1.31897 -0.172867 -3.03671
0.604467 -0.259137 -2.11959
0.172263 -0.585203 -2.16225
0.218129 -0.525789 -2.16908
0.764148 0.0672519 -2.19784
1.09907 -0.240729 -1.95245
-0.439643 -0.767727 -2.34644
0.10692 0.828 -2.98443
-1.16296 -0.0141047 -3.03823
-0.269179 -0.844481 -2.22542
-0.492784 0.841144 -3.16507
-1.12862 -0.147194 -2.97707
0.489563 0.555197 -2.61656
0.132815 0.916345 -3.04817
1.72295 0.796388 -2.36495
0.0225735 -0.678183 -2.1835
-0.716797 -0.289223 -2.73516
-0.29798 0.77275 -3.07889
-0.730931 -0.136749 -2.81337
0.267508 -0.474628 -2.17034
-0.764312 0.120322 -2.93972
0.348546 0.465304 -2.62095
1.41854 0.433974 -2.14712
0.589336 0.999754 -2.98246
0.489577 0.377613 -2.49776
0.578501 -0.821401 -1.92969
0.271495 0.271425 -2.53911
-0.803055 -0.260195 -2.78949
-0.127967 1.16235 -3.31848
1.01698 0.971611 -2.79553
1.2108 0.8407 -2.56346
0.579471 0.884389 -2.85757
0.0681444 0.532516 -2.79318
0.152543 -0.713563 -2.11312
1.15493 0.92628 -2.68673
-0.658864 0.472634 -3.04591
0.168684 0.946416 -3.0635
0.616507 0.829643 -2.7881
1.65653 0.747787 -2.3274
0.833759 0.453831 -2.38778
1.05293 0.0441757 -2.07241
-0.72928 0.53118 -3.09093
0.44763 0.41482 -2.54129
-0.0940824 0.244692 -2.70103
0.00312206 0.506568 -2.80572
