ply
format ascii 1.0
comment Created by Open3D
element vertex 400
property double x
property double y
property double z
end_header
0.00513633 -2.05949 2.43441
-1.48804 -2.5386 0.237574
-0.106993 -2.10851 1.77218
-0.0107527 -2.17016 0.203428
-0.475082 -2.09918 2.46578
-0.236879 -2.09721 2.33074
0.348044 -2.05069 0.811087
-0.515426 -2.1799 1.66185
-1.52965 -2.56315 0.358942
-1.54999 -2.66886 -0.441906
0.333804 -2.00067 2.58957
-0.355946 -2.15406 1.03972
-0.693885 -2.27009 0.00784181
-1.32428 -2.44138 0.361459
-0.988168 -2.30647 0.454458
0.498276 -1.92339 2.968
0.192238 -2.03695 2.41413
-1.1548 -2.45296 -0.398794
0.547804 -1.98127 1.62183
-0.653889 -2.29414 -0.167026
-0.613336 -2.2034 1.40663
-0.82746 -2.2553 1.12007
-1.02237 -2.31932 0.385083
-0.234284 -2.13237 1.12582
0.455201 -2.00337 1.5735
-0.675264 -2.21182 1.64059
0.00196814 -2.17178 0.19135
-1.4023 -2.46467 1.44467
-0.510517 -2.20305 0.363319
-1.33929 -2.41213 1.67449
-0.0757761 -2.02763 2.70633
-0.818057 -2.26165 0.400781
0.182873 -2.09758 0.568478
-1.19169 -2.38378 0.291335
-0.0177038 -2.11726 0.611676
-0.217181 -2.13481 0.804497
-1.60902 -2.62053 0.577855
-1.26891 -2.38166 1.6724
0.220279 -2.04996 1.98642
0.230833 -2.0749 0.730745
-0.587485 -2.22309 0.270108
-0.924064 -2.22523 2.07951
-1.1913 -2.42405 -0.178467
-0.904271 -2.27778 0.663047
-1.3425 -2.44957 0.410497
0.487457 -2.01735 0.924959
-1.06779 -2.30312 1.74645
-0.514949 -2.19132 0.586793
-1.53106 -2.49787 1.78185
-0.483535 -2.18106 0.738417
-1.38104 -2.58483 -0.528131
0.166762 -2.08045 0.774614
-0.707209 -2.28746 -0.0906582
-1.57234 -2.64923 -0.279371
-1.12039 -2.43138 -0.354239
-0.746136 -2.2323 1.45103
-0.426075 -2.12445 2.27552
-0.144661 -2.02706 2.72728
0.0291801 -2.08696 1.27081
0.0534638 -2.08804 0.96397
-0.915149 -2.38318 -0.37459
-0.775505 -2.19374 2.10874
-0.0332116 -2.11765 0.631927
0.00782202 -2.01349 2.75252
-0.966632 -2.23731 2.05941
-1.10357 -2.40274 -0.236167
-1.28445 -2.37209 1.80077
-0.322304 -2.14517 1.69842
-0.903354 -2.29326 0.216721
-1.16334 -2.34093 1.67577
-1.12507 -2.33294 1.60892
0.394907 -2.03658 0.891032
-0.0946439 -2.09587 2.12277
-1.46333 -2.62449 -0.499147
-1.27994 -2.42365 0.250818
-0.46089 -2.12473 2.30241
0.255353 -2.03479 2.28691
0.503844 -1.97118 2.58165
-1.06562 -2.32802 1.08663
-1.00743 -2.26675 1.92292
-1.3018 -2.42103 1.298
-1.45978 -2.47938 1.62868
-1.36057 -2.45633 0.993103
-0.918945 -2.27624 1.45886
-1.42404 -2.50045 0.206482
0.233071 -2.04953 1.48379
-0.16179 -2.11416 1.91805
-1.2277 -2.39226 0.884661
0.0673955 -2.07853 1.8535
-0.191624 -2.07861 2.44612
-1.55783 -2.58008 0.972816
-0.966386 -2.29727 0.573449
0.0986846 -2.10782 0.563394
-1.02711 -2.33483 0.12595
-1.33843 -2.43954 1.28034
0.0871488 -2.07375 1.9493
-1.2941 -2.42362 0.549436
0.122022 -2.02458 2.62222
-1.09838 -2.2431 2.17604
-1.25111 -2.403 0.634989
-1.26153 -2.4058 1.15193
-1.20713 -2.38314 1.00325
-0.249081 -2.1786 0.270553
-0.111102 -2.09507 2.17604
0.401329 -2.00738 2.3067
-1.06148 -2.32376 1.31984
-1.33566 -2.44761 0.342105
-0.759923 -2.20759 1.97054
-0.899384 -2.26278 1.65726
-0.324666 -2.19688 0.191633
0.294948 -2.03747 1.49649
-1.25303 -2.4089 0.319336
-0.995071 -2.37439 -0.251673
-0.122266 -2.1412 0.482523
-1.00351 -2.27408 1.85318
-0.325587 -2.11498 2.25827
-1.02602 -2.32298 0.320022
-0.916807 -2.33866 -0.157508
0.185937 -2.14397 0.276981
-0.931837 -2.20096 2.21879
-0.00760405 -2.10155 0.849978
0.514491 -1.94439 2.81851
-0.762874 -2.25627 0.271373
-1.64345 -2.55899 1.85012
-1.56458 -2.57463 1.3191
0.526028 -2.04707 0.621038
-0.394665 -2.16467 0.767041
0.324117 -1.95681 2.91054
-1.56154 -2.58206 1.03421
0.503438 -1.9281 2.93711
-1.59061 -2.59764 1.2507
-1.486 -2.49345 1.63819
-0.167382 -2.11336 1.96777
0.271024 -2.05281 0.968121
0.251836 -2.04251 2.0786
-0.504787 -2.18191 1.03447
0.0933797 -2.07523 1.49748
-1.13928 -2.36247 0.313425
0.436271 -2.00742 1.84356
-0.979633 -2.39117 -0.349169
-0.365845 -2.24798 -0.0756251
0.528006 -1.98535 2.03716
0.551947 -2.01072 0.863667
-1.00965 -2.27144 1.89003
-1.41737 -2.48911 0.533272
-0.63317 -2.29933 -0.203067
-1.15376 -2.39943 -0.0996243
0.119409 -2.145 0.293103
-1.27979 -2.41806 0.44704
-1.09357 -2.2878 1.93655
0.480369 -1.90359 3.07631
0.33676 -2.0283 1.92333
0.506709 -1.99118 1.67772
-0.653241 -2.20378 1.7325
0.121599 -2.08594 0.78865
-1.32195 -2.54313 -0.487692
0.0742523 -2.15667 0.246992
0.536173 -1.95995 2.63813
0.201537 -2.13424 0.320249
0.454034 -1.99884 2.23929
0.114627 -2.0714 1.61948
-0.290234 -2.19848 0.158173
0.160439 -2.14185 0.295366
-1.01381 -2.27023 1.90847
-0.589754 -2.19958 0.911043
-0.0798937 -2.04213 2.62711
0.261492 -2.10092 0.481674
-1.65086 -2.57105 1.82413
-0.132787 -2.11139 1.84853
-0.207652 -2.19228 0.154001
0.308403 -2.02942 2.18278
-0.146958 -2.06278 2.53014
0.0393843 -2.08519 1.27447
0.187144 -2.05722 1.88382
-0.755957 -2.21487 1.88244
-0.443508 -2.16074 1.85546
-0.813196 -2.24694 1.51503
-1.36498 -2.45899 0.933996
-0.12653 -2.1148 1.06481
-0.789444 -2.25609 0.374576
-0.514467 -2.18247 1.50741
-0.544544 -2.20044 0.498609
-0.312546 -2.15263 0.718378
-1.17524 -2.37002 0.771128
-0.945978 -2.27375 1.67842
-1.19909 -2.38089 0.55143
-1.52478 -2.63151 -0.365468
-1.25224 -2.5043 -0.458134
0.409215 -2.01373 1.52175
-1.28106 -2.52353 -0.484135
0.0500324 -2.06915 2.23688
0.477981 -1.99778 1.9163
0.533286 -2.01706 0.836189
-1.01559 -2.2676 1.93222
-1.33035 -2.41905 1.56477
-1.14394 -2.34694 1.48867
-0.704329 -2.15138 2.30588
-0.561612 -2.19316 1.30387
-1.24426 -2.45076 -0.215597
0.465042 -2.00095 1.69121
0.351623 -2.02508 1.95079
-0.882617 -2.26882 1.33287
-1.16774 -2.35171 1.55768
-0.566092 -2.21698 0.300542
-1.08191 -2.32069 1.57382
-0.986864 -2.20094 2.26035
-1.4057 -2.43564 1.73818
-0.345166 -2.17129 0.460355
-0.181319 -2.12286 1.31914
-0.562129 -2.12601 2.36121
-0.0555614 -2.14023 0.423126
-1.41633 -2.45152 1.66169
-1.24597 -2.40815 0.255167
-0.955248 -2.37947 -0.322837
0.371123 -2.03062 1.06582
-0.294665 -2.06743 2.56724
-0.799687 -2.2694 0.203201
-1.59577 -2.52424 1.85345
-1.55581 -2.57939 0.680223
0.245114 -2.0465 1.88343
-1.40224 -2.47784 1.11166
-0.975683 -2.29836 0.802057
0.0351249 -2.17475 0.168595
-0.779872 -2.22386 1.82946
-0.862996 -2.26795 0.564193
-0.280301 -2.14086 1.034
-0.343129 -2.08314 2.49939
-0.563948 -2.11862 2.40259
-0.991083 -2.31403 0.280163
-0.396156 -2.17438 0.527912
-0.947529 -2.2846 1.45096
-0.879315 -2.26204 1.56296
-0.0851686 -2.18647 0.141648
-0.0922708 -2.04947 2.58774
-0.84984 -2.25474 1.55651
-0.906766 -2.19301 2.23682
-1.49753 -2.46481 1.84824
0.29236 -2.03361 2.13934
0.0751614 -2.0907 0.822125
-0.262559 -2.13896 0.940424
-0.781657 -2.24226 1.35282
-1.20008 -2.39785 0.0967534
-1.64718 -2.58999 1.7241
-0.475081 -2.1623 1.92588
-1.54471 -2.57283 0.415736
-0.640366 -2.20679 1.55992
-0.388857 -2.1597 1.13861
-0.726209 -2.24644 0.302253
0.363337 -1.99562 2.59333
-1.07494 -2.32585 1.41057
0.46682 -1.99939 2.06064
-1.41217 -2.37735 2.0363
-0.117113 -2.1186 0.832017
-0.845265 -2.26055 0.776672
-1.37333 -2.43849 1.58011
-0.227168 -2.17448 0.285367
-1.08007 -2.27248 2.00949
-0.489053 -2.26388 -0.106186
-1.16404 -2.44637 -0.356078
-0.0899897 -2.10487 1.83023
0.221902 -1.98844 2.79385
-1.35813 -2.45512 0.978459
0.404465 -1.97032 2.76051
-0.446848 -2.17321 0.795863
-1.24427 -2.43131 -0.0701733
-1.46388 -2.49024 1.55283
-0.656452 -2.19723 1.8633
-1.49229 -2.53109 1.17086
-0.942257 -2.2732 1.67142
-0.954387 -2.20835 2.20237
0.379625 -2.05511 0.717218
0.0797178 -2.07766 1.49605
-0.730575 -2.23323 0.660424
-1.5937 -2.57398 1.56716
-0.446689 -2.23821 0.00634982
-1.53942 -2.49106 1.84019
0.558516 -1.97875 1.58299
-1.44043 -2.40976 1.96022
-1.39149 -2.50371 -0.0842306
0.172479 -2.06857 0.978332
-0.882623 -2.27042 1.08728
-0.0670279 -2.06558 2.45162
-1.26792 -2.37593 1.72036
-0.537701 -2.18169 1.73782
-1.37627 -2.47244 0.23536
0.396736 -1.99946 2.47369
0.281039 -2.0395 1.89978
0.124778 -2.06966 1.42121
-1.26472 -2.39632 1.46825
-1.55944 -2.59646 0.0767352
-1.48531 -2.49527 1.62062
-1.57628 -2.61444 0.00753776
-0.655119 -2.15457 2.25298
-0.428692 -2.16708 1.22063
-1.51991 -2.55623 0.366819
0.0176755 -2.03499 2.62131
-1.24555 -2.40503 0.336837
-1.56125 -2.57244 1.31501
0.18465 -2.07264 0.854687
0.462928 -1.97472 2.63269
-1.24533 -2.40159 0.493348
0.0345652 -2.08517 1.73349
-0.92369 -2.31913 -0.00745291
0.507515 -1.98666 2.25484
-1.14764 -2.37901 0.0794152
-0.795457 -2.247 0.953251
0.474823 -1.94367 2.87004
0.0135911 -2.08929 1.48464
-0.816148 -2.26947 0.252239
0.101158 -2.06475 2.1732
-1.01265 -2.36443 -0.167782
-0.731817 -2.1555 2.30156
-0.724709 -2.22356 1.606
0.414 -2.02643 0.991866
-0.383689 -2.13801 2.0858
-0.40316 -2.15907 1.69423
-1.2574 -2.30341 2.10214
-0.395137 -2.21764 0.0993061
-0.430583 -2.24338 -0.0297409
-1.5249 -2.44519 1.98911
0.207673 -1.96297 2.93202
0.284116 -2.00398 2.62796
-1.14158 -2.37317 0.127781
0.447298 -2.01037 1.20677
0.0374451 -2.09324 0.887822
-0.477702 -2.17413 1.60487
-1.3424 -2.47809 -0.0845912
-1.59898 -2.62227 0.149801
-1.055 -2.42057 -0.391461
-0.371246 -2.15634 1.39312
-0.533179 -2.17678 1.83562
-1.54348 -2.53614 1.58765
-0.443106 -2.21883 0.126431
-1.45363 -2.48204 1.57461
-0.0187569 -2.15246 0.308864
-1.47549 -2.51687 1.27095
-0.727702 -2.23018 1.05372
-1.27052 -2.41204 0.6121
-1.18863 -2.37573 0.67202
-1.49552 -2.65998 -0.544359
-0.188103 -2.14587 0.520735
0.23082 -2.08037 0.672395
0.0372419 -2.06203 2.36411
-0.408646 -2.11232 2.35201
-0.252966 -2.11818 2.11378
-0.160118 -2.13214 0.670422
-0.563507 -2.20957 0.395782
-0.927747 -2.28054 1.3869
-1.04237 -2.32022 0.86354
-0.662077 -2.20547 1.73386
-0.808399 -2.2494 1.31219
-1.40203 -2.54153 -0.302642
-0.769693 -2.22944 1.70367
0.41668 -2.00876 2.15621
-0.69371 -2.18683 2.0561
0.259459 -2.04124 2.07311
0.188643 -2.12435 0.379257
-0.113631 -2.03463 2.68174
-0.945398 -2.32551 -0.0149836
0.224251 -2.05191 1.32928
0.179878 -2.06648 1.00166
0.102898 -2.09671 0.675648
-0.440834 -2.1671 1.62294
-0.57019 -2.26231 -0.0542917
0.0733484 -2.14599 0.305399
-0.218831 -2.12923 1.49689
-0.514572 -2.25102 -0.0264529
-0.0510257 -2.03896 2.63295
-0.563245 -2.2419 0.0690985
-1.00379 -2.30725 1.02775
0.543397 -1.98295 1.51156
0.113599 -2.02222 2.64598
-1.13371 -2.35191 1.20016
-0.687675 -2.14021 2.35376
0.477602 -1.91289 3.03596
-1.58177 -2.60549 0.221324
-0.978558 -2.29918 0.976189
-0.926937 -2.23058 2.04897
-0.477003 -2.18545 0.568478
-0.127268 -2.08206 2.35996
-1.15826 -2.3666 0.415934
0.066314 -2.05606 2.39083
0.373227 -2.01999 2.01829
-1.49252 -2.53778 0.367922
-0.536363 -2.18468 1.62541
-0.8666 -2.32139 -0.119324
-1.25335 -2.40568 0.460093
0.277466 -2.0185 2.48692
-0.995601 -2.33603 0.0118582
-0.0387747 -2.09459 1.93208
-0.44103 -2.11321 2.36742
-1.29678 -2.46556 -0.160075
-0.378132 -2.18254 0.376612
-1.48716 -2.53176 0.702935
0.525969 -1.97705 2.40814
-0.33597 -2.16279 0.57229
-0.255199 -2.12747 1.94483
-1.22156 -2.38758 1.1861
-1.15162 -2.41082 -0.187016
-0.243546 -2.17851 0.267032
