ply
format ascii 1.0
comment Created by Open3D
element vertex 400
property double x
property double y
property double z
end_header
2.46325 1.79676 -0.75777
1.95296 2.62672 -0.96722
2.05127 1.91627 -0.40054
0.35185 2.65062 0.87303
2.46333 1.79275 -0.7525
1.67567 1.03913 0.98144
2.14489 1.39913 0.02594
1.29147 2.22268 0.10202
1.3527 2.25968 0.01163
0.70198 2.58208 0.46734
1.56509 2.88217 -0.56052
0.93632 2.76374 0.13463
1.42866 2.90837 -0.41324
2.4994 1.0927 -0.03932
2.69688 1.53796 -0.72622
2.15704 1.31083 0.10018
1.53018 1.42839 0.65827
2.03663 1.54018 -0.00602
1.38705 2.91139 -0.36899
1.77462 2.91801 -0.84765
1.97899 2.34202 -0.74232
1.54529 1.50445 0.54803
1.10467 2.69283 -0.00566
3.15632 1.21527 -0.94115
2.81843 1.46934 -0.79971
1.79476 2.30103 -0.48002
1.32715 2.91674 -0.30676
2.68645 1.53888 -0.71357
0.94867 2.03881 0.64377
1.75053 1.76405 0.05745
0.36812 2.81726 0.75325
0.94682 2.78642 0.11585
2.18935 1.28544 0.09228
0.47947 2.35777 0.94811
1.95571 1.6065 0.00859
1.06567 2.6685 0.04418
2.17668 2.28892 -0.9875
0.67592 2.65766 0.45438
1.18894 2.5305 -0.00796
1.68947 1.87309 0.01282
0.48461 2.52428 0.77533
2.5862 1.45213 -0.48682
0.97655 1.77658 0.95987
2.23136 1.86626 -0.54984
0.99557 1.81758 0.86353
1.90176 1.02815 0.66193
1.75034 2.26827 -0.40348
2.38168 1.93557 -0.83072
0.34084 2.82892 0.78616
1.78784 2.5154 -0.64113
2.1837 1.1874 0.19154
2.23158 2.16924 -0.9189
2.9035 1.07028 -0.43744
2.5889 1.47625 -0.51725
1.55937 2.93364 -0.56786
0.91064 2.52736 0.27562
0.59654 2.64819 0.55005
1.2473 2.35681 0.04517
2.18466 1.95365 -0.59225
2.74642 1.37949 -0.58991
0.35041 2.82543 0.77422
1.27934 2.65974 -0.16625
1.17699 2.92836 -0.15496
2.20317 1.05819 0.29139
2.33125 1.2821 -0.04657
1.47113 1.25327 0.99929
2.45444 1.07834 0.01835
1.87954 1.69359 -0.00203
1.52068 2.90273 -0.51472
1.27254 2.6705 -0.16435
0.346 2.93159 0.74228
1.90656 1.5059 0.15896
1.09713 2.79874 -0.03894
0.69656 2.39425 0.60643
2.48558 1.55039 -0.48384
1.81682 1.6277 0.12665
1.14539 2.46939 0.07222
2.02122 2.25566 -0.71258
0.43369 2.56406 0.81613
2.01673 1.01337 0.53782
3.158 1.17802 -0.88711
2.87006 1.02604 -0.35955
1.83115 1.79774 -0.05619
3.11443 1.02384 -0.63645
1.04264 1.76423 0.87123
2.34624 1.31893 -0.09718
0.54754 2.4487 0.75194
0.68711 2.2015 0.80839
0.90929 2.60026 0.23587
1.59113 1.85462 0.1292
2.54222 1.57167 -0.57412
0.89561 2.24053 0.50478
3.06279 1.34246 -0.99074
1.72954 1.49146 0.35727
1.05312 2.60166 0.08925
1.29268 2.30367 0.03832
2.26635 1.41469 -0.1111
1.55442 1.79464 0.22551
3.17695 1.17228 -0.90901
1.19634 2.9281 -0.17452
0.54678 2.24796 0.97311
1.20043 1.58379 0.90524
2.1857 2.1866 -0.86843
1.22321 1.62699 0.8047
1.28731 2.74698 -0.21204
0.79144 2.22795 0.64063
1.01532 2.03217 0.56984
2.84509 1.35459 -0.68228
0.92016 2.76515 0.15043
0.1972 2.99051 0.95133
2.12028 2.08668 -0.66059
1.6367 2.85373 -0.63796
1.34889 1.92197 0.31215
2.76035 1.57803 -0.87507
2.49219 1.31057 -0.23711
2.33513 1.43687 -0.20299
1.52827 2.30176 -0.19713
2.01332 2.02231 -0.46637
1.12815 2.28302 0.2201
1.03281 2.44642 0.20059
2.57719 1.22297 -0.2386
1.26268 2.97274 -0.25109
2.84199 1.29963 -0.61154
2.44334 1.92937 -0.91782
1.29371 2.51272 -0.10258
1.41778 2.82764 -0.37782
1.16498 2.02132 0.41106
2.31199 1.98256 -0.79265
1.10053 1.97562 0.5301
1.66019 2.11234 -0.17657
1.51775 2.81023 -0.48177
1.70121 1.27074 0.63648
1.74229 2.45684 -0.54319
0.95166 2.29643 0.39492
1.40788 2.05326 0.12851
2.31597 2.04871 -0.88813
0.98071 1.78907 0.93189
1.21512 2.31732 0.10599
1.13501 1.66025 0.88776
2.27618 1.2108 0.07616
0.56989 2.653 0.57892
3.03189 1.20036 -0.73402
1.57506 2.91509 -0.58178
1.73675 2.90738 -0.78872
2.91996 1.37645 -0.81369
0.828 1.98526 0.87774
1.18847 2.51043 0.00419
0.33348 2.89268 0.77167
0.8416 2.57302 0.32123
2.53941 1.64331 -0.65841
0.8655 2.05327 0.73493
1.67533 2.45074 -0.46233
1.97051 1.86826 -0.26676
1.6367 2.64532 -0.54224
2.79422 1.03359 -0.28637
1.32955 2.06938 0.19347
0.9206 2.76858 0.14872
0.98792 2.26597 0.38069
1.49622 1.23593 0.98346
0.80316 2.24861 0.6062
1.16822 1.8378 0.604
1.12955 2.19816 0.28738
1.77293 2.8802 -0.83153
0.82142 2.90759 0.20732
2.60785 1.65672 -0.76658
0.39368 2.49721 0.93879
1.29468 2.7651 -0.22658
1.56414 1.5165 0.51224
0.98309 1.75475 0.9863
1.7675 2.34424 -0.48489
1.71559 2.68856 -0.66202
0.8003 2.93212 0.22341
1.51658 1.42044 0.68569
0.63792 2.62254 0.51644
0.90288 1.91305 0.86564
0.83208 2.6098 0.31101
1.15996 1.64242 0.87646
1.66458 2.44503 -0.44631
0.98916 2.4703 0.22985
2.25699 1.20925 0.09688
2.37187 1.7446 -0.57615
1.89176 2.4994 -0.76501
1.97257 2.11482 -0.51227
0.68456 2.6948 0.4264
2.62215 1.77786 -0.97507
2.17561 1.87478 -0.4949
2.39558 1.64554 -0.48958
1.42287 1.75116 0.40905
0.74256 2.50576 0.46997
2.81902 1.19434 -0.46833
1.14335 2.99217 -0.13259
1.80742 1.97081 -0.19814
2.54021 1.39977 -0.37902
2.5719 1.02236 -0.05057
0.57782 2.19339 0.9955
1.72868 1.68955 0.15345
2.48952 1.46386 -0.39282
2.26184 1.81704 -0.53008
1.11265 2.19109 0.31107
2.40226 1.93645 -0.86304
2.1346 1.71332 -0.28029
2.66278 1.35035 -0.46019
0.46525 2.37144 0.9561
0.66844 2.19279 0.84641
2.74891 1.59184 -0.87878
0.75819 2.0104 0.95484
1.34217 2.13704 0.12166
1.59967 1.47479 0.51921
2.47713 1.88691 -0.90756
2.3577 2.00535 -0.89261
0.77444 2.41409 0.49919
0.48474 2.94209 0.56462
1.5326 1.52809 0.5353
1.66966 1.7583 0.14443
1.19677 2.0884 0.31354
1.82579 2.25134 -0.47237
1.02355 1.88153 0.73515
1.07227 2.73862 0.00783
2.51246 1.66176 -0.64762
2.06399 2.19511 -0.70566
2.9102 1.10621 -0.48041
1.26953 1.70962 0.63366
1.24838 1.82456 0.52426
0.17792 2.98282 0.98751
1.80382 1.49678 0.27353
2.14202 2.18954 -0.80674
1.42317 1.53214 0.66299
1.55864 1.50426 0.53269
1.10367 1.89066 0.62106
3.17884 1.13875 -0.86347
1.65643 1.19264 0.79345
2.00811 2.4915 -0.93423
1.91474 2.41129 -0.72044
1.39784 1.52252 0.70813
1.69226 1.59836 0.28397
2.09493 1.49334 -0.01756
2.17716 1.84822 -0.46792
1.92579 1.23442 0.41619
1.85022 2.29233 -0.53607
2.52478 1.81396 -0.87191
0.95907 2.00576 0.66818
1.5403 2.25853 -0.17599
0.32865 2.68059 0.88789
1.15126 1.97286 0.47509
1.24078 1.83414 0.52234
1.92474 1.41939 0.22807
1.5792 1.80836 0.18654
0.6052 2.95509 0.4248
2.83537 1.52793 -0.91492
1.29436 2.46556 -0.07449
1.81386 1.93083 -0.16693
1.59838 2.93357 -0.61483
0.50998 2.34686 0.91007
0.98053 2.00422 0.64286
1.18426 2.4757 0.02938
0.73455 2.52805 0.46434
2.74806 1.15402 -0.35038
1.58419 2.6082 -0.46149
2.13927 1.91931 -0.50154
0.87368 2.52598 0.31509
1.99516 1.3221 0.25369
1.64273 1.49807 0.44441
1.69073 2.48862 -0.50638
1.49044 1.25279 0.96531
2.08932 2.25455 -0.80528
1.0744 2.86716 -0.03699
1.73348 2.75977 -0.72277
1.83262 1.11119 0.65729
1.84933 2.37623 -0.60707
3.00296 1.38607 -0.96017
1.11911 2.91199 -0.093
1.44405 2.10336 0.04823
2.58861 1.82638 -0.99989
3.18355 1.15166 -0.88921
1.8802 2.65889 -0.8725
1.47174 2.31501 -0.14969
2.23078 1.14648 0.18192
2.26043 1.72117 -0.42272
1.19487 2.51687 -0.00599
1.8822 1.25284 0.44496
1.5715 2.70412 -0.4976
1.79439 1.52353 0.25564
2.53029 1.77093 -0.81699
1.58777 1.3932 0.62969
2.76746 1.11197 -0.33055
2.25814 1.75047 -0.45209
0.74898 2.19722 0.72719
1.99537 2.12758 -0.55134
2.69684 1.19055 -0.33174
1.25102 1.97155 0.36706
1.55077 1.80114 0.22276
2.0955 1.26787 0.20423
1.38539 2.20827 0.01945
0.92425 2.60176 0.21972
2.40437 1.02525 0.11477
0.77666 2.07019 0.83969
0.83093 2.50141 0.37587
0.90226 2.54059 0.27648
1.52141 2.61576 -0.39664
1.48759 2.39002 -0.21997
2.18418 1.53497 -0.14891
1.49525 2.1124 -0.01076
1.76614 2.9025 -0.82965
1.62556 2.74519 -0.58
2.34983 2.02673 -0.91103
0.45102 2.386 0.96337
2.68724 1.58531 -0.77785
1.49006 1.78591 0.30101
1.15924 1.69433 0.80027
1.2251 2.1453 0.2336
2.33548 1.8811 -0.69557
1.04901 1.80305 0.80498
2.2688 1.92061 -0.65799
1.02965 1.71631 0.97084
1.88504 2.49266 -0.75018
1.74126 2.01403 -0.17095
0.60237 2.23722 0.89378
1.69264 2.80897 -0.69167
0.67315 2.20049 0.83004
1.69783 1.19775 0.72967
1.73337 2.23563 -0.35789
0.89333 1.93905 0.84305
1.62905 2.79857 -0.60747
2.61062 1.79721 -0.98832
1.8441 2.41106 -0.62972
1.57462 2.99216 -0.59859
2.20061 1.90445 -0.55636
0.93044 1.86227 0.89818
2.03289 1.13875 0.39612
0.95883 2.35074 0.34472
2.49577 1.22397 -0.1565
2.82448 1.27053 -0.55708
2.49907 1.66989 -0.64101
1.11349 2.454 0.11398
0.90507 2.8116 0.14944
1.94097 2.25502 -0.61021
1.09696 1.66121 0.94885
1.08691 2.85456 -0.04601
1.43022 1.95276 0.19833
1.90052 1.22807 0.45063
1.14551 1.76929 0.71723
1.63826 2.12001 -0.16097
0.63353 2.26605 0.81233
2.01029 1.81858 -0.25841
1.24081 2.57132 -0.08265
2.09661 1.7656 -0.29442
0.7531 2.01413 0.95783
1.48607 1.95377 0.14072
1.75442 2.13735 -0.29542
1.30154 1.89322 0.39152
2.19368 1.05754 0.3019
0.79578 2.21712 0.64596
1.2449 2.33711 0.06165
2.01878 2.01954 -0.4697
0.4491 2.45879 0.88687
1.77619 1.04321 0.81432
0.40066 2.50029 0.92401
0.61122 2.22261 0.8981
2.52675 1.84305 -0.92008
0.21734 2.87202 0.95928
2.88979 1.16307 -0.51584
1.79362 2.20477 -0.39626
1.56342 1.16605 0.97976
1.6414 1.73518 0.19621
1.56266 1.38997 0.66516
1.54694 2.48552 -0.34621
1.34709 1.44705 0.88885
1.65637 1.23083 0.74379
2.20755 1.19128 0.16365
1.51149 1.38898 0.7333
1.8311 1.24212 0.51403
2.33671 1.80326 -0.60296
1.70681 1.00107 0.98377
0.78859 2.29679 0.57941
2.14999 2.09491 -0.70816
3.0513 1.30457 -0.90789
1.73342 2.88076 -0.77483
1.85916 1.28167 0.44002
1.78727 1.11274 0.71409
2.04752 1.90592 -0.38591
3.13124 1.17396 -0.84014
1.52166 2.81253 -0.48704
1.74769 1.03748 0.86439
1.98517 2.36542 -0.77368
0.8176 2.2423 0.59468
2.77675 1.54062 -0.8429
1.06421 2.34179 0.24127
1.98365 1.3718 0.21571
0.78049 2.02248 0.89953
2.17826 2.0112 -0.64922
2.69184 1.62295 -0.83899
1.98326 1.19931 0.38952
1.17586 1.67631 0.80211
2.46922 1.14003 -0.05167
2.6727 1.63141 -0.82312
1.85368 2.1911 -0.45
1.91066 1.02244 0.65685
2.68863 1.00868 -0.15629
2.33263 1.39184 -0.15526
0.81313 2.92064 0.21279
