ply
format ascii 1.0
comment Created by Open3D
element vertex 250
property double x
property double y
property double z
end_header
-2.06074 2.32599 0.243718
-2.45288 0.050974 -0.31954
-1.21149 1.99747 -0.879046
-2.41268 2.05548 0.512074
-1.46967 2.73408 -0.382231
-1.7116 1.895 -0.387275
-2.27835 0.950891 -0.286817
-3.14568 0.450944 0.603737
-2.37538 -0.150328 -0.428318
-2.80858 -0.502867 0.7139
-1.0198 2.01085 -1.09543
-2.92336 0.935457 0.417654
-1.32021 2.70967 -0.5801
-3.16471 -0.490921 1.70163
-1.92283 2.02008 -0.0985145
-3.30266 1.20578 1.04595
-3.6022 0.635728 1.32808
-1.89653 2.10545 -0.0830388
-2.26118 0.748202 -0.400157
-3.5254 0.654658 1.17521
-2.83938 0.236342 0.218782
-3.07688 0.537004 0.513983
-1.41332 1.88457 -0.708328
-2.26822 0.0189044 -0.660325
-2.61937 -0.6981 0.666271
-2.22295 1.10154 -0.273034
-1.31955 2.31479 -0.64559
-2.70759 1.46796 0.439447
-2.28358 1.1277 -0.195848
-2.32961 -0.813446 0.248399
-3.4991 0.452776 1.14149
-3.51837 0.071931 1.45932
-2.31612 -0.098747 -0.564662
-1.11216 2.48011 -0.855747
-2.50786 -0.518998 0.145032
-0.975139 1.64264 -1.36716
-1.84476 2.85856 0.224688
-3.14825 -0.505435 1.67311
-2.76567 0.577171 0.137553
-1.82787 2.42704 -0.00443146
-2.06892 2.25153 0.20571
-3.11832 -0.17363 0.866753
-1.8953 1.17518 -0.585594
-0.799544 2.61178 -1.2604
-1.5393 2.85767 -0.277281
-2.49531 -0.549881 0.161366
-0.614855 2.55936 -1.53264
-2.39924 -0.821635 0.429636
-1.92762 1.49072 -0.374655
-2.78385 0.857183 0.231649
-3.08012 -0.0926119 0.722266
-0.913888 2.14536 -1.17304
-3.04037 0.0984241 0.540041
-2.90099 -0.373358 0.704683
-2.47118 0.331154 -0.274176
-2.83893 -0.473155 0.7277
-2.26924 -0.0796405 -0.672783
-2.43972 1.09539 -0.0463144
-2.28657 1.87605 0.223153
-1.36652 2.55964 -0.535574
-3.1712 -0.387083 1.3279
-2.84779 -0.660337 1.10843
-2.17147 -0.841116 -0.129135
-2.69909 -0.733867 0.918403
-1.4519 2.57545 -0.427397
-0.562034 2.17655 -1.66693
-2.87109 0.864459 0.33305
-3.35224 0.523732 0.890589
-2.90057 1.57225 0.753263
-0.612478 2.1625 -1.58787
-3.03862 0.58989 0.470114
-1.03251 1.60369 -1.31822
-2.57457 1.93913 0.632096
-3.5391 0.108001 1.47073
-0.802616 1.99613 -1.37968
-2.1696 2.02216 0.181647
-2.71328 -0.22185 0.221312
-2.80418 -0.700124 1.09492
-2.1063 1.6617 -0.0979993
-3.03524 -0.334921 0.910998
-3.29857 0.0340547 0.997743
-1.20332 2.25283 -0.796223
-3.59675 0.221884 1.50514
-2.76028 0.0697761 0.144558
-2.89426 1.68546 0.847832
-3.44257 0.678022 1.03565
-2.16011 2.345 0.397885
-3.23473 -0.351071 1.43957
-3.34567 -0.244299 1.55101
-0.767091 2.21585 -1.34243
-2.41437 1.86682 0.366537
-2.41304 1.72341 0.268069
-2.20404 0.726532 -0.478616
-2.5894 1.89135 0.608938
-1.06678 2.02306 -1.03445
-2.53964 -0.387441 0.0548155
-3.60786 0.302163 1.45689
-2.50711 -0.153953 -0.174592
-0.813717 1.9998 -1.36266
-0.880741 1.88591 -1.33235
-2.72771 -0.505097 0.558701
-1.89976 1.22058 -0.554324
-1.01293 1.67514 -1.29159
-2.06608 0.456127 -0.817968
-2.09656 -0.980512 0.00862332
-0.899171 2.37187 -1.13475
-2.30437 -0.668877 -0.0991129
-1.27878 1.93251 -0.832762
-2.60596 -0.281448 0.0824257
-1.97425 1.03361 -0.580622
-3.5677 0.608574 1.25461
-2.39399 -0.482684 -0.148844
-1.72075 2.93427 0.0195767
-1.63556 0.995014 -1.02108
-0.797589 2.38445 -1.26606
-1.07414 2.60745 -0.894931
-1.51429 2.7496 -0.320319
-2.24265 0.0306626 -0.712746
-1.34181 2.17611 -0.664782
-2.48132 -0.816855 0.605699
-0.931741 2.5262 -1.07849
-3.54786 0.910858 1.29296
-2.38569 0.206204 -0.418743
-2.50696 0.723162 -0.125201
-1.75881 2.12381 -0.227302
-2.6317 1.89264 0.668976
-1.2468 2.58268 -0.680031
-3.23128 1.21335 0.941956
-1.9085 1.99336 -0.128193
-3.44665 0.87438 1.09117
-1.69119 1.69617 -0.50924
-1.97245 1.06539 -0.564234
-1.33299 1.82703 -0.823638
-1.46018 1.45886 -0.893305
-2.87681 1.36934 0.576788
-2.56963 1.82562 0.527353
-2.61603 1.14271 0.16356
-2.56365 0.25196 -0.155609
-3.38275 1.09924 1.10199
-1.89267 2.25603 -0.00943991
-2.25795 -0.619683 -0.324371
-1.28099 2.61456 -0.634834
-3.08968 1.18179 0.72903
-2.47085 1.59615 0.252689
-3.31831 1.12981 1.01808
-2.0461 -1.02753 -0.0203156
-1.10676 1.94719 -1.02103
-2.24926 1.06146 -0.264912
-1.12757 2.83147 -0.846634
-3.19489 1.12198 0.834719
-2.38307 1.43049 0.063633
-3.35719 0.350087 0.926456
-2.16658 1.9733 0.147457
-2.26793 -0.778794 0.0174011
-3.29243 0.788591 0.833514
-2.73767 -0.534458 0.623005
-2.67534 1.06827 0.193915
-2.01767 0.885169 -0.617
-2.63203 0.0196654 -0.031445
-0.881792 2.34297 -1.16184
-2.70081 1.10714 0.239005
-2.1026 2.37211 0.334657
-1.98677 1.12766 -0.512937
-3.37705 -0.169535 1.46285
-3.213 0.7876 0.726193
-3.05883 0.691309 0.51023
-3.53007 0.0969381 1.45829
-1.65771 1.0235 -0.968121
-1.17742 1.50292 -1.2037
-1.52265 2.1813 -0.462917
-2.16673 2.26613 0.345762
-3.3346 -0.112654 1.23633
-2.46894 1.82943 0.405329
-0.901669 2.72334 -1.13448
-2.12121 0.599036 -0.649994
-1.91732 0.642964 -0.912595
-2.40907 -0.832531 0.475446
-3.19248 1.01727 0.779353
-2.2903 1.91454 0.252688
-2.71646 0.692003 0.105637
-2.21044 2.18035 0.340523
-1.99279 1.97204 -0.0476515
-1.82556 1.41188 -0.524169
-2.09199 1.47333 -0.214906
-3.40822 0.123677 1.13407
-1.77039 3.13961 0.148176
-3.62403 0.280036 1.5305
-0.998762 1.76357 -1.25104
-2.81413 -0.0537355 0.27538
-1.87319 2.46523 0.0737251
-1.97535 2.64001 0.330984
-2.65387 -0.248222 0.140398
-2.11671 2.41614 0.389801
-3.26698 0.0216578 0.950503
-2.86592 0.369227 0.243207
-1.07908 1.49839 -1.34005
-1.56791 2.48 -0.307862
-3.62054 0.707435 1.37809
-2.30514 0.177789 -0.554583
-1.38875 2.35383 -0.555229
-3.62876 0.481893 2.3198
-3.3543 -0.0577352 2.42226
-3.62209 0.268294 2.19277
-3.5627 0.0689666 1.64387
-3.62232 0.564873 2.35347
-3.51576 -0.0402475 1.74869
-3.49699 0.193687 2.4093
-3.56624 0.066817 2.05005
-2.30326 0.234363 3.45666
-3.52754 0.658931 2.51799
-3.59252 0.126129 1.65451
-3.70848 0.475916 2.06393
-2.67289 0.370329 3.25369
-3.7205 0.468084 1.81398
-3.60118 0.170789 2.12706
-3.23611 0.136114 2.72132
-3.72561 0.552425 1.75942
-2.52234 0.276607 3.3303
-3.0675 -0.103855 2.75375
-2.83551 0.357316 3.13724
-3.69355 0.38173 1.72164
-2.58985 0.180801 3.25841
-3.58865 0.513247 2.40753
-3.46219 -0.127402 1.92204
-3.20832 -0.122674 2.57678
-3.13359 0.316521 2.89099
-3.38549 -0.0920594 2.31935
-3.60671 0.535058 2.37885
-2.66569 0.510085 3.28396
-3.35301 0.33586 2.68027
-3.59951 0.734071 2.39276
-3.58892 0.183192 2.18968
-3.35386 -0.276041 1.89764
-3.39413 0.0374071 2.45123
-3.27537 -0.116473 2.48781
-3.15052 0.58904 2.92538
-3.36198 0.773552 2.71388
-3.29425 0.508527 2.7838
-3.12773 0.325248 2.89866
-3.21542 -0.104981 2.58299
-3.31398 0.0940783 2.60776
-2.96282 -0.0216141 2.9006
-2.88137 1.02831 3.09726
-2.57205 0.63242 3.36077
-2.71332 0.432594 3.23875
-3.00915 0.116469 2.92597
-2.8247 0.63229 3.18441
-3.73478 0.628203 1.94915
-3.08893 0.235289 2.90378
-2.92506 0.0165902 2.95145
