ply
format ascii 1.0
comment Created by Open3D
element vertex 200
property double x
property double y
property double z
end_header
1.03106 2.17626 0.793751
2.01832 1.31597 0.72292
-1.12273 2.71707 1.45332
2.12091 1.18083 0.558696
1.33294 1.78111 0.308299
2.42392 1.13387 0.978912
-0.259941 2.92532 1.31578
-0.365766 2.57228 0.56932
-0.397443 2.279 -0.245646
0.137157 2.73998 0.996899
0.343714 2.52765 0.622501
0.21478 3.07862 2.00932
0.685899 2.58963 1.25828
2.32329 1.44072 1.84739
1.77729 1.46966 0.587491
0.723603 2.33321 0.609617
1.3893 2.00091 1.16643
-0.970347 2.14694 0.154592
2.80336 0.995625 1.03339
1.73787 1.43805 0.369683
0.570678 2.44039 0.664895
-0.534534 2.60662 0.724128
1.01636 2.51899 1.87888
-0.517798 2.81756 1.15007
2.50355 0.736156 -0.0648815
-0.340231 2.63219 0.692929
-0.192051 2.51135 0.369672
-0.529626 3.16404 2.02268
-0.133875 2.58333 0.544271
1.39071 2.16966 1.79545
2.78999 0.530042 -0.404996
2.16256 1.50294 1.64932
0.782863 2.7347 2.02075
-0.433669 2.35146 0.0594625
-0.688681 2.18029 -0.140383
1.95045 1.47398 1.02447
2.72937 0.593375 -0.168791
-0.744306 2.6221 0.893474
2.36037 1.16539 0.965598
-0.30326 2.41976 0.161778
-0.415068 2.88436 1.25272
2.90079 0.627592 0.179924
-0.707924 2.57445 0.772072
-0.292178 2.38354 0.0438928
2.59331 1.11054 1.13833
-0.931932 2.4387 0.697354
-0.0688242 3.05067 1.65343
1.25903 2.10969 1.15234
1.98449 1.11768 -0.11102
1.43372 2.08661 1.59086
-0.93049 2.78358 1.37949
-0.0893695 2.99634 1.50514
0.899324 2.64897 2.09006
2.05261 1.08305 0.0238808
1.90688 1.46127 0.885662
0.0919111 2.69878 0.874209
0.262898 2.93015 1.5786
2.51006 0.975183 0.683659
0.71927 2.34609 0.640357
2.04598 1.26319 0.632272
2.13434 1.00821 -0.0169243
2.15934 1.55153 1.9446
-0.572041 2.38806 0.274045
-0.618292 2.78605 1.13768
-0.366019 2.46785 0.32418
-1.17293 2.863 1.94178
0.908718 2.49946 1.46251
-0.843795 2.8311 1.39902
-0.405306 2.3775 0.110639
-0.0100642 2.76717 0.993016
2.26786 0.903705 -0.0248758
0.287025 2.38113 0.0716133
0.416614 2.41611 0.371635
0.0822507 2.86421 1.26039
2.23733 1.4797 1.77575
1.18381 1.98353 0.579673
1.34033 1.73014 0.0964982
2.79506 0.865305 0.710696
2.04938 1.61251 1.81313
2.80232 0.871707 0.731821
1.14984 2.35497 1.65593
1.18608 2.0643 0.83502
0.126468 2.54951 0.516883
-0.10546 3.00334 1.5177
1.84029 1.52246 0.904159
1.92252 1.2936 0.418584
0.340033 2.80199 1.32148
2.37241 1.28265 1.31913
3.00682 0.540226 -0.00615103
1.285 1.75024 -0.177278
0.129642 2.51741 0.429326
-0.553007 2.27304 -0.046734
-0.155194 2.36136 -0.143916
2.80304 1.1394 1.40919
1.15153 2.42656 2.09899
2.108 1.28152 0.819364
-1.01158 2.65844 1.20144
0.172722 3.13349 2.21565
-0.753737 2.49901 0.657642
0.0354254 2.89828 1.31713
-0.945485 3.03678 2.67382
-0.562293 3.14277 2.88613
-0.858363 2.99356 2.92734
-1.09544 1.99693 3.6033
-0.749779 2.55591 3.45434
-1.44531 1.94536 3.35471
-1.10382 2.12291 3.52678
-0.596144 2.74857 3.36908
-0.446887 3.10949 3.00451
-0.562401 2.8243 3.31514
-0.830718 2.28433 3.58844
-0.903821 2.72715 3.22971
-0.96645 2.11459 3.61576
-0.998388 2.15696 3.57398
-0.959847 2.43645 3.4241
-0.567998 3.15842 2.84211
-1.20594 2.76676 2.84881
-1.15008 2.91692 2.12633
-1.30157 2.44341 3.12639
-1.28137 1.88301 3.53332
-1.3685 2.05335 3.35764
-0.647898 3.18061 2.67014
-0.696937 2.85187 3.23558
-0.642231 2.70353 3.38923
-1.15107 2.9304 2.24045
-0.805614 2.3471 3.563
-1.26523 2.36197 3.2346
-0.463352 2.59644 3.50956
-1.3692 2.53398 2.94342
-0.695872 3.09438 2.8911
-0.445716 3.07973 3.05402
-0.708668 2.13137 3.71773
-0.325905 3.24429 2.32402
-1.18511 1.76346 3.66794
-1.16824 2.88939 2.04182
-0.707006 1.9436 3.81144
-1.28162 1.64874 3.65881
-1.28556 2.79807 2.59307
-0.955966 2.58254 3.31863
-0.692116 1.91899 3.82751
-1.01064 3.00361 2.13122
-0.563864 2.94263 3.19688
-1.04415 1.77913 3.74773
-1.42898 1.59625 3.56931
-1.37061 2.48566 2.99907
-0.710556 2.28442 3.63576
-1.21705 2.55423 3.11233
-0.993439 3.0357 2.30461
-0.312372 3.25276 2.48691
-0.75506 2.80598 3.24999
-0.485736 3.2363 2.53976
-1.24873 2.42473 3.19908
-0.497682 3.0884 3.02445
-1.21581 1.68941 3.6851
-0.579516 3.21323 2.58095
-0.688493 2.28147 3.64459
-1.31403 2.40956 3.14372
-0.824058 3.1232 2.56384
-0.54881 3.21714 2.31848
-0.687066 3.18505 2.40965
-0.656507 3.13078 2.83999
-0.588314 2.67474 3.42842
-0.838708 2.95579 3.01138
-0.613592 2.98604 3.12438
-0.907069 3.06001 2.13799
-1.41841 1.86487 3.42852
-1.29229 1.81518 3.56226
-0.470697 3.14062 2.9372
-0.935262 2.48869 3.4031
-0.544988 3.21122 2.26454
-0.544851 3.22194 2.36016
-1.15088 2.93555 2.35705
-0.807165 3.12987 2.29463
-0.518467 3.17303 2.83552
-0.41992 3.04813 3.10586
-1.28332 2.68795 2.85499
-1.22047 2.71728 2.90791
-0.66648 2.80896 3.29094
-0.511388 3.23117 2.54848
-0.437679 2.87827 3.29439
-0.38187 3.0944 3.04296
-1.27398 2.57506 3.02274
-1.31376 1.91055 3.49177
-0.91121 2.75097 3.20095
-1.26018 2.68844 2.89159
-0.344909 3.24793 2.58029
-0.47525 2.79444 3.36196
-0.884924 2.62421 3.3323
-0.693177 2.84629 3.24303
-1.1524 2.93102 2.44594
-0.788184 2.59115 3.41156
-0.501371 2.89124 3.2692
-1.24721 2.4156 3.20836
-1.32952 1.961 3.44918
-1.16568 2.33253 3.34634
-1.2111 2.65213 3.01026
-1.09639 2.94234 2.07682
-0.417161 3.12534 2.98322
-0.439354 2.87824 3.29415
-1.13769 2.36927 3.34295
