ply
format ascii 1.0
comment Created by Open3D
element vertex 400
property double x
property double y
property double z
end_header
0.202579 -0.869069 3.01228
1.02081 -0.347048 3.23832
0.215725 -0.350725 2.80547
0.53206 1.76671 2.12307
0.196808 -0.867388 3.0095
-1.01225 0.375713 1.91965
-0.391222 -0.354538 2.506
0.393466 0.537744 2.48488
0.445266 0.461714 2.55434
0.609591 1.27051 2.32218
1.05489 0.262193 3.14469
0.818512 1.00891 2.61634
1.03206 0.44765 3.06674
-0.675547 -0.731153 2.54
-0.0659449 -1.09298 2.99448
-0.493943 -0.352267 2.45215
-0.516362 0.414572 2.09202
-0.243968 -0.252482 2.52919
1.02309 0.501255 3.03946
1.17107 -0.0276841 3.31819
0.706415 -0.343385 3.05542
-0.407936 0.367096 2.15649
0.798082 0.790078 2.68524
-0.305031 -1.63602 3.09118
-0.109065 -1.24003 3.03191
0.59256 -0.0862904 2.89616
1.01171 0.577883 3.00088
-0.0692148 -1.07836 2.98776
0.0898559 1.00028 2.11247
-0.0338633 0.0473833 2.48518
0.691942 1.7572 2.2524
0.837882 1.00172 2.6398
-0.517207 -0.386703 2.45705
0.268735 1.60957 2.00623
-0.180679 -0.168531 2.51886
0.770175 0.832655 2.64046
0.754388 -0.642148 3.15766
0.669575 1.31217 2.3572
0.676409 0.665151 2.63004
0.0827449 0.100875 2.51911
0.471594 1.56808 2.12761
-0.222801 -0.911269 2.85553
-0.278716 1.07875 1.94676
0.206246 -0.571346 2.89745
-0.199603 1.02161 1.9892
-0.90486 0.0312502 2.07176
0.544268 -0.0263384 2.84159
0.364353 -0.810463 3.05276
0.688141 1.79994 2.24136
0.817127 -0.0895674 3.04285
-0.633589 -0.362711 2.38373
0.61859 -0.68093 3.11185
-0.607293 -1.22593 2.80989
-0.190574 -0.922076 2.8745
1.08867 0.285597 3.17704
0.613467 1.00325 2.43103
0.636881 1.41477 2.29437
0.522815 0.586695 2.54849
0.303279 -0.534289 2.92623
-0.266336 -1.10059 2.91746
0.690054 1.78497 2.24566
0.807757 0.572643 2.78535
0.985258 0.766112 2.90292
-0.778534 -0.366446 2.30613
-0.491645 -0.557505 2.55502
-0.815535 0.597675 1.92644
-0.701025 -0.675075 2.49805
-0.0915396 -0.0944104 2.52658
1.05499 0.327063 3.12782
0.815193 0.582767 2.78815
0.767924 1.81767 2.31761
-0.312732 -0.0879283 2.41297
0.87834 0.82327 2.7548
0.420034 1.27766 2.18553
-0.125468 -0.809722 2.85386
-0.184115 -0.00500493 2.43564
0.610933 0.713067 2.55604
0.62109 -0.38665 3.02421
0.488094 1.64228 2.11973
-0.881976 -0.121384 2.1426
-0.362709 -1.61727 3.06603
-0.66777 -1.17625 2.75496
0.0230273 -0.0564373 2.56601
-0.595257 -1.49533 2.9262
-0.255258 0.976848 1.98476
-0.444938 -0.582372 2.59167
0.418878 1.48228 2.11866
0.185577 1.32881 2.04256
0.6787 1.01227 2.48163
0.0403868 0.223103 2.43651
-0.0793109 -0.891239 2.90896
0.315527 1.02939 2.21759
-0.159606 -1.56072 3.11498
-0.371668 0.133588 2.27759
0.711161 0.837379 2.58432
0.478399 0.532591 2.543
-0.34727 -0.50439 2.60289
-0.0393497 0.27957 2.36814
-0.359568 -1.6451 3.07537
0.989284 0.742476 2.91642
0.162497 1.53868 1.97618
-0.448421 0.831781 1.96874
0.614523 -0.613623 3.09168
-0.367119 0.770899 2.0154
0.87977 0.5799 2.85267
0.265261 1.17125 2.13503
0.105487 0.911363 2.1549
-0.262805 -1.22769 2.96962
0.816125 1.02887 2.60591
0.723963 2.06935 2.25405
0.450308 -0.483908 2.97477
1.05962 0.157409 3.17521
0.0658166 0.507263 2.31285
0.0276079 -1.20993 3.0677
-0.423148 -0.758472 2.68896
-0.305594 -0.592666 2.66721
0.526137 0.247353 2.70824
0.334268 -0.325278 2.85362
0.421801 0.733069 2.41206
0.564966 0.848644 2.46019
-0.508394 -0.845826 2.68712
1.03258 0.677483 2.99489
-0.338756 -1.2036 2.92857
0.392012 -0.905982 3.09197
0.68204 0.53697 2.69155
0.972089 0.437771 3.00197
0.137507 0.718833 2.25305
0.395773 -0.725203 3.03671
0.0627077 0.812382 2.17517
0.350929 0.101221 2.66758
0.986903 0.305577 3.06034
-0.665294 0.234824 2.10149
0.741368 -0.0268183 2.96923
0.393134 0.951636 2.29675
0.23182 0.41356 2.4474
0.494373 -0.761633 3.08629
-0.254766 1.06313 1.95853
0.476154 0.626046 2.49781
-0.365121 0.890361 1.97655
-0.586543 -0.478837 2.46567
0.632197 1.45091 2.27893
-0.396734 -1.4348 2.99265
1.0814 0.258634 3.17502
1.14302 0.0276057 3.2839
-0.196389 -1.34712 3.03802
-0.0420259 1.19929 1.98928
0.658017 0.663943 2.61552
0.733947 1.82525 2.28124
0.638566 1.09285 2.4145
0.0175162 -0.913616 2.95763
0.074211 1.11356 2.06388
0.714622 0.0607883 2.91757
0.137503 -0.239753 2.71442
0.887732 0.120888 3.02785
-0.677821 -1.08281 2.70667
0.233111 0.506719 2.40341
0.818829 1.02915 2.60864
0.369837 0.908213 2.30085
-0.825556 0.565266 1.93192
0.294077 1.15137 2.15793
-0.0923025 0.761882 2.12558
0.331097 0.737513 2.35305
1.14162 -0.0343455 3.29026
0.896488 1.18968 2.63681
0.0664889 -1.01762 3.01551
0.38794 1.71559 2.04417
0.895426 0.574994 2.8707
-0.386028 0.338388 2.17834
-0.311589 1.08325 1.93595
0.631239 -0.054499 2.90744
0.954604 0.0183662 3.1142
0.907935 1.22388 2.63922
-0.532926 0.436786 2.07679
0.627132 1.35749 2.30549
-0.107015 1.11718 1.99116
0.668943 1.10878 2.43378
-0.378521 0.860981 1.98158
0.705814 0.0746362 2.90593
0.578042 0.903098 2.44621
-0.592375 -0.455365 2.451
0.0937646 -0.721035 2.91078
0.844764 -0.237124 3.10502
0.433355 -0.291105 2.89022
0.70361 1.30663 2.38957
0.267334 -1.11162 3.11128
0.199532 -0.500362 2.86406
-0.0288347 -0.721205 2.8575
-0.125097 0.453387 2.24438
0.549281 1.21392 2.29691
-0.481181 -1.1435 2.83787
1.01817 0.830655 2.92425
0.221801 -0.0584111 2.67161
-0.302212 -0.838228 2.78599
-0.739012 -0.810528 2.54153
0.10386 1.51171 1.95954
-0.128071 0.0889405 2.41705
-0.235064 -0.790596 2.79546
0.152423 -0.597223 2.8842
0.31926 0.75918 2.3361
0.377356 -0.843166 3.06793
-0.012445 -0.408835 2.72089
-0.330812 -0.981618 2.83771
0.27703 1.62916 2.00584
0.163673 1.36068 2.0232
0.0428563 -1.19993 3.06937
-0.0490688 1.30128 1.95769
0.311408 0.483462 2.46017
-0.429577 0.304697 2.17397
0.346632 -0.936852 3.08584
0.454996 -0.807346 3.08514
0.466844 1.17281 2.25463
0.829428 1.62792 2.42313
-0.380769 0.376259 2.16423
-0.0578074 0.146447 2.42393
0.224109 0.667521 2.32297
0.546791 -0.121241 2.88297
-0.0908396 0.94882 2.0542
0.827638 0.838712 2.69471
0.0325865 -0.883286 2.95162
0.564537 -0.433417 3.01164
-0.562294 -1.2417 2.84003
-0.22802 0.66811 2.10658
-0.0826178 0.658798 2.1729
0.704175 2.10073 2.23498
-0.346935 0.0398949 2.33388
0.594211 -0.546691 3.06288
-0.41432 0.52329 2.08972
-0.403859 0.349479 2.1658
-0.0456607 0.832651 2.11731
-0.40948 -1.63061 3.053
-0.792949 0.329159 2.0146
0.902295 -0.418905 3.1817
0.757703 -0.261153 3.05897
-0.438384 0.563064 2.06501
-0.247747 0.153847 2.32682
-0.288378 -0.313212 2.53729
0.166399 -0.495339 2.84637
-0.639976 -0.0513942 2.23461
0.600114 -0.158004 2.92923
0.261123 -0.971943 3.06795
0.0508704 0.99582 2.09645
0.483559 0.234671 2.68618
0.548137 1.8038 2.12785
0.0748606 0.746739 2.20909
-0.0726702 0.66603 2.1743
-0.413945 -0.0914052 2.36466
-0.0173237 0.246484 2.39537
0.874566 1.47532 2.51751
-0.00677386 -1.30067 3.08532
0.638272 0.532928 2.65866
0.176522 -0.0595523 2.6479
1.10235 0.232845 3.20457
0.274923 1.56196 2.02009
0.0572743 0.966416 2.11054
0.624945 0.666495 2.58798
0.568412 1.22509 2.30701
-0.549264 -1.04478 2.75919
0.838328 0.185682 2.96447
0.244662 -0.464622 2.86985
0.603348 1.04895 2.40392
-0.515916 -0.157144 2.34566
-0.386575 0.241915 2.22088
0.75701 0.0408803 2.95525
-0.801402 0.563752 1.93976
0.652034 -0.486804 3.07158
0.922536 0.870224 2.7871
1.02422 0.00206943 3.17721
-0.825489 0.104059 2.08159
0.692713 -0.165813 2.98792
-0.129502 -1.48739 3.10351
0.962201 0.830679 2.85042
0.295551 0.363759 2.5084
0.325914 -1.08814 3.12187
-0.387179 -1.64471 3.06546
1.0063 -0.227606 3.20962
0.527482 0.315788 2.67764
-0.670787 -0.413513 2.38808
0.0292782 -0.568538 2.81542
0.665236 0.656764 2.6246
-0.629314 -4.57666e-05 2.21681
0.918166 0.214454 3.02332
-0.316195 0.0453348 2.34612
0.198019 -0.957379 3.04142
-0.542543 0.347973 2.10786
-0.594011 -1.06148 2.74317
0.0658409 -0.573511 2.83452
0.209919 1.23832 2.08328
0.455961 -0.323751 2.91537
-0.518569 -0.987721 2.7488
0.100714 0.619816 2.2787
-0.0323301 0.2827 2.37016
-0.558227 -0.269403 2.37826
0.397687 0.425193 2.5411
0.683389 0.994121 2.49327
-0.770715 -0.608405 2.42511
0.0530145 1.24052 2.01303
0.56946 1.10102 2.35632
0.623664 1.01467 2.43446
0.827642 0.266708 2.92542
0.606757 0.295673 2.74188
-0.21931 -0.4299 2.62984
0.316183 0.300967 2.55099
1.15483 -0.0184711 3.30123
0.969937 0.149693 3.09059
0.482645 -0.805745 3.0947
0.286285 1.6487 2.00608
-0.00094199 -1.10099 3.02115
-0.0649212 0.360771 2.31646
-0.298331 0.833421 2.01778
0.29492 0.62528 2.38323
0.264652 -0.719032 2.98157
-0.192187 0.946227 2.01671
0.291174 -0.639364 2.96236
-0.343158 1.02982 1.94169
0.834267 -0.226647 3.0955
0.257265 0.0155051 2.65539
0.185427 1.44942 2.00789
1.04725 0.0690805 3.18312
0.176743 1.3506 2.03197
-0.765995 0.265915 2.04748
0.504196 -0.00193645 2.80651
-0.0732664 1.11899 2.0028
1.01431 0.155214 3.1308
0.292143 -1.10555 3.11681
0.728759 -0.161799 3.00885
1.13204 0.285503 3.2292
0.245326 -0.541486 2.90272
-0.169194 1.10102 1.97474
-0.727169 -0.166971 2.24269
0.452201 0.939709 2.34022
-0.525238 -0.746562 2.63025
-0.38306 -1.17089 2.89561
0.0386725 -0.867853 2.9479
0.589659 0.750851 2.5226
0.847595 1.05894 2.62808
0.588509 -0.274459 2.96701
-0.388813 0.953063 1.95032
0.916359 0.851291 2.78704
0.12103 0.40151 2.39213
-0.654869 -0.0175815 2.21225
-0.195268 0.819048 2.06107
0.354698 0.127052 2.6575
0.241856 1.39066 2.05031
0.0868685 -0.278578 2.70742
0.723697 0.606813 2.69558
0.0426814 -0.373691 2.73099
-0.0467731 1.3078 1.95673
0.134346 0.333354 2.43233
0.400358 -0.0174285 2.7519
0.0189936 0.572686 2.25904
-0.781546 -0.354594 2.29896
0.253907 1.16743 2.13044
0.502512 0.589698 2.53286
0.332508 -0.331748 2.85552
0.377733 1.63196 2.05619
-0.942301 0.209321 1.99362
0.396441 1.70319 2.05128
0.170642 1.44075 2.00382
0.308745 -0.992445 3.08992
0.649027 2.00565 2.18451
-0.498606 -1.22811 2.8658
0.485773 -0.0746231 2.82729
-0.89148 0.49411 1.93003
-0.0918514 0.185631 2.3876
-0.556684 0.383994 2.08782
0.714097 0.224483 2.85138
-0.578532 0.678492 1.97576
-0.738709 0.313169 2.04156
-0.623853 -0.392417 2.40334
-0.579776 0.457266 2.05094
-0.657964 0.0689841 2.17309
0.159632 -0.693082 2.9274
-1.0485 0.34276 1.91476
0.344395 1.1638 2.18169
0.473205 -0.528285 3.0016
-0.23139 -1.51534 3.08007
1.12156 0.0257825 3.26272
-0.599886 0.0223961 2.2209
-0.842203 0.167673 2.05062
0.20208 -0.34368 2.7955
-0.384571 -1.57271 3.04424
0.989824 0.301046 3.06474
-0.966321 0.256111 1.96941
0.737199 -0.356949 3.07633
0.291848 1.13285 2.16368
-0.0220447 -1.21409 3.05284
0.468186 0.809394 2.40841
-0.458455 -0.153395 2.37266
-0.0150688 1.25706 1.982
0.375538 -0.542598 2.9624
0.0588105 -1.1277 3.05102
-0.667407 -0.116543 2.25042
-0.316952 0.817402 2.01679
-0.628059 -0.701131 2.55213
0.0613887 -1.10268 3.04347
0.486908 -0.149488 2.86009
-0.908573 0.0203531 2.07401
-0.729461 -0.950489 2.61439
-0.36061 -0.58018 2.6336
0.90329 1.20422 2.64017
