ply
format ascii 1.0
comment Created by Open3D
element vertex 200
property double x
property double y
property double z
end_header
-1.16863 -2.24989 0.0390438
-1.36935 -1.72041 1.2219
0.25236 -2.78711 -1.7098
-1.46838 -1.52578 1.31173
-1.46268 -1.67746 0.301339
-1.35323 -1.8201 1.7249
-0.445055 -2.96384 -1.17216
-0.688176 -2.18727 -1.34788
-1.04828 -1.41746 -1.51791
-0.791494 -2.66898 -0.877604
-1.04844 -2.29035 -0.741446
-0.353933 -3.61215 -0.623298
-0.87159 -2.81516 -0.274064
-0.887802 -2.61761 1.8017
-1.39063 -1.70526 0.90667
-1.1838 -2.19468 -0.347981
-1.05311 -2.4272 0.542228
-0.389893 -1.51472 -1.76874
-1.47279 -1.81063 2.11435
-1.49177 -1.52886 0.813674
-1.1114 -2.28807 -0.502794
-0.506644 -2.29373 -1.44453
-0.632209 -3.23258 0.243424
-0.346973 -2.73759 -1.38371
-1.87411 -0.835032 1.6138
-0.653332 -2.31802 -1.3131
-0.888293 -2.03187 -1.25014
0.0494462 -3.57881 -1.254
-0.845818 -2.21055 -1.17721
-0.733245 -2.97668 0.683246
-2.15899 -0.495339 1.82274
-0.951338 -2.50522 1.57307
-0.510431 -3.45171 0.00192116
-0.866826 -1.67208 -1.47435
-0.76107 -1.37738 -1.6647
-1.2138 -2.02976 1.19715
-2.00297 -0.693121 1.82696
-0.282415 -2.39078 -1.55952
-1.34003 -1.82486 1.6541
-0.91135 -1.80903 -1.36756
-0.3743 -2.86982 -1.29815
-1.89653 -0.978861 2.07022
-0.358225 -2.27899 -1.55013
-0.975694 -1.70433 -1.3827
-1.33879 -1.93539 1.92776
-0.207783 -2.09921 -1.68884
-0.402227 -3.31038 -0.961643
-1.03935 -2.47771 0.380171
-1.78721 -1.00576 0.997021
-0.848911 -2.78377 0.685817
0.0593196 -2.81159 -1.61512
-0.458594 -3.16755 -1.00389
-0.492004 -3.45342 0.161215
-1.7235 -1.0821 1.11597
-1.27109 -1.92012 1.11954
-0.823406 -2.54957 -0.936926
-0.585544 -3.21905 -0.664627
-1.51513 -1.5171 1.76679
-1.16787 -2.22425 -0.346866
-1.41777 -1.62464 1.23772
-1.76077 -1.0119 1.20331
-0.783795 -2.74059 1.65114
-0.665871 -1.82507 -1.52673
-0.280408 -2.69246 -1.45283
-0.793943 -1.94534 -1.3837
0.523526 -3.21737 -1.64849
-0.826766 -2.92028 0.0199203
-0.00245332 -2.87116 -1.5623
-0.863453 -1.72959 -1.44637
-0.720984 -2.66536 -1.00968
-1.7927 -0.94992 1.35807
-1.29666 -1.80229 -0.909799
-1.19732 -2.04962 -0.717475
-0.651334 -2.92994 -0.888967
-0.902574 -2.58494 1.68876
-1.30071 -1.9869 0.179391
-1.57789 -1.49775 0.257265
-1.61087 -1.4962 2.05735
-0.833746 -2.6797 1.48716
-1.60472 -1.51619 2.06748
-0.772838 -2.98152 0.351239
-1.17791 -2.21903 0.231999
-0.99953 -2.20392 -0.962727
-0.444533 -3.17889 -1.01571
-1.2503 -1.96744 1.04306
-1.49751 -1.48394 1.04884
-0.732724 -2.9627 -0.631365
-1.1779 -2.1514 1.73138
-2.03517 -0.804222 2.1317
-1.73113 -1.31827 0.106516
-1.04179 -2.12171 -0.975463
-0.826303 -1.52676 -1.56873
-1.16575 -1.57974 -1.32901
-1.30218 -2.16967 2.17668
-0.524626 -3.33464 0.474237
-1.34306 -1.77374 1.34436
0.0542972 -2.58911 -1.68155
-0.223817 -3.78611 -0.610717
-0.367616 -2.14048 -1.59025
-0.604209 -2.98652 -0.9229
0.774402 -3.8721 -1.29323
0.63356 -4.14627 -0.964382
0.907372 -4.0256 -1.11299
1.97204 -3.73509 -0.575868
1.39786 -4.08428 -0.626125
2.04319 -3.48006 -0.917577
1.86569 -3.77254 -0.67119
1.15793 -4.18636 -0.627927
0.658247 -4.21894 -0.814225
1.06614 -4.20888 -0.657107
1.6654 -3.96875 -0.510501
1.25959 -4.03321 -0.912107
1.84631 -3.84624 -0.526111
1.81733 -3.84386 -0.587066
1.56065 -3.94842 -0.745949
0.600922 -4.12678 -0.992146
1.17279 -3.76046 -1.30709
0.60203 -3.38489 -1.59138
1.56661 -3.70323 -1.12714
2.0924 -3.57957 -0.693204
1.94674 -3.57049 -0.908071
0.526451 -4.01463 -1.12751
1.08043 -4.15582 -0.806008
1.22013 -4.16122 -0.635539
0.669242 -3.47207 -1.55841
1.60337 -4.00013 -0.530161
1.65493 -3.7233 -1.02009
1.24522 -4.19098 -0.397986
1.44415 -3.63451 -1.29004
0.739013 -4.09618 -1.0455
0.704025 -4.23137 -0.781239
1.7522 -3.96366 -0.292682
0.0837988 -3.86996 -1.02423
2.1813 -3.59854 -0.510397
0.572 -3.30506 -1.62227
1.904 -3.8925 -0.166431
2.28865 -3.4963 -0.534507
1.03986 -3.59793 -1.47631
1.4186 -3.98235 -0.851561
1.91772 -3.8878 -0.136843
0.480579 -3.47006 -1.52082
0.932714 -4.21339 -0.757931
2.14207 -3.68376 -0.377434
2.34356 -3.37709 -0.658021
1.50455 -3.6374 -1.24786
1.62521 -4.01777 -0.397983
1.45333 -3.78521 -1.11887
0.566001 -3.61349 -1.46148
0.17628 -3.98875 -0.959982
1.14642 -4.12449 -0.824834
0.320084 -3.98865 -1.07151
1.59148 -3.74661 -1.05017
0.711266 -4.21024 -0.837374
2.24685 -3.55263 -0.492611
0.412955 -3.98699 -1.12046
1.61939 -4.02474 -0.375823
1.60175 -3.68892 -1.1144
0.589892 -3.87643 -1.27753
0.224465 -3.81555 -1.19068
0.379978 -3.83518 -1.25302
0.665136 -4.0931 -1.04997
1.22785 -4.17469 -0.564612
0.968427 -4.05832 -1.04914
0.893936 -4.18837 -0.844447
0.396319 -3.52971 -1.4634
2.11449 -3.4761 -0.830676
2.15085 -3.54892 -0.658516
0.613646 -4.19224 -0.872231
1.50697 -3.97516 -0.759303
0.190504 -3.77513 -1.20381
0.246537 -3.84791 -1.17513
0.741464 -3.55512 -1.51955
0.403819 -3.70047 -1.36249
0.560412 -4.13973 -0.962119
0.737758 -4.24748 -0.726888
1.26104 -3.69716 -1.32808
1.24367 -3.76303 -1.27359
1.11926 -4.16685 -0.741167
0.343271 -3.98732 -1.08638
0.953 -4.25101 -0.591361
0.652221 -4.24331 -0.741398
1.41895 -3.73132 -1.20614
2.07115 -3.5666 -0.747183
1.23371 -4.02975 -0.939811
1.27072 -3.72563 -1.29693
0.257716 -4.04425 -0.950559
1.05978 -4.2314 -0.556454
1.36513 -4.03155 -0.810442
1.08576 -4.15741 -0.797647
0.80167 -3.61211 -1.48711
1.37555 -4.07518 -0.689106
0.967812 -4.23432 -0.657404
1.60105 -3.74656 -1.04121
2.02817 -3.57174 -0.799475
1.68277 -3.79201 -0.886796
1.33602 -3.78707 -1.19808
0.526189 -3.377 -1.57848
0.61931 -4.22001 -0.805794
0.953847 -4.2506 -0.592767
1.64605 -3.82005 -0.883634
