ply
format ascii 1.0
comment Created by Open3D
element vertex 250
property double x
property double y
property double z
end_header
0.196328 2.56642 1.75819
-1.54934 1.90752 0.286722
0.782759 2.32526 0.459077
-0.290426 2.5447 1.93608
1.01948 2.66139 1.28797
0.265746 2.39108 0.939503
-0.804235 2.2444 0.702301
-1.9363 2.17049 1.41522
-1.61524 1.798 0.0817265
-2.40539 1.37682 0.984438
0.96876 2.29955 0.238876
-1.40408 2.35774 1.43708
1.1463 2.63673 1.0749
-2.85284 1.16694 1.91089
0.148392 2.46948 1.29125
-1.60654 2.47073 2.18404
-2.27214 2.24731 2.22054
0.222945 2.48872 1.33911
-0.910822 2.17884 0.505922
-2.17361 2.27547 2.08225
-1.79693 2.02328 0.91826
-1.80961 2.20991 1.3643
0.52972 2.32716 0.595433
-1.37298 1.9216 -0.0596306
-2.40498 1.16281 0.810126
-0.663644 2.2784 0.773245
0.882626 2.45864 0.832047
-0.887804 2.47661 1.66051
-0.702956 2.29845 0.864735
-2.1996 1.09527 0.335639
-2.29085 2.16624 1.95222
-2.64173 1.82827 2.04753
-1.50913 1.84797 -0.0231821
1.18498 2.49918 0.685615
-2.0897 1.4254 0.425613
0.798591 2.20209 -0.177007
0.721702 2.70449 1.94676
-2.84573 1.16116 1.87609
-1.48916 2.18979 0.994082
0.47886 2.57301 1.54336
0.1466 2.55083 1.69231
-2.41561 1.69682 1.33826
-0.322434 2.23416 0.469784
1.57707 2.53976 0.334289
1.03673 2.72613 1.45121
-2.10658 1.39251 0.422206
1.72414 2.51065 0.0368037
-2.2919 1.05429 0.501657
-0.167803 2.32384 0.806163
-1.32454 2.30602 1.21083
-2.30118 1.78105 1.24493
1.152 2.33265 0.213155
-2.09989 1.94014 1.17109
-2.37442 1.51475 1.05801
-1.37405 2.04698 0.461987
-2.40793 1.40739 1.0169
-1.44043 1.87616 -0.116663
-0.863728 2.32073 1.01116
-0.268792 2.49768 1.57706
0.999555 2.56906 1.05204
-2.70243 1.40318 1.64244
-2.62898 1.13463 1.25525
-2.03001 1.14776 -0.0342114
-2.53902 1.08084 1.02581
0.929485 2.58644 1.17049
1.51919 2.3347 -0.270445
-1.4004 2.3234 1.31987
-2.08696 2.21888 1.73958
-1.01297 2.5193 2.01982
1.45799 2.32545 -0.198607
-1.73694 2.23163 1.34353
0.721738 2.19881 -0.141133
-0.507895 2.5406 2.01882
-2.63278 1.85655 2.07886
1.16696 2.27312 -0.058112
-0.0777983 2.51203 1.58523
-2.03544 1.69112 0.676132
-2.62466 1.08926 1.21538
-0.228196 2.40927 1.16219
-2.48293 1.5321 1.28159
-2.41939 1.87165 1.58766
0.950243 2.41522 0.648797
-2.59889 1.94108 2.17469
-1.84479 1.91463 0.758842
-0.949535 2.52992 2.15273
-2.07079 2.29545 1.9561
0.109034 2.57359 1.92046
-2.74428 1.41417 1.76865
-2.76818 1.49607 1.9385
1.33772 2.34653 0.0698769
-0.392825 2.51507 1.72297
-0.471549 2.48496 1.57079
-0.870419 2.16422 0.416229
-0.54653 2.53676 1.97968
0.932364 2.31027 0.306958
-1.9987 1.55998 0.417782
-2.53925 2.01414 2.17391
-1.76206 1.76892 0.325331
1.15834 2.27483 -0.0394218
1.02621 2.24758 -0.0528032
-2.31852 1.39205 0.833261
-0.300253 2.2465 0.518928
0.779517 2.21015 -0.0888753
-0.893925 2.08464 -0.0314596
-2.10781 0.956129 0.00107543
1.31328 2.42382 0.34978
-2.00479 1.31825 0.101904
0.681456 2.31649 0.482538
-1.97474 1.64968 0.505968
-0.476602 2.21269 0.424286
-2.25197 2.2434 2.13745
-1.92312 1.50332 0.167099
0.903522 2.75408 1.78044
-0.179158 2.16187 -0.0438534
1.41934 2.42096 0.221481
1.30897 2.55818 0.704116
0.986801 2.67176 1.35789
-1.336 1.93459 -0.104392
0.774021 2.41015 0.754919
-2.38234 1.0314 0.672112
1.38783 2.5017 0.47792
-2.03382 2.37095 2.30886
-1.37291 1.98909 0.26082
-1.15432 2.20882 0.782408
0.360305 2.46957 1.1946
-0.587267 2.53887 2.04077
1.12811 2.56516 0.913511
-1.53034 2.47361 2.08327
0.145692 2.45931 1.25015
-1.94722 2.37579 2.09728
0.165946 2.32936 0.736881
-0.456555 2.22045 0.452914
0.568523 2.29467 0.452258
0.238325 2.22281 0.246374
-1.10148 2.47884 1.76801
-0.561735 2.5267 1.87463
-0.995128 2.37074 1.25117
-1.51816 2.01424 0.545905
-1.74792 2.44441 2.19894
0.315656 2.53072 1.47232
-1.88962 1.41808 -0.0772244
1.11765 2.58473 0.974634
-1.41058 2.45783 1.8557
-0.596926 2.46577 1.51008
-1.66458 2.45482 2.12772
-2.10059 0.909404 -0.0568822
0.848965 2.29203 0.291247
-0.71143 2.27194 0.766959
1.42033 2.69135 0.862985
-1.5468 2.45041 1.94057
-0.613236 2.4058 1.25117
-2.22056 2.11366 1.68912
-0.102747 2.50026 1.53227
-2.08313 1.17937 0.141401
-1.84741 2.34363 1.80311
-2.35998 1.35313 0.87643
-1.09426 2.35887 1.2548
-0.602619 2.18209 0.332484
-1.75517 1.881 0.556915
1.31053 2.40911 0.309192
-1.09388 2.37604 1.31724
0.180749 2.57727 1.86676
-0.433513 2.23917 0.529282
-2.7174 1.5994 1.90547
-1.77109 2.33788 1.6937
-1.68783 2.28048 1.43016
-2.63177 1.85022 2.06104
-0.185578 2.16749 0.019667
0.527923 2.19357 -0.0594339
0.611602 2.4449 0.969147
0.0603353 2.56125 1.8401
-2.59921 1.70668 1.72977
-0.46447 2.51545 1.75031
1.55934 2.61113 0.516835
-0.867024 2.11954 0.191556
-0.641162 2.12322 -0.0563077
-2.31622 1.0338 0.537749
-1.60692 2.41959 1.84325
-0.250615 2.50667 1.6213
-1.36802 2.23086 1.01042
-0.0284971 2.54923 1.80459
0.0562118 2.46937 1.32721
-0.121893 2.28097 0.618973
-0.325834 2.35498 0.970168
-2.45994 1.93182 1.77036
0.986737 2.83673 1.99818
-2.58183 1.97903 2.22981
0.842568 2.2277 -0.0155238
-1.99676 1.82546 0.823826
0.458144 2.58816 1.63803
0.456297 2.63082 1.9626
-1.9963 1.67358 0.581626
0.190244 2.58439 1.93774
-2.3965 1.86518 1.53458
-1.72647 2.10064 1.00777
0.620835 2.18634 -0.199421
0.757824 2.56125 1.25268
-2.24488 2.27446 2.30115
-1.30895 1.98155 0.11385
0.843734 2.48531 0.94275
-2.61497 1.71559 3.00004
-2.83262 1.18854 2.77231
-2.73335 1.65815 2.78911
-2.71401 1.77065 2.21334
-2.55947 1.73896 3.06663
-2.78222 1.63027 2.24089
-2.74879 1.42809 2.91133
-2.80657 1.57985 2.55979
-2.14327 0.112443 3.56401
-2.46511 1.64399 3.23087
-2.69615 1.81684 2.25597
-2.61713 1.88969 2.79622
-2.2525 0.540902 3.53576
-2.57621 2.01227 2.58179
-2.77364 1.62298 2.68233
-2.68147 1.06613 3.09348
-2.50829 2.08625 2.57624
-2.23372 0.349003 3.52396
-2.74397 0.805139 2.97084
-2.34599 0.703778 3.46571
-2.59876 1.99135 2.45624
-2.33113 0.379995 3.43201
-2.58495 1.66237 3.081
-2.84535 1.46445 2.33593
-2.81363 0.978198 2.84162
-2.52212 1.00888 3.30128
-2.8554 1.24108 2.67503
-2.5755 1.7002 3.07078
-2.15572 0.59534 3.62615
-2.61055 1.2735 3.17845
-2.43336 1.79367 3.17524
-2.77029 1.59126 2.73897
-2.87174 1.32109 2.22114
-2.79874 1.25318 2.85074
-2.83508 1.07084 2.78324
-2.34891 1.14852 3.46325
-2.31534 1.49514 3.41617
-2.47176 1.2743 3.33569
-2.5137 1.00574 3.31067
-2.8073 0.989617 2.85684
-2.73886 1.15255 2.99366
-2.6474 0.705302 3.11224
-1.89511 1.1095 3.75903
-2.02304 0.557604 3.72914
-2.23262 0.609371 3.56129
-2.58685 0.798917 3.20933
-2.15511 0.819099 3.63369
-2.50245 2.04299 2.77603
-2.55206 0.928432 3.26402
-2.60609 0.674812 3.16547
