ply
format ascii 1.0
comment Created by Open3D
element vertex 250
property double x
property double y
property double z
end_header
2.06961 0.402114 2.29593
-0.00352966 -0.757762 2.35523
1.04141 1.31455 1.84871
2.05869 -0.0891153 2.46213
1.94012 1.31824 2.06867
1.31211 0.712671 2.10737
0.693186 -0.161702 2.38132
0.940763 -1.42693 2.74626
-0.232259 -0.774284 2.27926
0.260698 -1.94308 2.19252
0.899962 1.54849 1.75378
1.17655 -0.914814 2.71558
1.7845 1.49931 1.99735
0.9277 -2.75374 2.16985
1.60707 0.505613 2.22472
1.81162 -1.33352 2.89745
1.5773 -1.99462 2.94575
1.68046 0.557735 2.21396
0.46447 -0.200708 2.36154
1.4885 -1.84763 2.93407
0.509355 -1.16984 2.55692
0.94429 -1.28538 2.7342
1.0782 1.04706 1.9473
-0.259102 -0.469705 2.30075
0.0684587 -1.95169 1.99465
0.813416 -0.0568269 2.35894
1.44083 1.30422 1.93372
1.58291 -0.517624 2.62783
0.886979 -0.118304 2.3925
-0.307186 -1.61868 1.85365
1.31092 -1.93656 2.87801
1.22543 -2.39202 2.70005
-0.284348 -0.625899 2.28482
1.41838 1.63266 1.85547
-0.136861 -1.44259 2.11659
0.4413 1.52794 1.72886
2.44979 0.827201 2.22244
0.897209 -2.7364 2.16179
0.712602 -0.877286 2.59298
1.97199 0.727811 2.1939
1.98888 0.379369 2.30056
0.630842 -1.97407 2.49207
0.647211 0.334901 2.18748
1.23836 2.11613 1.74291
2.10652 1.29338 2.12187
-0.150792 -1.46732 2.09266
1.01125 2.34521 1.65973
-0.192442 -1.77549 1.85111
1.02579 0.369869 2.21117
0.98808 -0.778627 2.63736
0.597403 -1.8109 2.5261
0.945832 1.72644 1.71423
0.62365 -1.55458 2.59605
0.359817 -1.89603 2.3081
0.240793 -0.625904 2.41698
0.294265 -1.94686 2.22173
-0.342295 -0.521518 2.28457
0.96868 -0.303691 2.47461
1.72776 0.0501182 2.41042
1.70158 1.35887 1.99099
0.767449 -2.43911 2.33055
0.396376 -2.32319 2.05433
-0.581237 -1.31383 1.83724
0.208334 -2.17761 1.97021
1.78879 1.25988 2.03386
0.629166 2.22565 1.57561
1.06454 -0.878961 2.68245
1.19425 -1.66255 2.84862
1.87688 -0.746869 2.71518
0.672543 2.14265 1.59048
0.953972 -1.20772 2.72645
0.446791 1.44745 1.75524
2.05764 -0.307848 2.54157
1.26168 -2.38637 2.72274
0.691786 1.82197 1.65351
1.80493 0.215091 2.35058
0.152685 -1.3982 2.34132
0.354424 -2.32028 2.01076
1.34588 0.212278 2.3132
0.530561 -2.06807 2.36565
0.885525 -2.01092 2.65504
1.28907 1.41671 1.86773
1.37457 -2.36424 2.78787
0.329237 -1.1881 2.47486
2.02365 -0.739828 2.70071
1.41123 -1.70453 2.91317
2.18972 0.26804 2.33596
0.870874 -2.51924 2.35671
1.03134 -2.57568 2.44153
0.881154 1.9447 1.65598
1.82126 -0.105439 2.47395
1.64842 -0.125042 2.47626
0.393748 -0.137068 2.33257
2.00726 -0.327204 2.55281
0.951564 1.49516 1.77761
-0.0922124 -1.31434 2.20611
1.40564 -2.2872 2.83256
-0.0633618 -1.0031 2.30858
0.706257 1.80807 1.65839
0.643187 1.69077 1.68378
0.153971 -1.8057 2.17334
0.702263 0.339389 2.19039
0.51716 1.48078 1.74361
-0.039826 -0.0139405 2.26805
-0.604206 -1.46149 1.68997
1.14243 1.84405 1.73675
-0.4216 -1.28412 1.98511
1.02598 1.216 1.87938
0.010866 -1.29593 2.27981
0.547525 0.21313 2.22664
1.50709 -1.94698 2.93442
-0.305391 -1.17393 2.12484
2.36768 1.06358 2.19868
0.212742 0.628198 2.06587
1.06098 1.98267 1.69352
1.48795 1.75228 1.86253
1.99468 1.26726 2.09075
-0.28548 -0.416419 2.2986
1.32407 1.22389 1.93048
-0.0702907 -1.92601 1.86457
1.29858 1.88618 1.78017
1.76126 -1.78128 2.96879
0.0468632 -0.568418 2.36307
0.638211 -0.503753 2.48242
1.59271 0.723509 2.1437
2.04961 -0.384608 2.57034
1.61848 1.52024 1.93819
1.74589 -1.22891 2.87095
1.56666 0.51544 2.21635
1.59711 -1.62468 2.94011
1.08059 0.683204 2.08854
0.582198 0.22203 2.22614
0.954882 1.12348 1.90244
0.637403 0.895021 1.9624
1.60702 -0.740361 2.71167
1.90336 -0.30354 2.54933
1.15128 -0.490012 2.5711
0.262581 -0.792593 2.44189
1.77155 -1.46921 2.92724
1.84247 0.600741 2.21729
-0.531755 -1.08197 2.03326
1.67412 1.49484 1.96028
1.57567 -1.04517 2.81054
1.54519 -0.215609 2.5065
1.73674 -1.36714 2.90496
-0.662045 -1.44968 1.64404
0.904891 1.42354 1.79267
0.789767 -0.0974945 2.37125
1.6936 1.83361 1.94295
1.60483 -1.19655 2.85582
1.29144 -0.151655 2.45734
1.085 -1.79447 2.80254
1.74546 0.209901 2.34926
-0.433146 -1.41521 1.88678
1.35591 -1.43829 2.87221
0.1735 -1.87136 2.15326
1.11786 -0.580211 2.59807
0.413677 0.129881 2.2466
0.16944 -1.04622 2.40949
1.10181 1.85204 1.72421
1.17819 -0.597713 2.61378
2.166 0.351103 2.31192
0.663642 0.219093 2.23462
1.03391 -2.48316 2.51755
1.28097 -1.33331 2.83768
1.05853 -1.18168 2.75279
1.24464 -2.38093 2.71651
0.269979 0.600395 2.07352
0.45298 1.2489 1.82456
1.46966 1.01556 2.02474
2.09645 0.252861 2.3432
0.929077 -2.27711 2.57144
1.82124 -0.17692 2.50171
1.41119 2.05636 1.81563
0.180835 -0.0639844 2.29
0.0322322 0.224955 2.20696
-0.170696 -1.8173 1.84148
1.48915 -1.22152 2.85035
1.77637 0.0518844 2.41177
0.776542 -0.765627 2.58456
2.03047 0.186379 2.36609
1.60769 0.413132 2.25989
0.862801 0.465533 2.15399
1.126 0.183227 2.30041
1.04879 -2.09418 2.72614
2.61037 1.0805 2.24319
1.43708 -2.35735 2.81641
0.609789 1.51273 1.73568
0.322486 -1.37421 2.45063
2.05435 0.679258 2.21583
2.3598 0.568556 2.25594
0.0766452 -1.33482 2.31014
2.23598 0.334563 2.31487
0.843628 -1.97336 2.6403
0.628286 -1.1166 2.60143
0.35544 1.37922 1.78233
1.80035 1.073 2.07628
1.66539 -1.99259 2.9604
-0.0674093 -0.460245 2.33162
1.53326 1.23809 1.97324
2.09839 -2.77353 2.58571
1.73385 -3.0585 2.18206
1.85325 -2.81416 2.57794
1.34461 -2.53754 2.67447
2.18296 -2.74338 2.58606
1.3254 -2.65593 2.57088
1.92701 -2.95545 2.3713
1.60403 -2.81658 2.53362
2.55143 -3.15353 0.924077
2.35415 -2.75926 2.46221
1.39708 -2.52228 2.71031
1.93481 -2.63582 2.74738
2.54945 -3.08447 1.36172
1.76913 -2.47549 2.84497
1.7352 -2.82012 2.56086
2.0661 -3.09567 2.01113
1.79884 -2.38924 2.88732
2.51708 -3.13177 1.17725
1.89246 -3.19436 1.79392
2.47553 -3.07987 1.54798
1.64209 -2.45409 2.83426
2.40223 -3.16877 1.24316
2.17601 -2.7977 2.52505
1.36659 -2.80482 2.44184
1.7738 -3.14318 1.98047
2.30602 -3.05942 1.89726
1.64363 -3.02214 2.23932
2.17545 -2.77235 2.55638
2.67515 -3.0172 1.37498
2.20004 -2.99434 2.17557
2.33589 -2.65795 2.58834
1.78407 -2.85015 2.53028
1.23022 -2.8341 2.3195
1.82776 -3.03674 2.22881
1.72585 -3.10639 2.07427
2.53735 -2.92419 1.95998
2.55649 -2.75496 2.26737
2.39449 -2.93576 2.1232
2.31723 -3.05693 1.89113
1.79177 -3.13956 1.98859
1.96624 -3.0759 2.11293
2.04263 -3.20134 1.66473
2.96535 -2.66383 1.75027
2.81169 -2.95671 1.28934
2.59009 -3.05306 1.41737
2.16744 -3.15371 1.72805
2.7151 -2.94046 1.58147
1.97916 -2.47601 2.84512
2.24924 -3.09916 1.83439
2.10195 -3.19723 1.62075
