ply
format ascii 1.0
comment Created by Open3D
element vertex 250
property double x
property double y
property double z
end_header
-0.0334217 3.09343 0.38192
1.64856 1.53947 1.01666
-0.655863 2.0835 1.20797
0.454919 3.17029 0.224872
-0.859552 2.89506 0.813044
-0.127144 2.42439 0.881327
0.929391 2.10391 0.941884
2.06967 2.46296 0.33679
1.70495 1.31864 1.09674
2.48994 1.56044 0.126202
-0.847079 1.92802 1.35966
1.54805 2.64437 0.454321
-0.991485 2.74211 0.958946
2.9438 1.99335 -0.715918
0.000680296 2.70973 0.667117
1.77012 3.21262 -0.0350419
2.42421 3.03601 -0.222804
-0.0718863 2.75952 0.645362
1.02879 1.91963 1.04379
2.3246 2.97062 -0.0985906
1.91363 2.03121 0.61483
1.94418 2.46518 0.403446
-0.4005 2.16233 1.10214
1.46657 1.32989 1.28909
2.47544 1.28501 0.115449
0.792065 2.18334 0.913835
-0.741775 2.43496 1.01832
1.04276 2.90705 0.375168
0.83407 2.25686 0.857725
2.25792 0.931078 0.430566
2.4337 2.79699 -0.0755219
2.76888 2.58936 -0.377134
1.59951 1.29202 1.21048
-1.04444 2.3837 1.1607
2.16651 1.24322 0.583447
-0.689975 1.57154 1.6039
-0.547498 3.3479 0.341776
2.93575 1.96637 -0.693504
1.61613 2.22148 0.673913
-0.319301 2.97055 0.552774
0.0141956 3.0357 0.420079
2.52298 2.0334 0.0722102
0.443348 1.96676 1.11867
-1.4406 2.20153 1.45849
-0.870414 3.05231 0.733737
2.18164 1.21549 0.563934
-1.59459 1.99045 1.66516
2.35119 1.00552 0.277203
0.299856 2.26408 0.928627
1.46172 2.46007 0.591326
2.41118 2.04049 0.200075
-1.02888 1.94502 1.40432
2.21678 2.1209 0.364474
2.46735 1.71388 0.162808
1.48387 1.76856 0.980748
2.49463 1.60465 0.122018
1.53055 1.25477 1.30053
0.998517 2.36226 0.759574
0.424118 2.89881 0.463462
-0.84879 2.66895 0.928561
2.8004 2.00026 -0.35552
2.70616 1.54694 -0.241288
2.08418 0.734373 0.745886
2.60926 1.35951 -0.103062
-0.775693 2.75675 0.849878
-1.40464 1.64529 1.77536
1.54042 2.54135 0.519597
2.22872 2.70606 0.122643
1.17673 3.17028 0.131527
-1.34263 1.68278 1.7142
1.87231 2.47136 0.434771
-0.612716 1.58893 1.57336
0.673441 3.21098 0.155971
2.76196 2.63169 -0.381768
-1.05198 1.72186 1.5687
0.234278 2.92456 0.470462
2.13047 1.61048 0.572273
2.69881 1.48684 -0.241304
0.371236 2.56038 0.716938
2.58083 1.86924 0.00452762
2.54029 2.32897 0.000680535
-0.814967 2.2847 1.12834
2.7342 2.76003 -0.397106
1.95292 1.84207 0.661648
1.11645 3.26929 0.0400799
2.22054 2.90735 0.0111824
0.0571941 3.20169 0.263295
2.84513 2.08983 -0.443719
2.87635 2.26224 -0.517406
-1.21636 1.87002 1.52449
0.551622 3.00205 0.363168
0.625821 2.87494 0.455898
0.986 1.85142 1.10217
0.711082 3.18028 0.182053
-0.808901 1.97923 1.31499
2.08227 1.34336 0.680033
2.67831 2.81721 -0.347077
1.85472 1.45055 0.892019
-1.04293 1.73506 1.55565
-0.912611 1.69917 1.54515
2.40108 1.47625 0.251304
0.422755 2.0096 1.09039
-0.668846 1.63488 1.54277
0.996947 1.49467 1.38487
2.15289 0.610341 0.59124
-1.18273 2.11171 1.3652
2.07017 0.953257 0.757001
-0.554701 2.08735 1.18265
2.06454 1.47001 0.673652
0.595346 1.91285 1.13566
2.40229 2.97916 -0.162688
1.99918 1.13901 0.832021
-0.729724 3.28421 0.502769
0.286867 1.58026 1.45883
-1.29123 2.03008 1.46155
-1.16493 2.44634 1.1882
-0.825066 2.9474 0.766835
1.42945 1.31188 1.33195
-0.637235 2.3422 1.04205
2.44359 1.09653 0.132503
-1.25082 2.25848 1.322
2.19414 3.19896 -0.202757
1.47599 1.59228 1.09337
1.2787 2.11262 0.851617
-0.212761 2.65656 0.743693
0.753028 3.2202 0.136852
-0.979992 2.58091 1.03233
1.69226 3.15199 0.0438811
0.0020815 2.6748 0.691163
2.10388 3.06705 -0.0392274
-0.0344508 2.23919 0.990584
0.576264 1.93859 1.11971
-0.443606 2.04531 1.18878
-0.121421 1.83877 1.2894
1.25829 2.96905 0.291951
0.723759 3.10253 0.253895
1.13681 2.55177 0.610138
1.62772 1.79229 0.893425
1.91026 3.19566 -0.0663121
-0.159813 2.88371 0.574987
1.95678 0.915344 0.959539
-0.9674 2.63545 0.999226
1.56755 2.99574 0.206415
0.748896 2.81412 0.48636
1.8262 3.16056 -0.00443356
2.14224 0.537408 0.603952
-0.726839 1.95099 1.31313
0.839337 2.17194 0.913366
-1.2664 2.65667 1.15922
1.70481 3.03945 0.135259
0.757237 2.59723 0.640576
2.35586 2.58721 0.0883777
0.257591 2.87948 0.501925
2.14216 0.871468 0.634064
1.997 2.8535 0.162035
2.44134 1.47358 0.19241
1.23527 2.5403 0.597676
0.717893 1.8229 1.18189
1.8579 1.6879 0.79256
-1.18151 2.07373 1.38586
1.23694 2.59445 0.562205
-0.0152527 3.17255 0.307368
0.55565 2.00426 1.07525
2.83022 2.3203 -0.423351
1.91842 2.7807 0.24174
1.82737 2.56768 0.403029
2.7603 2.61522 -0.372567
0.294769 1.62614 1.41478
-0.417891 1.62927 1.50493
-0.469226 2.50168 0.901258
0.103672 3.13687 0.314478
2.71426 2.29039 -0.218394
0.623704 3.01681 0.341551
-1.41583 2.37475 1.36843
0.976086 1.6696 1.2412
0.746019 1.51984 1.43383
2.37513 1.01282 0.236121
1.76144 2.949 0.186726
0.407262 2.9357 0.436578
1.49755 2.26912 0.691111
0.191095 3.09993 0.331476
0.0934052 2.72878 0.63832
0.248292 2.11053 1.04155
0.462347 2.38787 0.823202
2.58729 2.49276 -0.0973362
-0.804515 3.49422 0.395682
2.72012 2.82573 -0.413025
-0.729527 1.69969 1.50055
2.10142 1.81064 0.551059
-0.296051 3.04343 0.491398
-0.285883 3.28987 0.276139
2.0887 1.53684 0.632304
-0.0230256 3.22529 0.259022
2.51611 2.29018 0.0366463
1.84887 2.15185 0.600188
-0.513696 1.53599 1.60691
-0.603984 2.7836 0.768317
2.39988 3.11101 -0.264793
1.40895 1.49269 1.19983
-0.69949 2.52616 0.95219
2.75461 3.13612 -1.16551
2.94109 2.58007 -1.34732
2.86592 2.94771 -1.04754
2.84131 2.65221 -0.540962
2.70164 3.20044 -1.19894
2.90288 2.56191 -0.65574
2.87209 2.85552 -1.2916
2.93073 2.73379 -0.928707
2.21364 2.3327 -2.63945
2.60576 3.24268 -1.38312
2.82661 2.71587 -0.542055
2.76165 3.13157 -0.89757
2.34375 2.62925 -2.33706
2.72288 3.08362 -0.654925
2.90235 2.84875 -0.991475
2.79011 2.7084 -1.66625
2.65867 3.13874 -0.600555
2.31511 2.47874 -2.45473
2.83705 2.4288 -1.74802
2.44396 2.70015 -2.17861
2.74196 2.98381 -0.575026
2.41219 2.43625 -2.36713
2.7235 3.15132 -1.26084
2.95939 2.49744 -0.83785
2.91286 2.4694 -1.53801
2.63207 2.81095 -1.85692
2.96463 2.55394 -1.24006
2.71577 3.17336 -1.22799
2.25156 2.73463 -2.36702
2.73135 2.92337 -1.59153
2.58053 3.31954 -1.24182
2.89848 2.86263 -1.05486
2.97634 2.31291 -0.847043
2.912 2.68202 -1.36276
2.93783 2.49907 -1.43338
2.46922 3.03128 -1.88278
2.45224 3.26131 -1.61765
2.59579 3.03492 -1.70628
2.62367 2.81524 -1.86588
2.90741 2.48833 -1.54175
2.84987 2.7042 -1.53534
2.73829 2.45242 -1.91824
2.01974 3.22048 -2.12177
2.11914 2.78116 -2.46669
2.32783 2.69838 -2.31056
2.68438 2.58973 -1.92801
2.26236 2.90714 -2.22472
2.65448 3.23875 -0.778898
2.6572 2.72459 -1.88273
2.69652 2.46687 -1.97754
