ply
format ascii 1.0
comment Created by Open3D
element vertex 250
property double x
property double y
property double z
end_header
-1.29438 -2.48805 -1.36033
-0.579472 -2.23397 0.891582
0.0912833 -2.07668 -1.3818
-1.62712 -2.59011 -0.975729
-0.566868 -2.36736 -1.96354
-0.524861 -2.27912 -1.09575
-0.679789 -2.39064 -0.0066215
-1.73598 -2.61339 0.78718
-0.422095 -2.13828 1.0479
-1.5789 -1.94629 1.53939
0.357009 -2.0006 -1.46752
-1.55642 -2.66615 0.254471
-0.327643 -2.30687 -1.99819
-2.6191 -1.8765 1.66464
-0.88464 -2.39314 -1.13048
-2.31058 -2.84503 0.149877
-2.59366 -2.7912 0.791168
-0.902142 -2.39495 -1.21941
-0.539324 -2.3477 0.174069
-2.42804 -2.79083 0.744285
-1.24061 -2.4234 0.868233
-1.64134 -2.61945 0.681342
-0.121262 -2.1437 -1.20026
-0.194644 -2.19542 0.850544
-1.43941 -1.73399 1.64735
-0.694998 -2.39135 -0.167007
-0.209076 -2.19176 -1.63361
-1.57825 -2.66191 -0.320065
-0.791575 -2.42281 -0.167971
-0.934007 -1.6058 1.64303
-2.35803 -2.70992 0.920738
-2.6027 -2.4701 1.27997
-0.282731 -2.15811 0.977571
0.0341953 -2.15362 -1.86571
-0.94465 -1.9016 1.43921
0.677772 -1.93628 -1.14443
-1.27843 -2.49927 -1.93501
-2.5848 -1.86823 1.67174
-1.18942 -2.51207 0.525141
-0.997587 -2.41997 -1.5428
-1.25126 -2.48325 -1.2884
-1.87784 -2.26857 1.35374
-0.301172 -2.25732 -0.360424
0.499286 -2.08819 -2.107
-0.706546 -2.43032 -2.05108
-0.950781 -1.87372 1.46294
0.823783 -2.0162 -2.12925
-1.12487 -1.59297 1.67724
-0.55369 -2.31575 -0.639578
-1.32379 -2.59058 0.273399
-1.74271 -2.31991 1.26427
0.446456 -1.98745 -1.63233
-1.58828 -2.42325 1.07257
-1.62202 -2.07448 1.4551
-0.668884 -2.33129 0.639732
-1.60673 -1.97742 1.52355
-0.169062 -2.16622 0.941978
-0.980198 -2.48743 -0.0783648
-1.28933 -2.5296 -0.858213
-0.363182 -2.27632 -1.84185
-2.29132 -2.06177 1.57118
-1.9342 -1.7731 1.69987
-0.525248 -1.60551 1.60808
-1.69529 -1.6929 1.7109
-0.495628 -2.3134 -1.82379
1.02258 -1.88716 -1.79579
-1.44938 -2.62881 0.300061
-2.08469 -2.70567 0.798982
-1.95168 -2.7434 -0.34257
0.93377 -1.895 -1.76351
-1.59503 -2.62228 0.617843
0.617971 -1.95275 -1.08649
-1.77821 -2.64123 -0.806277
-2.62585 -2.49617 1.25458
0.698565 -1.9188 -1.53704
-1.23103 -2.4973 -1.03796
-1.13126 -2.1528 1.24329
-1.90047 -1.72698 1.71995
-0.897501 -2.42284 -0.729165
-1.86572 -2.1237 1.47096
-2.093 -2.44572 1.23085
-0.0197427 -2.12829 -1.62085
-2.6947 -2.57248 1.17142
-1.11968 -2.3254 0.99185
-2.0534 -2.74186 -0.449577
-2.27324 -2.78181 0.691004
-1.47473 -2.52059 -1.33986
-2.42222 -2.08599 1.56222
-2.58004 -2.17579 1.50604
0.644533 -1.9519 -1.75363
-1.46563 -2.58054 -0.800776
-1.35319 -2.56639 -0.668793
-0.44346 -2.32129 0.172221
-1.75506 -2.64585 -0.756461
0.282271 -2.02168 -1.46083
-0.891802 -2.00976 1.32983
-2.66581 -2.62881 1.10151
-0.70255 -2.15233 1.10166
0.678374 -1.92305 -1.53618
0.643355 -1.9284 -1.40531
-1.40659 -1.93586 1.5105
-0.338287 -2.26522 -0.400667
0.589829 -1.95111 -1.16
-0.0415655 -2.2378 0.36925
-0.605619 -1.43956 1.70819
0.383116 -2.04032 -1.84723
-0.625196 -1.76835 1.49981
0.034245 -2.09344 -1.29604
-0.956282 -2.09328 1.25728
-0.312947 -2.27276 -0.199421
-2.5096 -2.78027 0.80305
-0.6382 -1.9297 1.36208
-1.05618 -2.49868 -2.05241
0.219385 -2.13858 -0.293372
0.538501 -2.00832 -1.89772
0.0651904 -2.18118 -1.99791
-0.642116 -2.38724 -1.9608
-0.138897 -2.19782 0.829898
-0.178907 -2.16908 -1.49698
-1.31725 -1.59735 1.70424
0.297023 -2.10116 -1.97735
-2.58228 -2.85553 0.516184
-0.486798 -2.26946 0.722455
-0.876578 -2.44341 0.291258
-0.722857 -2.3391 -1.28908
-1.82567 -2.65944 -0.741466
-0.190769 -2.23756 -1.90896
-2.19038 -2.82658 0.115564
-0.848243 -2.38282 -1.11127
-2.35474 -2.83347 0.511155
-0.375848 -2.23808 -0.919863
-0.332103 -2.27618 -0.22947
0.0220969 -2.09892 -1.17785
0.0954108 -2.10398 -0.789023
-1.75052 -2.71892 -0.164201
-1.66307 -2.63696 -0.703294
-1.24336 -2.57433 -0.0546147
-0.79952 -2.33684 0.748284
-2.37507 -2.85429 0.278956
-0.990824 -2.41673 -1.36
-0.407876 -1.83232 1.43659
-0.249284 -2.26073 -1.92533
-1.93897 -2.77605 0.0905351
-1.34078 -2.57663 -0.529095
-2.27924 -2.8422 0.226054
-0.554157 -1.39094 1.73232
0.266847 -2.02384 -1.37543
-0.705935 -2.39653 -0.119908
-0.0311297 -2.28751 -2.18444
-2.06505 -2.80426 0.186053
-1.11082 -2.51548 -0.409636
-2.09415 -2.63477 0.961301
-1.19122 -2.49053 -0.993974
-0.70386 -1.6538 1.58741
-2.0496 -2.77011 0.531397
-1.46522 -1.90937 1.54143
-1.28147 -2.58702 0.0368561
-0.272949 -2.27126 -0.0456613
-0.90439 -2.26556 0.989064
0.418518 -2.02564 -1.82717
-1.33783 -2.60526 0.0106921
-1.39995 -2.50528 -1.38691
-0.393678 -2.29079 -0.281517
-2.52064 -2.26274 1.44897
-1.92222 -2.74303 0.501915
-1.65409 -2.66003 0.531879
-2.60955 -2.48931 1.26134
0.158449 -2.14729 -0.311216
0.475697 -1.99699 -0.937939
-0.430104 -2.24802 -1.43257
-1.41736 -2.5183 -1.26446
-2.30468 -2.33331 1.38017
-1.51529 -2.59906 -0.745354
0.330507 -2.16661 -2.17098
-0.237173 -2.2711 0.258317
0.0710942 -2.21309 0.139704
-1.16907 -1.57998 1.69107
-1.99772 -2.78636 0.281873
-1.32358 -2.53509 -0.892348
-1.15935 -2.52288 0.400216
-1.41542 -2.52729 -1.16848
-0.949332 -2.41641 -1.05932
-0.367928 -2.25798 -0.605799
-0.756848 -2.38877 -0.560613
-2.27085 -2.51884 1.19001
-1.22261 -2.56444 -2.22312
-2.7363 -2.60661 1.12813
0.544425 -1.95476 -1.24711
-1.24149 -2.27763 1.12657
-1.09141 -2.44224 -1.56073
-1.3908 -2.49279 -1.68312
-1.03165 -2.12374 1.24492
-1.46233 -2.51179 -1.4222
-2.03637 -2.43246 1.23021
-1.29202 -2.48369 0.755621
0.637096 -1.96362 -0.971382
-0.6331 -2.33292 -1.69121
-2.65685 -2.81307 0.731938
-0.328658 -2.24265 0.717883
-0.322744 -2.23006 -1.6432
-3.49674 -2.37996 0.943454
-3.41535 -1.91571 1.33698
-3.34575 -2.34737 1.13824
-2.78845 -2.43625 1.29967
-3.53773 -2.39092 0.864327
-2.85269 -2.31746 1.38261
-3.49064 -2.13134 1.15929
-3.16464 -2.28308 1.30301
-4.04218 -0.726012 0.664897
-3.66999 -2.28032 0.741158
-2.81719 -2.47784 1.25827
-3.28766 -2.54381 0.979484
-4.00526 -1.16725 0.680731
-3.05984 -2.64695 0.991319
-3.26337 -2.32019 1.22032
-3.67825 -1.76891 1.11265
-3.0236 -2.70202 0.915356
-4.00908 -0.9763 0.709708
-3.61345 -1.52774 1.26983
-3.95326 -1.34602 0.754987
-2.95236 -2.62876 1.06079
-3.95251 -1.02756 0.824055
-3.56821 -2.32324 0.899138
-2.98114 -2.17459 1.44263
-3.49698 -1.709 1.3411
-3.82517 -1.68026 0.906745
-3.32627 -1.96957 1.38062
-3.55129 -2.35735 0.8859
-4.05115 -1.19894 0.54886
-3.7109 -1.95503 0.972848
-3.59074 -2.41624 0.699279
-3.3187 -2.29015 1.20417
-2.89853 -2.03891 1.5385
-3.47013 -1.97225 1.26432
-3.4394 -1.80248 1.36104
-3.90283 -1.7779 0.661449
-3.80922 -2.10456 0.571906
-3.81106 -1.92629 0.790837
-3.83147 -1.67541 0.896442
-3.50782 -1.71895 1.32748
-3.59471 -1.86397 1.18129
-3.72415 -1.41127 1.15379
-4.03081 -1.6377 0.152616
-4.10692 -1.13287 0.400001
-4.01487 -1.2295 0.638678
-3.78419 -1.48993 1.04395
-4.03329 -1.41596 0.496805
-3.21323 -2.66403 0.848855
-3.80931 -1.60853 0.964705
-3.76337 -1.37309 1.10405
