ply
format ascii 1.0
comment Created by Open3D
element vertex 200
property double x
property double y
property double z
end_header
0.930528 2.34852 0.218677
-0.320098 2.42021 0.606738
2.52809 1.63541 -1.29973
-0.457393 2.32346 0.772716
0.528876 2.06426 0.709408
-0.751925 2.69209 0.5537
2.19598 2.23858 -0.723033
2.11938 1.59445 -0.201241
2.05703 0.999624 0.426043
1.87034 2.22211 -0.290129
1.64831 2.04188 0.092156
1.90477 2.96977 -1.05532
1.37615 2.60616 -0.27207
-0.609072 3.23764 -0.181495
-0.031101 2.29416 0.632201
1.27079 2.15865 0.253825
0.511416 2.65158 0.0440983
2.22674 0.75387 -0.219443
-1.09757 2.87531 0.66778
0.00725996 2.14376 0.793144
1.43624 2.15352 0.151198
2.21972 1.58415 -0.409693
1.01058 3.07585 -0.65297
2.29708 1.92983 -0.727067
-0.92127 1.99292 1.4119
2.12837 1.70704 -0.28347
2.00345 1.56996 0.043112
2.41661 2.55734 -1.41523
1.99301 1.73537 -0.064508
0.528561 3.06147 -0.461698
-1.19269 1.88365 1.80509
-0.428276 3.07668 -0.0797858
1.29334 3.12742 -0.849337
2.08023 1.16947 0.160964
2.13642 0.807695 0.176036
-0.210641 2.61978 0.344646
-1.1495 1.99892 1.58526
2.32744 1.54371 -0.653996
-0.686764 2.66439 0.539679
2.03652 1.34297 0.149691
2.26878 2.0851 -0.752424
-1.28882 2.29827 1.37757
2.29034 1.47868 -0.541175
2.02291 1.27056 0.249204
-0.900698 2.86301 0.496237
2.33289 1.21896 -0.611367
2.11774 2.59979 -0.895219
0.676981 2.62781 0.0120524
-0.303807 1.87189 1.26628
0.474919 2.93868 -0.28101
2.47753 1.76079 -1.13075
2.11453 2.48164 -0.788483
1.14408 3.18332 -0.867013
-0.396044 1.96004 1.1782
-0.169307 2.51676 0.439537
1.8876 2.10876 -0.214948
1.83789 2.70031 -0.690903
-0.874035 2.50673 0.81923
1.27789 2.17868 0.22779
-0.361478 2.36163 0.688124
-0.496097 1.94672 1.2395
-0.441729 3.24822 -0.324646
2.15329 1.20896 -0.0832406
2.33523 1.84132 -0.771295
2.08243 1.41163 -0.0109429
2.58384 1.93025 -1.71491
1.13515 2.79255 -0.353712
2.45884 1.85369 -1.09648
2.07422 1.22808 0.13584
1.98075 2.14354 -0.353885
-0.656306 1.96433 1.29272
1.66764 1.64862 0.508253
1.56285 1.89821 0.321821
1.95258 2.39095 -0.519487
-0.514123 3.17175 -0.155343
0.727225 2.22445 0.441346
0.522929 1.93473 0.884619
-1.13585 2.63392 0.915676
-0.304441 3.15115 -0.255194
-1.13904 2.65269 0.902347
0.842803 2.95254 -0.426968
0.742707 2.3993 0.23906
1.81502 1.86613 0.0800432
2.1274 2.48182 -0.805812
-0.0849655 2.52052 0.402219
-0.225046 2.19744 0.815641
1.73808 2.54626 -0.456827
-0.666453 2.91536 0.264938
-1.38706 2.22175 1.57249
0.621189 1.77802 1.09487
1.80391 1.80603 0.150546
2.11012 0.994987 0.179139
1.95708 1.25196 0.472476
-1.05319 3.1453 0.372764
0.817666 3.21326 -0.791421
-0.418233 2.50329 0.56205
2.46099 1.54724 -1.04097
1.9356 3.07707 -1.2421
2.27981 1.34842 -0.479491
1.99703 2.40959 -0.584674
2.45038 2.53636 -2.19724
2.26412 2.94601 -2.17204
2.31865 2.68933 -2.37883
1.56379 2.27051 -3.25128
1.81776 2.75232 -2.85444
1.7789 1.8969 -3.21943
1.68067 2.30359 -3.16736
1.89066 2.9236 -2.67184
2.14747 3.05678 -2.22266
1.93902 2.9641 -2.59566
1.63091 2.60337 -3.0574
2.08417 2.64818 -2.70715
1.57553 2.42887 -3.17766
1.63525 2.41376 -3.14998
1.85659 2.53295 -2.95284
2.28766 2.93029 -2.13443
2.36536 2.29491 -2.52258
2.57881 2.06734 -1.85154
2.12121 2.17569 -2.86453
1.59958 2.0503 -3.30297
1.81621 2.01182 -3.16492
2.38398 2.80909 -2.02271
2.05574 2.85678 -2.58855
1.87969 2.87723 -2.71968
2.56934 2.13061 -1.947
1.66926 2.64456 -3.01211
2.01646 2.20256 -2.95381
1.66707 2.98467 -2.75425
2.26534 2.09799 -2.72509
2.30591 2.83493 -2.2503
2.11468 3.06382 -2.26971
1.41516 2.65169 -3.13565
2.30223 2.88164 -1.55839
1.42438 2.10502 -3.39236
2.58353 1.998 -1.79325
1.25114 2.5856 -3.24866
1.39478 1.97057 -3.45242
2.48371 2.13842 -2.33758
1.98697 2.57172 -2.8346
1.22013 2.58806 -3.25953
2.56153 2.20998 -1.77193
2.0533 2.97654 -2.47411
1.33741 2.24251 -3.38873
1.45871 1.80214 -3.45752
2.21856 2.09524 -2.78199
1.55018 2.70248 -3.03903
2.15914 2.28888 -2.79123
2.54491 2.32491 -1.90574
2.27133 2.97492 -1.68929
2.05238 2.7995 -2.63753
2.35328 2.88131 -1.82211
2.06178 2.23337 -2.9041
2.15802 3.02175 -2.26831
1.38211 2.04947 -3.43536
2.38431 2.82832 -1.90727
1.53302 2.71897 -3.03632
2.09923 2.15593 -2.89151
2.46442 2.61129 -2.02843
2.41617 2.72176 -1.66753
2.45793 2.65967 -1.81871
2.31977 2.85671 -2.18087
1.8178 2.91314 -2.73197
2.26229 2.72012 -2.44776
2.13007 2.93579 -2.42871
2.54191 2.31265 -1.71691
1.68677 1.90157 -3.28378
1.54814 2.01675 -3.34523
2.19815 3.02755 -2.17123
1.88624 2.56964 -2.91349
2.41899 2.69425 -1.62068
2.41002 2.74753 -1.7003
2.55222 2.19084 -2.04551
2.50796 2.49437 -1.78919
2.27043 2.96716 -2.10196
2.06523 3.08645 -2.30704
2.34946 2.20164 -2.57989
2.32494 2.28486 -2.58905
1.99404 2.87728 -2.62865
2.36314 2.86628 -1.84302
1.90974 3.06522 -2.50725
2.08968 3.10757 -2.22642
2.22575 2.22164 -2.73885
1.64798 2.02609 -3.27838
2.11233 2.64378 -2.68192
2.32932 2.23444 -2.59972
2.27032 2.9971 -1.78577
1.85492 3.02409 -2.5984
1.9742 2.64835 -2.80403
2.04779 2.85945 -2.59408
2.53359 2.23061 -2.12294
1.876 2.72834 -2.83035
1.96269 3.02047 -2.51455
2.05209 2.23338 -2.91293
1.7044 2.02566 -3.24063
1.91354 2.30238 -3.00582
2.25016 2.30163 -2.68357
2.57522 2.09235 -1.77846
2.14576 3.07468 -2.1871
1.91077 3.06403 -2.50787
1.92591 2.3405 -2.98262
