ply
format ascii 1.0
comment Created by Open3D
element vertex 250
property double x
property double y
property double z
end_header
-1.74777 -1.1791 -2.29593
0.538314 -0.533323 -2.35523
-1.66591 0.193142 -1.84871
-1.3927 -1.51873 -2.46213
-2.30401 -0.439732 -2.06867
-1.43174 -0.423866 -2.10737
-0.375816 -0.604497 -2.38132
0.343774 -1.67421 -2.74626
0.711734 -0.38327 -2.27926
1.18962 -1.55831 -2.19252
-1.73132 0.458578 -1.75378
-0.185078 -1.47882 -2.71558
-2.322 -0.201663 -1.99735
1.2912 -2.60317 -2.16985
-1.4939 -0.778851 -2.22472
-0.338066 -2.22395 -2.89745
0.295088 -2.52572 -2.94575
-1.58264 -0.793888 -2.21396
-0.186508 -0.470352 -2.36154
0.253945 -2.359 -2.93407
0.467032 -1.18737 -2.55692
0.241186 -1.57661 -2.7342
-1.50278 -0.0220196 -1.9473
0.515345 -0.148919 -2.30075
1.33164 -1.42846 -1.99465
-0.534989 -0.615355 -2.35894
-1.94104 -0.0965974 -1.93372
-0.753273 -1.4853 -2.62783
-0.543535 -0.710843 -2.3925
1.36179 -0.927367 -1.85365
0.442395 -2.29632 -2.87801
0.824909 -2.55792 -2.70005
0.643642 -0.241513 -2.28482
-2.15741 0.151525 -1.85547
1.11684 -0.923292 -2.11659
-1.39246 0.768367 -1.72886
-2.31719 -1.14735 -2.22244
1.30051 -2.56935 -2.16179
0.116449 -1.12422 -2.59298
-1.90905 -0.879768 -2.1939
-1.6746 -1.13809 -2.30056
0.949804 -1.84195 -2.49207
-0.694458 -0.220836 -2.18748
-2.37198 0.620674 -1.74291
-2.40409 -0.574973 -2.12187
1.14418 -0.930926 -2.09266
-2.37338 0.94325 -1.65973
1.39154 -1.11938 -1.85111
-0.986879 -0.463806 -2.21117
-0.148105 -1.24925 -2.63736
0.858072 -1.70293 -2.5261
-1.88958 0.551973 -1.71423
0.658269 -1.54024 -2.59605
1.08627 -1.59512 -2.3081
0.272315 -0.612847 -2.41698
1.16856 -1.58472 -2.22173
0.610808 -0.12673 -2.28457
-0.470218 -0.899702 -2.47461
-1.25715 -1.18627 -2.41042
-2.16407 -0.242332 -1.99099
1.18204 -2.26738 -2.33055
1.36246 -1.92302 -2.05433
1.34002 -0.518023 -1.83724
1.39249 -1.68712 -1.97021
-2.15574 -0.373996 -2.03386
-2.01866 1.12888 -1.57561
-0.131222 -1.37426 -2.68245
0.331137 -2.02007 -2.84862
-0.799036 -1.85527 -2.71518
-1.99064 1.03952 -1.59048
0.179426 -1.52855 -2.72645
-1.33943 0.707571 -1.75524
-1.23729 -1.67265 -2.54157
0.795282 -2.57956 -2.72274
-1.7775 0.799163 -1.65351
-1.42837 -1.12419 -2.35058
0.880714 -1.09664 -2.34132
1.39007 -1.8913 -2.01076
-1.10178 -0.801575 -2.3132
1.08719 -1.83751 -2.36565
0.795774 -2.0481 -2.65504
-1.91328 0.0902529 -1.86773
0.6998 -2.64374 -2.78787
0.607309 -1.07292 -2.47486
-0.907796 -1.95407 -2.70071
0.207399 -2.20318 -2.91317
-1.7379 -1.35883 -2.33596
1.16557 -2.39717 -2.35671
1.09201 -2.55055 -2.44153
-1.99818 0.752039 -1.65598
-1.21327 -1.36238 -2.47395
-1.07719 -1.25403 -2.47626
-0.181501 -0.375344 -2.33257
-1.18798 -1.65072 -2.55281
-1.73009 0.38438 -1.77761
0.994581 -0.864173 -2.20611
0.623362 -2.61123 -2.83256
0.754102 -0.664495 -2.30858
-1.7779 0.779099 -1.65839
-1.65036 0.740755 -1.68378
1.16795 -1.38569 -2.17334
-0.736559 -0.256591 -2.19039
-1.41276 0.681381 -1.74361
0.0380186 0.0183038 -2.26805
1.46067 -0.606194 -1.68997
-2.11176 0.496119 -1.73675
1.20613 -0.609895 -1.98511
-1.58532 0.134366 -1.87938
0.908675 -0.924041 -2.27981
-0.537865 -0.236453 -2.22664
0.31105 -2.4424 -2.93442
1.04604 -0.61415 -2.12484
-2.42626 -0.922139 -2.19868
-0.594634 0.293772 -2.06587
-2.15218 0.651733 -1.69352
-2.29119 0.186911 -1.86253
-2.30654 -0.51437 -2.09075
0.496317 -0.0925885 -2.2986
-1.80168 -0.0708384 -1.93048
1.4116 -1.31219 -1.86457
-2.25197 0.415498 -1.78017
0.0141578 -2.50495 -2.96879
0.368795 -0.435069 -2.36307
-0.0950759 -0.80749 -2.48242
-1.63782 -0.614621 -2.1437
-1.17733 -1.72125 -2.57034
-2.21941 -0.0694679 -1.93819
-0.365563 -2.1035 -2.87095
-1.47226 -0.743323 -2.21635
0.019492 -2.27815 -2.94011
-1.24719 -0.280992 -2.08854
-0.568675 -0.254677 -2.22614
-1.46963 0.119219 -1.90244
-1.08359 0.182164 -1.9624
-0.612819 -1.65985 -2.71167
-1.13124 -1.56051 -2.54933
-0.46759 -1.16057 -2.5711
0.374775 -0.746121 -2.44189
-0.213784 -2.29157 -2.92724
-1.72761 -0.878032 -2.21729
1.14108 -0.389063 -2.03326
-2.24079 -0.12677 -1.96028
-0.375116 -1.85321 -2.81054
-0.940152 -1.24507 -2.5065
-0.261348 -2.19478 -2.90496
1.49321 -0.556941 -1.64404
-1.64645 0.366738 -1.79267
-0.489511 -0.627389 -2.37125
-2.49411 0.0990072 -1.94295
-0.2887 -1.98088 -2.85582
-0.805952 -1.02042 -2.45734
0.501675 -2.03609 -2.80254
-1.38265 -1.0858 -2.34926
1.30698 -0.694421 -1.88678
0.0582476 -1.9758 -2.87221
1.20057 -1.44593 -2.15326
-0.380175 -1.20072 -2.59807
-0.384353 -0.200674 -2.2466
0.61998 -0.859604 -2.40949
-2.08868 0.530494 -1.72421
-0.410459 -1.25575 -2.61378
-1.77986 -1.28333 -2.31192
-0.624188 -0.314344 -2.23462
1.02478 -2.48694 -2.51755
0.0370084 -1.84858 -2.83768
0.0870812 -1.58407 -2.75279
0.803478 -2.56367 -2.71651
-0.615448 0.233639 -2.07352
-1.20341 0.562799 -1.82456
-1.75731 -0.321094 -2.02474
-1.66121 -1.30361 -2.3432
0.953207 -2.26712 -2.57144
-1.16271 -1.41291 -2.50171
-2.45193 0.456206 -1.81563
-0.0826259 -0.173114 -2.29
-0.181858 0.136275 -2.20696
1.40573 -1.16433 -1.84148
-0.189244 -1.91673 -2.85035
-1.29277 -1.2194 -2.41177
-0.00771798 -1.09048 -2.58456
-1.56755 -1.30397 -2.36609
-1.42893 -0.844677 -2.25989
-0.939274 -0.280911 -2.15399
-0.925762 -0.66664 -2.30041
0.739203 -2.22241 -2.72614
-2.60984 -1.08179 -2.24319
0.650727 -2.68306 -2.81641
-1.50085 0.638473 -1.73568
0.743681 -1.19975 -2.45063
-1.93295 -0.972334 -2.21583
-2.07066 -1.2666 -2.25594
0.889666 -0.998059 -2.31014
-1.81765 -1.3445 -2.31487
0.798843 -1.99191 -2.6403
0.345294 -1.23382 -2.60143
-1.22659 0.723921 -1.78233
-2.03176 -0.514311 -2.07628
0.231364 -2.58658 -2.9604
0.373108 -0.277777 -2.33162
-1.95964 -0.208717 -1.97324
0.477395 -3.44496 -2.58571
0.936664 -3.3887 -2.18206
0.679467 -3.30036 -2.57794
0.843527 -2.7451 -2.67447
0.396277 -3.48344 -2.58606
0.940832 -2.81523 -2.57088
0.727219 -3.45242 -2.3713
0.857405 -3.12584 -2.53362
0.425749 -4.03401 -0.924077
0.286461 -3.61573 -2.46221
0.795637 -2.7714 -2.71031
0.495686 -3.23192 -2.74738
0.378314 -3.98378 -1.36172
0.499475 -3.0014 -2.84497
0.767157 -3.2211 -2.56086
0.728017 -3.64992 -2.01113
0.417472 -2.96142 -2.88732
0.434651 -3.99434 -1.17725
0.920577 -3.59693 -1.79392
0.427335 -3.92826 -1.54798
0.57417 -2.89644 -2.83426
0.542024 -3.9393 -1.24316
0.439604 -3.51694 -2.52505
1.01698 -2.94963 -2.44184
0.968296 -3.47682 -1.98047
0.532731 -3.79394 -1.89726
0.974757 -3.29919 -2.23932
0.422075 -3.49862 -2.55638
0.241869 -4.0251 -1.37498
0.561654 -3.67298 -2.17557
0.22773 -3.53118 -2.58834
0.753834 -3.27689 -2.53028
1.13411 -2.87391 -2.3195
0.854875 -3.43972 -2.22881
0.97619 -3.41691 -2.07427
0.273532 -3.86189 -1.95998
0.140343 -3.75576 -2.26737
0.382732 -3.76906 -2.1232
0.523052 -3.8001 -1.89113
0.953034 -3.48698 -1.98859
0.784652 -3.56533 -2.11293
0.819336 -3.70804 -1.66473
-0.213206 -3.98043 -1.75027
0.102551 -4.07887 -1.28934
0.327368 -3.99032 -1.41737
0.697395 -3.76262 -1.72805
0.159354 -3.99909 -1.58147
0.351331 -3.15028 -2.84512
0.600984 -3.78189 -1.83439
0.774481 -3.74708 -1.62075
