ply
format ascii 1.0
comment Created by Open3D
element vertex 250
property double x
property double y
property double z
end_header
2.14727 2.11711 0.789561
2.43941 0.0834847 -0.404495
1.60424 1.04929 1.59866
2.38347 2.12598 0.327854
1.79318 1.95304 1.65871
1.93921 1.34549 1.04866
2.3567 0.761727 0.207492
2.89407 1.05836 -0.983527
2.37383 -0.14658 -0.438114
2.44286 0.380066 -1.59332
1.48071 0.898118 1.81228
2.78182 1.27716 -0.475264
1.70115 1.78999 1.82312
2.51768 1.07117 -2.38031
2.07619 1.64982 0.869029
3.00283 1.92964 -0.84558
3.15415 1.71743 -1.49854
2.05568 1.72123 0.92097
2.34995 0.533889 0.159868
3.12396 1.62381 -1.35729
2.68286 0.61421 -0.768636
2.86143 1.05715 -0.845223
1.73952 1.09704 1.34958
2.35157 -0.182318 -0.134505
2.25444 0.182933 -1.63598
2.31555 0.877983 0.311156
1.67735 1.45098 1.61164
2.62455 1.66843 -0.0844158
2.3554 0.954304 0.257259
2.07824 -0.20657 -1.33744
3.08702 1.44764 -1.45822
2.98002 1.37163 -1.93697
2.35934 -0.203102 -0.291971
1.55285 1.4162 1.92436
2.30731 -0.0348039 -1.12023
1.47336 0.439815 1.77596
2.00084 2.48174 1.20938
2.50813 1.03994 -2.36517
2.66959 0.809134 -0.468595
2.00199 2.00667 1.09406
2.15767 2.03728 0.765575
2.73205 0.758924 -1.57013
2.09416 0.695091 0.668936
1.37677 1.21824 2.38111
1.84423 2.12151 1.6464
2.28767 -0.0485954 -1.14856
1.26824 0.981944 2.58935
2.09499 -0.0871031 -1.48979
2.10068 1.0729 0.717171
2.69052 1.0825 -0.357123
2.74297 0.721342 -1.4047
1.41427 0.937336 1.98369
2.77401 0.741457 -1.14029
2.54721 0.480745 -1.5272
2.47366 0.325151 -0.258487
2.47125 0.414508 -1.59187
2.34571 -0.26426 -0.190349
2.46104 1.04392 0.0881615
2.32238 1.7896 0.449055
1.71789 1.71135 1.68109
2.63577 0.905567 -2.04996
2.35732 0.523761 -1.98577
2.02618 -0.490335 -1.04577
2.25881 0.329076 -1.8592
1.77198 1.80273 1.59183
1.21438 0.601643 2.44851
2.74733 1.16323 -0.447678
3.02169 1.32174 -1.19471
2.73513 1.97164 -0.290403
1.23982 0.647972 2.36978
2.84216 1.06419 -0.769301
1.511 0.448521 1.70038
2.4939 2.13389 0.123165
3.00051 1.40829 -1.92708
1.34823 0.678893 2.06243
2.23679 1.85995 0.605504
2.51404 0.259161 -1.03563
2.31512 0.480581 -1.99041
2.21455 1.40037 0.584894
2.62385 0.658257 -1.6843
2.89062 1.01893 -1.57585
1.60045 1.29407 1.70913
3.05817 1.52215 -1.89261
2.60999 0.432606 -0.803562
2.71523 2.11768 -0.281609
3.08488 1.54158 -1.22093
2.20262 2.24237 0.666077
2.67008 1.01211 -2.12259
2.75717 1.17648 -2.16166
1.32691 0.86434 2.18925
2.40494 1.88958 0.307053
2.41546 1.71756 0.283354
2.31425 0.460463 0.216654
2.50941 2.08446 0.104315
1.51043 0.95198 1.76443
2.37575 0.00821728 -0.97909
3.09017 1.55199 -1.80906
2.43087 0.0300974 -0.655539
1.35463 0.693916 2.04979
1.39879 0.63524 1.93582
2.40722 0.26863 -1.46315
2.09467 0.750035 0.675281
1.49245 0.517478 1.73353
2.24604 0.0216817 0.317291
1.90276 -0.512645 -1.21397
1.41328 1.13071 2.10858
2.16309 -0.327781 -0.990441
1.64939 1.03778 1.50529
2.44274 0.112618 -0.947317
2.15372 0.600341 0.551574
3.1382 1.64549 -1.45498
2.28159 -0.211345 -0.857888
1.94549 2.39168 1.43743
1.94474 0.248573 0.929461
1.35289 1.04384 2.23713
1.54024 1.48218 2.04555
1.82075 2.00975 1.613
2.3425 -0.210393 -0.0828388
1.68949 1.33674 1.52859
2.1264 0.0399999 -1.63337
1.44521 1.28658 2.1608
3.14013 1.8952 -1.27925
2.41802 0.128142 -0.214757
2.50819 0.720184 -0.11742
1.9648 1.6265 1.07224
2.53379 2.12903 0.0512578
1.64478 1.62187 1.83069
2.96344 1.85999 -0.74778
2.06775 1.6089 0.876433
3.09409 1.72554 -1.13302
1.93209 1.11458 1.01053
2.15085 0.634693 0.561234
1.68788 0.970243 1.41526
1.79034 0.66177 1.18959
2.73913 1.70172 -0.291743
2.50576 1.97982 0.124409
2.57789 1.23478 -0.077036
2.52188 0.352788 -0.419085
3.05329 1.89463 -0.976473
2.04766 1.88184 0.968344
2.1847 -0.442849 -0.786459
1.66858 1.67885 1.81031
2.88226 1.68255 -0.57952
2.46178 1.61805 0.195448
3.01748 1.85608 -0.879739
1.85743 -0.572039 -1.21057
1.53721 0.907985 1.69455
2.33439 0.855953 0.272109
1.60151 1.68728 2.14329
2.94816 1.71764 -0.721795
2.41176 1.36121 0.244661
2.99874 1.21545 -1.33485
2.23809 1.80066 0.598577
2.0853 -0.337876 -1.13477
3.00733 1.47691 -0.965138
2.39631 0.289649 -1.53049
2.61873 1.20492 -0.16318
2.18974 0.469738 0.468572
2.52968 0.266762 -0.677139
1.40098 1.08953 2.11355
2.63494 1.26617 -0.176562
2.16749 2.21544 0.744055
2.15712 0.716387 0.561763
2.8188 1.17821 -2.05897
2.96024 1.39783 -0.868403
2.86115 1.16856 -0.736882
2.99408 1.39093 -1.92307
1.95457 0.306834 0.904627
1.60826 0.46276 1.51437
1.80849 1.49124 1.34031
2.2149 2.14985 0.649617
2.84535 1.06849 -1.85015
2.4428 1.89254 0.240434
1.45199 1.39474 2.33731
2.26815 0.244307 0.276958
2.1486 0.0845864 0.546517
2.09087 -0.0643304 -1.53196
2.94999 1.60268 -0.7504
2.32194 1.83815 0.452308
2.64301 0.869311 -0.357693
2.24927 2.08662 0.585453
2.12442 1.65426 0.782747
2.0353 0.905524 0.799008
2.21298 1.18124 0.548375
2.96796 1.18656 -1.64337
1.97947 2.63484 1.46721
3.08343 1.58516 -1.87994
1.47707 0.608819 1.76646
2.61334 0.431012 -0.991325
2.02817 2.09106 1.05147
2.07444 2.40079 0.956101
2.47634 0.18037 -0.979568
2.17063 2.28595 0.730014
2.87189 0.975496 -1.542
2.71542 0.732579 -0.706278
1.55057 0.360104 1.63443
1.84078 1.82124 1.41356
3.1656 1.80578 -1.49202
2.37474 0.00974783 -0.11547
1.72318 1.54646 1.55452
2.89528 2.25267 -2.30747
2.54899 1.88647 -2.65818
2.90115 2.0088 -2.35538
2.9722 1.49457 -2.0814
2.8886 2.33624 -2.27533
2.88759 1.47627 -2.21416
2.71509 2.08134 -2.52338
2.86546 1.75867 -2.37097
1.29337 2.67245 -2.91438
2.7631 2.50444 -2.30457
3.00378 1.54747 -2.05965
3.0402 2.08929 -2.15202
1.71615 2.68011 -2.78205
3.11852 1.92137 -1.98365
2.88882 1.89057 -2.36696
2.37502 2.21499 -2.71103
3.14692 1.94951 -1.89135
1.54162 2.64427 -2.85671
2.18001 2.03873 -2.8451
1.90196 2.61111 -2.75222
3.10878 1.79349 -1.96747
1.61577 2.53245 -2.88674
2.8364 2.32934 -2.33817
2.78039 1.5186 -2.37918
2.36072 1.92359 -2.77037
2.24966 2.45051 -2.6854
2.60313 1.79672 -2.61628
2.8637 2.32884 -2.30853
1.71554 2.80395 -2.71021
2.5187 2.35008 -2.58314
2.87365 2.48644 -2.1864
2.86143 1.93951 -2.39981
2.66792 1.37996 -2.42971
2.58912 1.98087 -2.62729
2.44962 1.87706 -2.72154
2.28478 2.67912 -2.53627
2.56351 2.70124 -2.3234
2.45232 2.54113 -2.52765
2.24288 2.46147 -2.68354
2.36768 1.94165 -2.76512
2.47592 2.11734 -2.67927
2.0486 2.18551 -2.86689
2.02615 3.09299 -2.29801
1.6178 2.93619 -2.65926
1.76534 2.72123 -2.74175
2.10038 2.31044 -2.80716
1.90732 2.84704 -2.60301
3.1122 2.13125 -1.97849
2.19504 2.39332 -2.73543
2.00266 2.24347 -2.86766
