ply
format ascii 1.0
comment Created by Open3D
element vertex 200
property double x
property double y
property double z
end_header
2.10195 1.1542 0.823932
1.36146 2.09538 0.289473
3.05125 -0.956697 0.727805
1.14656 2.1879 0.321341
1.47 1.42652 0.921013
1.37399 2.4961 -0.0306397
3.07278 -0.0872988 0.952232
2.32031 -0.224943 1.28067
1.56354 -0.286844 1.69859
2.70323 0.293827 1.06129
2.28635 0.482275 1.19778
3.62218 0.407647 0.524393
2.73588 0.839182 0.755405
2.18296 2.42759 -0.477205
1.3991 1.85986 0.497246
2.11316 0.851582 1.07165
2.19907 1.51018 0.421663
1.75814 -0.857948 1.322
1.28743 2.86907 -0.17012
1.23341 1.81476 0.640454
2.23764 0.705324 1.10397
2.45686 -0.388793 1.19048
3.07669 1.17742 0.236965
2.89553 -0.35336 1.01017
0.382155 2.53574 0.487738
2.44559 -0.194078 1.22709
2.13396 -0.0583462 1.38682
3.73242 -0.331127 0.585015
2.30035 0.00669114 1.30235
2.7412 1.53206 0.0614523
-0.0114199 2.80491 0.601098
2.10666 2.26645 -0.284451
3.34371 0.957816 0.277623
1.82133 -0.313564 1.51835
1.5739 -0.580625 1.55992
1.68253 2.0413 0.169071
0.195208 2.75207 0.466971
2.59097 -0.594259 1.0777
1.39198 2.43398 0.00139884
1.93354 -0.17796 1.4843
3.00824 -0.245462 0.975396
0.442753 2.9316 0.224796
2.4732 -0.562639 1.13655
1.82793 -0.17096 1.54855
1.4534 2.66711 -0.168848
2.33346 -0.794576 1.1071
3.38024 0.116275 0.778236
2.27773 1.38531 0.506642
0.663361 2.03575 0.784469
2.5416 1.56694 0.159165
3.04255 -0.762798 0.823499
3.24256 0.090203 0.853917
3.3195 1.07111 0.166742
0.723201 2.1046 0.6591
1.58344 1.99452 0.265607
2.59355 0.244239 1.12693
3.22385 0.440027 0.748357
1.05566 2.56851 0.084245
2.14335 0.848488 1.05719
1.26063 2.11862 0.322039
0.63609 2.18167 0.638669
2.33843 2.2713 -0.473726
1.99757 -0.44581 1.38425
2.86881 -0.45553 1.00054
2.08007 -0.235118 1.39548
3.48597 -0.990191 0.458897
2.7922 1.06103 0.538378
3.08667 -0.673466 0.838615
1.87323 -0.282958 1.49665
2.72842 0.148114 1.08498
0.545886 2.30958 0.572997
1.8153 0.40781 1.51515
2.03333 0.544681 1.31079
2.9732 0.250267 0.946858
2.16909 2.34235 -0.396068
1.80845 1.29295 0.854156
1.29144 1.4273 1.04602
0.976942 2.84808 -0.0141044
2.30268 2.16207 -0.332714
0.995336 2.85605 -0.025853
2.79978 1.29821 0.293192
2.03763 1.30415 0.716005
2.24382 0.264433 1.29557
3.25691 0.0747267 0.849428
1.64482 1.93145 0.293454
1.14832 1.9928 0.504756
2.95404 0.505707 0.854993
1.71289 2.45863 -0.186452
0.248993 3.02953 0.304571
1.12826 1.36785 1.2657
2.16174 0.264321 1.33996
1.69842 -0.438698 1.54842
1.68026 -0.0388648 1.67214
1.64354 2.88314 -0.356906
3.14622 1.31193 0.0081942
1.39492 2.18503 0.192655
2.83524 -0.853455 0.875833
3.80179 0.372338 0.406729
2.34338 -0.614359 1.17337
3.03857 0.206304 0.927711
4.08861 -0.740396 0.0204359
4.28903 -0.348385 -0.0760147
4.21948 -0.650752 -0.199936
3.93231 -0.924781 -1.36133
4.23485 -0.554322 -0.886614
3.74695 -1.28147 -1.20233
3.97644 -0.928261 -1.22049
4.31496 -0.392837 -0.698209
4.33658 -0.232569 -0.188995
4.33429 -0.356357 -0.608327
4.12429 -0.64626 -1.16521
4.22227 -0.703797 -0.601987
4.02213 -0.789819 -1.29534
4.02783 -0.820373 -1.23538
4.13601 -0.770674 -0.938919
4.27193 -0.354132 -0.032542
4.01529 -1.01073 -0.28437
3.6472 -0.961149 0.355702
3.96158 -1.11722 -0.704526
3.81012 -1.11751 -1.38063
3.82586 -1.19928 -1.13459
4.17886 -0.436072 0.112624
4.30909 -0.490825 -0.527867
4.29689 -0.44074 -0.742224
3.73279 -0.959288 0.279046
4.1532 -0.618517 -1.1051
3.97033 -1.08297 -0.840225
4.28729 -0.265219 -0.906682
3.9118 -1.18367 -0.506131
4.26282 -0.484111 -0.10919
4.34698 -0.231955 -0.245824
4.08914 -0.529624 -1.36562
3.98147 -0.117928 0.408195
3.80479 -1.02484 -1.56246
3.57163 -0.982274 0.401224
4.01045 -0.535632 -1.56009
3.71774 -1.12715 -1.62963
3.87364 -1.09353 -0.0703508
4.17544 -0.761453 -0.763299
4.0019 -0.521696 -1.58869
3.70831 -0.817454 0.406697
4.34475 -0.354113 -0.441368
3.86218 -0.881778 -1.61462
3.62669 -1.27865 -1.5944
3.91251 -1.18645 -0.579793
4.1496 -0.525367 -1.20292
4.03098 -1.02751 -0.62232
3.8461 -0.795362 0.297539
4.09483 -0.100888 0.291366
4.28719 -0.550899 -0.56791
4.12618 -0.273824 0.24415
3.993 -1.06401 -0.772398
4.33654 -0.283972 -0.216929
3.76225 -1.05889 -1.62371
4.14087 -0.367844 0.199786
4.15212 -0.503316 -1.21192
3.94833 -1.13103 -0.739674
4.07447 -0.616889 0.157752
3.96871 -0.341982 0.398638
4.01193 -0.479917 0.311678
4.25429 -0.443945 -0.0475365
4.29854 -0.387604 -0.791676
4.24579 -0.631427 -0.288313
4.33181 -0.402964 -0.357341
3.74979 -0.711064 0.436944
3.73415 -1.25725 -1.31141
3.77903 -1.13127 -1.44697
4.31657 -0.256059 -0.117474
4.15999 -0.743895 -0.889099
3.92842 -0.339489 0.435105
3.99967 -0.336993 0.370478
3.81373 -0.956615 0.194994
3.90062 -0.604809 0.363747
4.27601 -0.304063 -0.0188792
4.3563 -0.206801 -0.306091
3.96428 -1.09185 -0.339642
4.01806 -1.02661 -0.36114
4.31204 -0.461518 -0.598341
4.1294 -0.29953 0.234704
4.35469 -0.229494 -0.559452
4.34743 -0.167674 -0.229052
3.99021 -1.08501 -0.540276
3.8049 -1.14925 -1.33064
4.22145 -0.710525 -0.564529
3.98767 -1.06802 -0.367209
4.1546 -0.131844 0.218763
4.33851 -0.269944 -0.664842
4.21209 -0.688157 -0.747352
4.30966 -0.487209 -0.537219
3.86919 -0.956666 0.125357
4.23488 -0.591711 -0.830497
4.35095 -0.292921 -0.530771
3.99222 -1.06277 -0.785426
3.8153 -1.16326 -1.26504
4.01716 -0.982918 -0.945386
4.03649 -1.01858 -0.481154
3.63079 -0.907196 0.408618
4.33287 -0.202493 -0.163112
4.3546 -0.231173 -0.559263
4.04102 -0.953187 -0.919086
