ply
format ascii 1.0
comment Created by Open3D
element vertex 200
property double x
property double y
property double z
end_header
1.00688 0.546688 -2.26198
0.305703 1.59985 -1.91703
1.20464 -1.74919 -2.49885
0.301011 1.75648 -1.74039
0.996393 1.0079 -1.74226
-0.04011 1.93764 -2.08884
1.36134 -0.907765 -2.77112
1.59516 -0.770502 -1.98402
1.91088 -0.549921 -1.20758
1.38953 -0.42222 -2.53201
1.45348 -0.101223 -2.18445
0.974069 -0.656951 -3.49012
1.04918 0.0478261 -2.7671
-0.366912 1.57454 -2.87618
0.534404 1.38989 -1.85645
1.27672 0.285993 -2.15111
0.594804 0.806869 -2.50789
1.6097 -1.19288 -1.2493
-0.218674 2.30038 -2.13973
0.65707 1.41437 -1.67112
1.33683 0.113569 -2.21884
1.53726 -0.977478 -2.07025
0.556559 0.20349 -3.24921
1.41547 -1.09856 -2.51377
0.335252 2.33749 -1.1125
1.55669 -0.785714 -2.11747
1.6619 -0.543905 -1.85005
1.10649 -1.38189 -3.35394
1.5958 -0.542924 -2.03628
0.310302 0.620536 -3.06329
0.373196 2.72502 -0.814856
-0.174203 1.46786 -2.73327
0.649837 -0.0807145 -3.42725
1.76965 -0.674659 -1.46086
1.79824 -0.84693 -1.13872
0.234239 1.43694 -2.21512
0.272663 2.59653 -1.00685
1.45996 -1.22568 -2.14335
-0.0011872 1.87715 -2.08282
1.74054 -0.584604 -1.61312
1.38788 -1.03493 -2.65779
0.0527667 2.66269 -1.32217
1.49976 -1.15307 -2.03621
1.78924 -0.538346 -1.5091
-0.17929 2.05905 -2.23216
1.46996 -1.3332 -1.83408
1.21498 -0.829194 -3.14347
0.699094 0.674737 -2.53374
0.705285 1.81367 -1.18865
0.377214 0.725666 -2.87602
1.28285 -1.55211 -2.54212
1.27323 -0.803105 -2.99756
0.528199 0.0208732 -3.45177
0.584129 1.84595 -1.27985
0.319905 1.43411 -2.09688
1.44346 -0.428058 -2.40609
1.13912 -0.47897 -3.10159
0.0248406 2.11641 -1.79971
1.26675 0.272193 -2.18009
0.322476 1.65632 -1.82594
0.546196 1.94297 -1.22423
-0.33033 1.37984 -2.97294
1.67126 -0.868952 -1.59906
1.41034 -1.18813 -2.45723
1.67701 -0.693596 -1.74239
1.00018 -1.94454 -2.926
0.825064 0.215161 -2.9129
1.29675 -1.47934 -2.61043
1.75282 -0.664058 -1.52173
1.4277 -0.56489 -2.50718
0.459186 2.08373 -1.18646
1.70934 0.00876036 -1.68386
1.52616 0.0479834 -1.95392
1.31625 -0.558935 -2.78463
-0.281975 1.50762 -2.82772
0.98637 0.77077 -2.02603
1.09577 1.07757 -1.56119
-0.104744 2.39325 -1.82416
-0.187323 1.30386 -2.89005
-0.114494 2.39382 -1.84525
0.565368 0.408566 -3.02052
0.879899 0.695487 -2.25997
1.56136 -0.282834 -2.06526
1.27194 -0.822631 -3.00667
0.360605 1.35903 -2.13191
0.497661 1.59283 -1.6613
1.20298 -0.322298 -2.85693
-0.145446 1.78088 -2.41267
0.0978218 2.82357 -1.16221
1.29542 1.09661 -1.36576
1.59416 -0.25278 -1.98324
1.79257 -0.752021 -1.30224
1.88111 -0.35412 -1.39887
-0.356313 2.18349 -2.4993
0.32944 0.282878 -3.38104
0.207572 1.66315 -1.98699
1.3137 -1.56859 -2.31253
0.884791 -0.75872 -3.66049
1.52269 -1.15814 -1.89362
1.30958 -0.622634 -2.83433
0.628735 -1.94293 -3.61871
0.529846 -1.6446 -3.94176
0.421679 -1.92367 -3.79331
-0.742839 -2.23029 -3.55605
-0.262084 -1.91703 -3.90943
-0.582883 -2.49255 -3.25191
-0.597495 -2.23065 -3.58198
-0.0777967 -1.76686 -4.01657
0.415604 -1.56273 -4.03496
0.0107439 -1.72781 -4.03703
-0.544992 -2.00266 -3.80493
0.0290484 -2.02141 -3.82078
-0.676089 -2.12239 -3.67663
-0.61371 -2.14604 -3.66613
-0.310171 -2.09753 -3.75316
0.570933 -1.63977 -3.91931
0.338881 -2.2116 -3.49556
0.917693 -1.97819 -3.0979
-0.0750708 -2.34476 -3.45472
-0.763304 -2.37751 -3.38184
-0.511762 -2.431 -3.34531
0.708192 -1.67201 -3.79059
0.0973287 -1.8379 -3.96238
-0.119969 -1.81176 -3.98893
0.853356 -2.01141 -3.18713
-0.483893 -1.97825 -3.83475
-0.21061 -2.33083 -3.48787
-0.297421 -1.66203 -4.05246
0.119389 -2.36936 -3.36621
0.504143 -1.76878 -3.87752
0.360821 -1.57193 -4.05084
-0.756807 -1.90499 -3.82945
0.948727 -1.27676 -3.67457
-0.950878 -2.30942 -3.42497
0.954131 -1.96985 -3.01525
-0.959029 -1.90931 -3.77349
-1.02096 -2.38744 -3.31746
0.537676 -2.22185 -3.31363
-0.132102 -2.08041 -3.77507
-0.989529 -1.89686 -3.77281
0.965077 -1.85503 -3.19573
0.1769 -1.70947 -4.03032
-1.00584 -2.19773 -3.52977
-0.986597 -2.49884 -3.18001
0.0469374 -2.38076 -3.37362
-0.588282 -1.90047 -3.87096
0.00847582 -2.27153 -3.54005
0.874086 -1.88881 -3.34395
0.847262 -1.30876 -3.79895
0.0595157 -1.89268 -3.92686
0.818347 -1.48728 -3.77865
-0.142038 -2.31192 -3.50822
0.392019 -1.61456 -4.02154
-1.01445 -2.33578 -3.38042
0.783845 -1.5858 -3.76734
-0.598548 -1.88143 -3.88125
-0.110496 -2.35787 -3.44149
0.752827 -1.8059 -3.63025
0.955064 -1.48579 -3.59261
0.885756 -1.63947 -3.5987
0.560759 -1.72105 -3.8758
-0.172745 -1.76778 -4.01242
0.336414 -1.92369 -3.83338
0.261976 -1.74194 -3.99396
0.992234 -1.76357 -3.26538
-0.694257 -2.47843 -3.25879
-0.831956 -2.38876 -3.35503
0.485393 -1.57053 -4.00125
-0.259819 -2.07373 -3.77909
0.985464 -1.46692 -3.55163
0.931026 -1.49378 -3.62629
0.781024 -2.04331 -3.27301
0.93195 -1.71757 -3.44882
0.58107 -1.59209 -3.9376
0.300579 -1.55799 -4.07383
0.283746 -2.27918 -3.42751
0.26466 -2.23638 -3.5011
0.0258232 -1.81929 -3.98174
0.811458 -1.51367 -3.77453
0.051864 -1.60841 -4.09137
0.37243 -1.50935 -4.06988
0.0885183 -2.30394 -3.47491
-0.712154 -2.40011 -3.36168
0.0664653 -2.02317 -3.814
0.257806 -2.26698 -3.45997
0.786012 -1.36467 -3.85302
-0.0512615 -1.65398 -4.07422
-0.117135 -2.02043 -3.83118
0.0878853 -1.83575 -3.96503
0.71971 -2.06835 -3.33249
-0.203728 -1.94586 -3.89181
0.0846448 -1.6639 -4.0648
-0.155108 -2.31203 -3.50922
-0.644857 -2.4089 -3.36026
-0.315994 -2.26273 -3.57459
0.147965 -2.24836 -3.53345
0.963541 -1.91603 -3.09403
0.438323 -1.53016 -4.0383
0.0521704 -1.60995 -4.09073
-0.289123 -2.23883 -3.60376
