ply
format ascii 1.0
comment Created by Open3D
element vertex 250
property double x
property double y
property double z
end_header
2.27916 -1.79868 1.13423
2.26648 -0.500984 -0.856392
1.1285 -2.19782 0.355502
2.66061 -1.45693 1.05204
1.58632 -2.45245 1.11816
1.72962 -1.85149 0.500968
2.20148 -1.13647 -0.198128
3.22081 -0.269543 -0.129713
2.14202 -0.413045 -1.04385
2.82922 0.55269 -0.583707
0.887869 -2.32937 0.263108
3.00785 -0.731471 0.115388
1.3872 -2.54793 1.00274
3.43859 1.15212 0.026157
2.02288 -1.77853 0.729709
3.56889 -0.563034 0.633622
3.8729 0.0177945 0.379655
2.01074 -1.82973 0.803536
2.13339 -1.05672 -0.406039
3.75998 -0.0883149 0.304712
2.80127 -0.328358 -0.459231
3.13959 -0.385599 -0.118341
1.35618 -2.02252 0.347849
1.9942 -0.680438 -1.06835
2.61502 0.687592 -0.693728
2.16779 -1.23472 -0.0749728
1.32796 -2.29448 0.698639
2.86238 -1.09427 0.537056
2.24941 -1.21019 -0.0197116
2.21267 0.531119 -0.986154
3.70479 0.0437893 0.156097
3.7698 0.535057 0.126819
2.05375 -0.534665 -1.09052
1.08972 -2.53429 0.714154
2.3858 0.224297 -0.915122
0.733461 -2.2261 -0.157496
2.12244 -2.18817 1.52714
3.41361 1.14607 0.000963729
2.74403 -0.629412 -0.274066
1.99959 -2.01246 1.08779
2.269 -1.7685 1.05649
3.20113 0.373543 -0.344354
1.77724 -1.46021 -0.159219
0.694647 -2.86502 0.598639
1.69416 -2.4838 1.25427
2.37501 0.25943 -0.920351
0.438783 -2.98444 0.421862
2.3275 0.64845 -0.882189
1.89792 -1.56241 0.187329
2.81589 -0.779833 -0.0295223
3.13386 0.222345 -0.383258
0.779426 -2.46998 0.324768
3.06628 -0.0358592 -0.376552
2.92858 0.439968 -0.530624
2.32528 -0.683378 -0.64623
2.86508 0.536278 -0.562751
1.9816 -0.614774 -1.14181
2.43597 -1.10444 0.0226631
2.44315 -1.49804 0.764641
1.42804 -2.41112 0.923677
3.35442 0.829414 -0.172031
2.9572 0.92447 -0.418216
1.95629 0.321612 -1.22839
2.75584 0.870876 -0.560381
1.54067 -2.36115 0.987397
0.312249 -2.77959 0.0911212
2.92758 -0.728079 0.0233268
3.50368 -0.158129 0.0647761
3.1428 -0.987459 0.774871
0.380465 -2.72263 0.124191
3.09658 -0.44996 -0.10446
0.797582 -2.17085 -0.163854
2.83599 -1.30802 1.01708
3.79646 0.513312 0.152843
0.601556 -2.48153 0.111269
2.3351 -1.62262 0.862392
2.63381 0.0299977 -0.722646
2.90769 0.950002 -0.441959
2.16151 -1.52841 0.446302
3.11688 0.53202 -0.395954
3.4306 0.284688 -0.164828
1.16954 -2.33439 0.583102
3.87274 0.444408 0.235971
2.68823 -0.243731 -0.599125
3.17407 -1.00993 0.917406
3.64536 -0.188435 0.243701
2.41796 -1.72251 1.22877
3.44917 0.868779 -0.0867311
3.59657 0.850014 0.0318004
0.600388 -2.61831 0.290761
2.6033 -1.41068 0.825415
2.56054 -1.36731 0.662462
2.05522 -1.08581 -0.460212
2.83896 -1.28885 0.965483
0.950595 -2.30355 0.301497
2.40542 0.0634027 -0.90157
3.87863 0.351529 0.251292
2.33639 -0.258212 -0.902449
0.617169 -2.47431 0.122699
0.677725 -2.37604 0.0515929
2.70959 0.461348 -0.673022
1.79467 -1.47429 -0.108652
0.793446 -2.20502 -0.0930479
1.80336 -1.09041 -0.83949
1.90743 0.523912 -1.20178
0.799156 -2.61333 0.503797
2.10945 0.198284 -1.13061
1.1987 -2.12583 0.327585
2.48734 -0.0049232 -0.83075
1.83949 -1.35896 -0.26955
3.81718 -0.006268 0.319298
2.20104 0.0168707 -1.06839
1.95609 -2.3661 1.46512
1.39214 -1.58268 -0.51457
0.667703 -2.69802 0.446652
1.05591 -2.65146 0.779927
1.64739 -2.42827 1.16
1.95677 -0.720855 -1.09081
1.32971 -2.20532 0.588451
2.4542 0.751384 -0.776783
0.861535 -2.6957 0.635585
3.83987 -0.205872 0.54926
2.1914 -0.675257 -0.806949
2.44043 -0.883767 -0.294481
1.84179 -1.92348 0.750791
2.89583 -1.25497 0.997333
1.27675 -2.51037 0.868983
3.47322 -0.629263 0.584348
1.99837 -1.7764 0.695141
3.68463 -0.299855 0.410133
1.65649 -1.77993 0.290354
1.84549 -1.3719 -0.236714
1.24213 -2.04638 0.250463
1.30689 -1.82893 -0.0737382
3.05129 -0.948105 0.523959
2.79116 -1.2908 0.870199
2.66641 -1.02108 0.154273
2.43767 -0.556101 -0.639149
3.64968 -0.454821 0.58197
2.04255 -1.89418 0.954994
2.00916 0.0190377 -1.24519
1.32501 -2.5083 0.912515
3.27681 -0.730031 0.451484
2.59853 -1.2879 0.552805
3.56846 -0.525884 0.56005
1.84643 0.545495 -1.2393
0.984638 -2.24202 0.250603
2.19102 -1.20208 -0.102533
1.14332 -2.79346 0.945969
3.39991 -0.627023 0.458676
2.4462 -1.27807 0.334651
3.50014 -0.00497664 -0.0246391
2.31789 -1.608 0.807113
2.09472 0.360611 -1.11017
3.45842 -0.387866 0.213629
2.73348 0.524346 -0.649427
2.72368 -0.951559 0.111057
1.85583 -1.27589 -0.403998
2.51266 -0.307847 -0.721609
0.7722 -2.60754 0.470462
2.76429 -0.953895 0.161441
2.34861 -1.77818 1.21733
1.87952 -1.38657 -0.163639
3.61049 0.733099 0.00981409
3.35325 -0.449009 0.158588
3.13728 -0.50191 -0.0153078
3.7833 0.514419 0.139264
1.43062 -1.57175 -0.464502
0.956826 -2.03547 -0.187921
1.55796 -2.09607 0.685645
2.40202 -1.69809 1.1386
3.51445 0.546853 -0.101713
2.66216 -1.36295 0.813656
0.838018 -2.87701 0.732921
1.91637 -1.09357 -0.642273
1.65471 -1.27695 -0.744087
2.34818 0.685531 -0.859577
3.37177 -0.584407 0.351771
2.4587 -1.508 0.809663
2.70018 -0.73129 -0.208299
2.43356 -1.6417 1.06703
2.09863 -1.71652 0.715358
1.75162 -1.59038 0.0577208
2.09667 -1.46203 0.244452
3.58172 0.295178 -0.0395526
2.05967 -2.44124 1.67676
3.91173 0.41454 0.284516
0.800016 -2.24338 -0.00277645
2.76237 -0.0712103 -0.601879
2.06807 -1.99473 1.15574
2.25357 -1.96833 1.42418
2.55233 0.00306845 -0.781016
2.38159 -1.77665 1.28128
3.38629 0.266396 -0.197782
2.84704 -0.414814 -0.362332
0.825343 -2.11096 -0.260685
1.67416 -2.22348 0.978174
3.91141 -0.00521389 0.456899
2.07461 -0.734346 -0.899769
1.42269 -2.2719 0.769311
4.15074 0.778291 0.973223
3.85991 1.27837 0.767413
4.08787 0.856197 0.745664
3.86185 0.653258 0.24339
4.16229 0.738721 1.05298
3.83398 0.808505 0.258862
4.019 1.06656 0.883887
3.97494 0.919852 0.528237
3.1641 1.84389 1.97407
4.12583 0.785469 1.25641
3.89919 0.614247 0.280185
4.15719 0.607365 0.766819
3.47703 1.57104 1.81935
4.10024 0.448708 0.581711
4.03998 0.888563 0.64116
3.84779 1.34059 1.1375
4.09911 0.349277 0.596843
3.34397 1.70697 1.85304
3.67033 1.55921 1.04929
3.59982 1.48789 1.68451
4.04053 0.455937 0.467291
3.37921 1.72487 1.72135
4.13934 0.816241 1.06659
3.82059 0.99266 0.338993
3.75527 1.44314 0.873758
3.81425 1.32675 1.40307
3.85835 1.23365 0.663782
4.15113 0.779277 1.05567
3.49281 1.48674 1.934
3.96925 1.15186 1.20733
4.16861 0.639852 1.19747
4.04647 0.921436 0.696857
3.69492 1.09942 0.25395
3.91572 1.22182 0.839275
3.79601 1.37342 0.796749
3.86798 1.14307 1.60084
4.03225 0.84462 1.51461
3.9589 1.09608 1.40924
3.81163 1.32582 1.41578
3.76558 1.43319 0.887783
3.88723 1.28987 1.00867
3.61839 1.60431 1.23518
3.70238 0.953771 2.08218
3.43663 1.45487 2.09358
3.51813 1.51039 1.83853
3.6839 1.51252 1.33079
3.63071 1.31359 1.90042
4.16707 0.415444 0.778028
3.76656 1.40065 1.37114
3.59997 1.61278 1.30631
