ply
format ascii 1.0
comment Created by Open3D
element vertex 250
property double x
property double y
property double z
end_header
1.38359 -0.236577 3.07695
0.861022 -2.41209 2.81299
-1.74115 -1.39328 2.14375
-0.771238 -1.11123 3.06213
1.33992 -0.768041 3.26756
-0.720742 -0.0514713 3.07877
-1.77977 1.42667 2.52511
-1.27356 -0.341115 2.82335
1.35703 -0.0865268 3.03724
-0.169996 -0.968453 3.39986
0.188788 -2.03632 3.24388
-0.927706 -0.526092 3.02015
0.470976 -1.31403 3.57083
-0.3119 0.127874 3.16916
0.731781 -1.11999 3.55963
1.1419 -1.3463 3.45112
-0.682317 0.314157 3.02212
-2.10278 0.330552 2.39637
-0.980675 0.619321 2.86489
-1.46995 -1.50291 2.32081
0.47293 -2.16218 3.22002
-1.87222 0.18423 2.5057
-0.169712 -0.384245 3.32825
-1.49393 0.143362 2.70332
-1.39103 -1.216 2.55139
0.692975 -0.61273 3.46258
-0.526705 0.346099 3.05909
1.10962 -2.0044 3.23425
-1.55196 -0.938415 2.52754
-0.251128 -1.20742 3.35335
1.46441 -0.152293 2.99332
1.06935 -2.26426 2.95181
1.56509 -0.776028 3.09995
0.257653 -2.45482 2.73083
0.848604 -2.42945 2.7818
-1.8211 1.35502 2.51704
-1.69323 -1.31655 2.23504
0.555912 -2.47051 2.7635
0.414005 -0.360615 3.40603
-1.56328 -0.870068 2.54054
-1.50893 -0.944904 2.55925
-0.968368 0.0103824 2.96594
0.451194 -1.90276 3.41725
1.04182 -1.4599 3.48913
-1.21495 -1.63217 2.46937
0.88151 -1.94243 3.38218
-2.33674 -0.874872 1.93599
0.950241 -1.84524 3.4158
-1.38187 0.718091 2.71071
0.703959 -0.860038 3.52166
0.145811 -2.32185 2.90545
-1.19241 -1.25081 2.70246
-2.38464 -0.599503 2.02006
1.4569 -1.30384 3.23761
-0.853344 -0.833469 3.04986
-2.59106 -0.390613 1.9602
-1.16642 -0.836621 2.84214
1.30276 -0.158461 3.09608
-0.456882 -1.6586 3.09605
-0.819942 -0.131782 3.04875
-0.928785 -0.201042 3.00568
-1.70173 0.146721 2.59499
-1.34093 -1.28425 2.56252
1.17944 -0.92924 3.3937
1.38382 -1.64385 3.2321
0.355311 -2.38183 2.89881
-0.165754 -1.43079 3.3581
-2.11557 0.52348 2.40496
1.06577 -0.325172 3.27118
-0.400425 -0.284197 3.23742
-0.0693679 -1.42619 3.40572
-1.70604 -1.21959 2.27832
1.33209 -0.383238 3.1599
-1.55483 -0.526325 2.62586
-1.6976 -0.763332 2.46979
-1.78897 1.27879 2.52927
-2.4837 -0.553826 1.9697
0.549141 -1.44442 3.56896
0.246346 -1.37357 3.5272
-0.717172 -0.407549 3.12432
-0.365139 0.24281 3.12591
-0.0692232 -2.20291 2.93489
0.902318 -1.0191 3.51417
-1.06342 0.485616 2.85996
-0.992681 -0.437667 2.98364
1.27865 -1.57993 3.33805
-1.64415 0.596108 2.61641
1.25183 -0.251521 3.1585
-1.63183 -0.77569 2.51584
-0.107 -1.09596 3.42497
-1.7913 -1.34942 2.1268
-2.02109 0.195909 2.42683
0.729867 -0.784391 3.50159
0.210536 -1.26216 3.52553
0.173678 -1.92668 3.31682
-1.73888 -0.759753 2.43966
0.764141 -0.0637345 3.26488
1.39864 -0.670301 3.20436
-0.403865 -2.02959 2.87052
-0.062735 0.272584 3.17065
0.3925 -1.49177 3.54459
1.11845 -1.08545 3.44774
0.796859 -1.04158 3.54034
0.951536 -0.0919823 3.225
0.461264 -2.03527 3.33133
-0.185471 -0.00609487 3.23342
-0.508258 0.0332105 3.13826
-2.62063 -0.396903 1.93942
-2.05603 0.478859 2.43006
-1.28579 -0.302449 2.81735
-1.3878 -1.32909 2.49938
-0.476485 -1.97131 2.86508
-1.44613 -0.503516 2.70214
1.10503 0.00492873 3.12908
-2.44327 -0.109009 2.13539
-0.116173 -1.38241 3.39254
-2.12814 -0.0253065 2.33883
1.41382 -0.70398 3.20245
0.832137 -1.3185 3.55583
0.533156 -2.02227 3.35246
-1.73405 1.30192 2.54376
0.173846 -2.15473 3.1279
-0.876241 -0.464853 3.04749
0.608984 -1.78588 3.49111
-1.76515 0.988309 2.55049
-2.37708 0.125116 2.22377
-1.25598 -1.61429 2.44367
-1.08161 -1.49682 2.67752
-0.760114 -0.123407 3.07342
-2.18425 -0.672921 2.13564
-1.58756 -0.323531 2.63167
-2.26494 0.379319 2.32032
0.336018 -1.68755 3.48577
-2.54994 -0.830696 1.80124
-1.37476 -1.48823 2.41872
-1.57697 -0.559756 2.60491
-2.3191 -0.191919 2.18984
-1.32258 -0.479834 2.78482
0.519262 -2.32749 3.02012
-1.83783 0.932816 2.52663
0.61839 -2.41949 2.86585
1.37502 -1.65827 3.23453
-2.15692 -1.00955 2.00912
0.52992 -1.24088 3.57496
0.705551 -0.965554 3.54131
0.611993 -2.4603 2.78322
0.177614 -0.135975 3.32619
-1.45689 0.468279 2.70455
0.307643 -2.30148 3.00642
0.605998 -0.498272 3.43924
-2.35935 -0.661798 2.01343
0.637913 -0.350962 3.38951
-2.1521 -0.609923 2.18127
1.22367 -1.64034 3.35913
1.25325 -0.22549 3.14815
0.987878 -1.54796 3.49769
-2.00776 0.236469 2.43745
-0.190951 0.429442 3.10353
0.0601837 -0.187417 3.32801
-2.22597 -0.284538 2.22573
-0.107511 -2.22264 2.88437
-0.846941 -1.5466 2.85062
0.585854 -2.44365 2.81943
0.634624 -1.30994 3.57678
-1.51604 -0.985329 2.53999
-1.89956 0.816002 2.50545
-1.76956 1.04377 2.54638
0.312883 -1.87626 3.39753
0.901084 -0.312892 3.32287
-1.67972 -1.03054 2.39002
0.268553 -2.01407 3.29326
-1.51964 0.671073 2.66264
-1.26372 -0.838544 2.77266
0.537447 -2.43272 2.84062
1.04279 -2.37839 2.75708
0.636811 -1.86753 3.45494
0.817123 -2.01544 3.34702
0.133903 -1.11703 3.50624
-2.12965 -1.03365 2.01867
-0.221248 -0.48962 3.33278
-2.11987 -0.802902 2.13322
-0.401221 0.636671 3.00669
0.996532 -0.405504 3.325
-0.391028 -1.5494 3.19017
-0.149902 -1.63165 3.3046
0.662046 -2.49922 2.68729
-1.36352 -0.822484 2.70367
-0.939364 -0.185111 2.99923
0.541784 -1.56489 3.55125
-0.125612 -0.822202 3.40818
0.26184 -1.85965 3.39
0.326314 -2.39953 2.85912
-0.286976 -0.753942 3.34235
1.19134 -1.6975 3.36097
-1.68368 -0.334548 2.56885
0.632566 -2.51178 2.66205
-2.58783 -0.843228 1.76806
0.835955 -2.01925 3.33998
-0.546686 -0.842202 3.22506
-0.734241 -1.25977 3.05167
-2.85957 -1.21899 1.35396
-3.0035 -1.31274 1.19579
-2.66675 -1.491 1.28524
-3.163 -1.75772 0.751999
-2.24628 -1.21573 1.81777
-2.76992 -1.01345 1.54684
-2.30416 -1.81249 1.27902
-2.70245 -1.1222 1.52625
-2.84052 -1.77791 0.916545
-2.40291 -1.40428 1.55733
-2.04045 -1.78679 1.53741
-2.69824 -1.38253 1.34746
-2.75219 -1.91229 0.844465
-2.94161 -1.83579 0.801931
-2.67473 -1.9837 0.822466
-3.0069 -1.55552 1.00692
-2.38137 -1.62942 1.38907
-2.832 -1.35444 1.27536
-2.15724 -1.59677 1.60951
-1.79113 -1.46212 2.05046
-2.94743 -1.59847 1.00739
-1.7922 -1.49951 2.02201
-2.15206 -1.69725 1.52341
-3.08349 -1.5221 0.989347
-2.43461 -2.10408 0.857359
-2.90086 -1.72211 0.929383
-2.1799 -1.74404 1.45403
-2.1645 -1.28615 1.84043
-2.43755 -2.05727 0.908903
-3.13147 -1.57858 0.91754
-2.64686 -1.89579 0.931299
-1.83923 -1.39841 2.05112
-2.88819 -1.74407 0.917544
-2.93911 -1.51051 1.08469
-2.09591 -1.32916 1.87031
-2.48238 -1.7199 1.2249
-2.86905 -1.03401 1.46829
-2.76401 -1.7797 0.964488
-2.47275 -1.05341 1.73735
-2.18045 -1.46458 1.69789
-2.43472 -1.86795 1.11632
-2.70792 -1.27929 1.4163
-2.5054 -1.85969 1.07035
-2.87047 -1.91523 0.76854
-2.66556 -1.02813 1.61059
-2.58527 -1.42324 1.39964
-3.06522 -1.16624 1.26084
-2.9461 -1.90035 0.739105
-2.58449 -1.51374 1.32781
-2.21598 -1.33315 1.7646
