ply
format ascii 1.0
comment Created by Open3D
element vertex 400
property double x
property double y
property double z
end_header
0.164261 0.46626 3.07623
-0.745036 -0.48218 3.01547
-0.959798 -0.08911 3.0395
-0.517475 0.80706 2.9631
-1.03074 -0.38027 3.02148
1.38374 -0.04899 3.20871
-0.946413 -0.35384 3.02477
0.329865 -0.46041 3.09098
0.126593 -0.75434 3.00849
0.546685 0.17648 3.14658
1.12645 -0.30012 3.17576
0.0193111 0.38198 3.07711
-1.27747 -0.90157 2.94996
-0.642923 0.19272 3.0471
-1.06095 -0.38494 3.02098
-1.17087 -0.21283 3.0339
-0.429263 0.80447 2.96674
0.484573 0.78584 3.01972
-0.72552 -0.34277 3.03203
-0.738212 -0.96531 2.91982
0.207649 0.48479 3.07648
1.0106 -0.63229 3.09301
-0.589925 0.05413 3.05493
0.612673 -0.58578 3.08543
0.278353 -0.32016 3.1078
-0.158194 0.21093 3.07965
-0.694252 -0.72483 2.97637
-0.618124 -0.36489 3.03462
0.805352 -0.92638 2.97792
0.0210435 -0.58607 3.0422
-0.017508 0.15776 3.09522
-0.994708 0.85193 2.94907
0.508827 -0.5917 3.07683
-0.300471 0.55085 3.02688
0.55515 0.9218 2.97386
0.952013 0.06149 3.1865
0.00613769 -0.90606 2.95668
-0.269365 -0.57142 3.02513
0.82607 -0.45707 3.12953
1.43189 0.03669 3.20994
0.801265 -0.54114 3.10864
-0.874684 -0.13885 3.0401
-0.94012 -0.29311 3.0299
0.107904 0.52435 3.06109
1.2565 0.74279 3.05599
0.839513 -0.16454 3.17253
-0.23558 -0.04973 3.08017
-1.00865 -0.04948 3.03939
0.428273 0.25244 3.12907
1.28456 -0.4935 3.14019
-0.171459 -0.84144 2.96795
-0.171636 0.01695 3.08589
0.0659024 0.0031 3.1073
-0.0358998 0.50545 3.05342
-0.953357 0.44826 3.01501
-1.00941 0.32624 3.02637
-0.785843 0.56106 3.00309
1.62279 -0.04083 3.20947
0.287616 0.51283 3.0776
0.738799 0.13327 3.16642
0.992439 0.5824 3.10731
-0.840191 0.79165 2.96065
0.308009 0.11 3.12804
-0.0492429 0.41333 3.06709
0.901208 0.14888 3.17839
-0.705509 0.50096 3.01425
0.866347 -0.48791 3.12526
0.844271 0.67642 3.07268
0.659165 -0.57674 3.09078
0.761186 0.67045 3.07063
-0.123022 0.03319 3.08996
1.52173 -0.132 3.20587
-0.42128 -0.67236 2.99693
-0.148973 -0.93181 2.9421
1.18725 0.18161 3.19342
-0.815824 0.39078 3.0241
1.59916 -0.50643 3.13148
1.35516 -0.65121 3.08986
0.21139 -0.48099 3.07748
0.0216233 -0.8066 2.98767
1.20861 0.0149 3.203
-0.0458347 -0.4326 3.06453
0.160351 0.61398 3.04627
0.834181 -0.23172 3.16596
1.77374 -0.06826 3.20256
0.597816 -0.37339 3.12807
-1.15613 -0.45751 3.01437
-0.595525 -0.75529 2.97256
1.56262 -0.81942 3.00479
-0.75186 0.02426 3.04704
0.538907 -0.11451 3.14964
-1.02545 -0.90766 2.93765
-0.208773 -0.94608 2.93548
0.846011 0.48449 3.1248
-0.931005 -0.44403 3.01577
0.167139 -0.99724 2.93149
0.513628 0.61686 3.07081
-1.16675 0.95399 2.93277
0.938599 0.24571 3.172
0.884824 0.21909 3.1711
1.43944 0.04176 3.20994
0.275552 -0.2143 3.11843
0.805649 0.57897 3.09915
1.40235 -0.39728 3.16505
1.19193 0.60463 3.10612
0.603912 0.9247 2.97422
0.288641 -0.22189 3.11902
0.285954 -0.88612 2.97618
0.982242 0.96998 2.95808
-0.110507 -0.84287 2.97044
0.0384383 -0.60643 3.03913
1.33527 0.6326 3.09689
1.06007 -0.0717 3.19349
-0.456918 -0.1022 3.06221
0.336922 0.8653 2.98573
1.50328 0.77781 3.03029
-0.223672 -0.80888 2.97439
1.2184 0.07001 3.20223
0.568592 -0.29848 3.13631
-0.312485 -0.04148 3.07413
-0.619447 -0.68674 2.98603
-1.11564 0.87721 2.94705
0.471647 0.44565 3.10534
0.582649 0.57048 3.08718
0.312421 0.2034 3.12276
0.649237 -0.30661 3.1421
0.125618 -0.75565 3.00807
1.5455 -0.16475 3.20285
-0.816539 0.7901 2.96109
0.814417 0.1954 3.16799
0.63827 -0.46141 3.11542
-0.510764 -0.63517 3.00015
0.766447 0.63194 3.08231
1.33931 0.97187 2.94201
0.513784 -0.60017 3.07507
0.670634 0.6843 3.06166
1.49466 -0.77222 3.03352
1.44244 -0.28877 3.18652
-0.237284 0.77959 2.98132
1.25895 0.68286 3.07932
1.63334 0.236 3.19247
0.940205 -0.80182 3.03143
0.351927 0.84099 2.99468
1.36026 -0.23939 3.19284
1.37078 0.76083 3.04531
-0.680166 -0.87354 2.94346
-0.921254 0.18673 3.03686
-1.03471 -0.91479 2.93632
-0.741472 0.90672 2.93479
1.08428 -0.01663 3.19621
0.879952 0.40814 3.14289
-0.123369 0.49903 3.04796
0.273311 0.64189 3.04773
0.968072 -0.81666 3.02599
0.292735 -0.96372 2.9485
-0.953555 0.77602 2.96403
-0.75227 -0.08831 3.04604
1.66918 0.37138 3.16519
1.03781 -0.78598 3.03907
-0.225475 -0.23104 3.07267
-0.370404 0.44985 3.0384
1.0419 -0.97284 2.95561
0.782124 -0.33162 3.14912
-0.15755 0.0467 3.08678
0.391773 0.70636 3.03856
-1.20685 -0.54517 3.0052
-0.642576 0.07866 3.05153
1.63568 -0.51839 3.12565
0.347981 0.95528 2.95371
-1.23129 0.71603 2.98134
-0.735292 0.06546 3.04726
0.686785 0.52353 3.1055
-0.923715 0.09789 3.04007
0.896647 -0.85661 3.0087
-1.02891 0.19619 3.03466
-1.14384 0.02062 3.039
1.59458 0.29734 3.18347
1.21224 -0.05682 3.20239
1.16953 -0.63699 3.09521
1.01948 -0.41634 3.14944
-1.08424 -0.57358 2.99909
-0.760833 0.09436 3.04552
-0.769792 -0.25135 3.03775
-0.855536 0.18459 3.03871
0.640356 0.90613 2.9827
0.842885 -0.41027 3.14005
-0.558126 -0.15001 3.05394
1.40756 0.64716 3.09016
0.14273 0.91414 2.9601
-0.766723 -0.73009 2.97391
-1.08202 0.45538 3.01382
-0.924853 -0.52209 3.00615
1.51603 -0.51241 3.13294
1.21617 -0.18922 3.19398
-0.188564 0.40983 3.05667
-1.0677 0.97508 2.9236
0.0724855 -0.80691 2.99038
-0.953074 -0.2772 3.03084
-0.510107 -0.753 2.97586
1.31144 0.93943 2.96169
0.371514 -0.18758 3.12951
1.50928 0.0699 3.20959
0.868073 0.2648 3.16468
-0.787738 -0.86295 2.94512
1.18133 0.71489 3.06748
1.09872 -0.69714 3.07337
-0.34668 0.52695 3.02809
-1.12373 0.7558 2.97084
0.188981 0.96444 2.94435
-0.33128 -0.10025 3.07136
1.70093 -0.05806 3.20656
-0.262153 0.00416 3.0784
-1.25246 0.75885 2.97511
-0.787151 -0.21704 3.03929
1.05647 -0.59107 3.10712
0.0797758 0.88728 2.96609
-0.239957 -0.00899 3.08021
0.542153 -0.47442 3.10546
1.23224 0.02205 3.20402
-1.17875 -0.18587 3.03524
0.36749 -0.74504 3.02583
1.56616 -0.54233 3.12144
-0.440096 0.5702 3.01538
-0.727118 -0.59797 2.9988
0.310264 0.75041 3.0208
-0.110698 0.9957 2.92263
0.179209 -0.71496 3.02253
-0.441355 0.76002 2.97687
0.697617 0.48084 3.11574
-0.112069 0.78088 2.98748
1.26041 -0.60556 3.10644
-0.538299 0.89597 2.94021
0.00135057 -0.76192 2.99893
-1.12129 -0.38504 3.02121
1.74753 -0.08452 3.20321
-0.00264458 0.20697 3.09341
1.07813 -0.57373 3.11291
0.607037 0.65945 3.06528
-0.0258448 0.63137 3.02917
1.1349 0.90479 2.98664
-0.862458 0.95918 2.92226
0.617431 0.83944 3.00737
-0.0960958 0.31214 3.07587
0.543652 0.78929 3.02159
0.0335805 -0.52061 3.05602
0.282956 0.9535 2.95196
0.884435 0.11384 3.17929
-0.452492 0.574 3.01406
0.446658 -0.10271 3.14154
1.19841 -0.52381 3.13038
-0.957755 0.45893 3.01372
-0.308878 0.95402 2.92981
0.697865 -0.14797 3.162
-0.00152028 0.86982 2.96771
-0.729409 0.9726 2.91788
0.583964 0.05721 3.15587
0.30511 -0.10711 3.12788
-0.596982 0.65774 2.99241
-1.08363 -0.54822 3.00253
0.481575 0.39451 3.115
-0.452082 0.22801 3.05623
0.77366 -0.45422 3.12663
-0.537861 -0.76258 2.97275
0.853775 0.17307 3.17297
-0.279279 -0.46694 3.04196
0.959572 0.97157 2.95759
-0.770464 0.22685 3.03933
1.31713 0.61103 3.10455
0.737618 -0.54354 3.10411
0.424109 0.67621 3.04906
0.755169 -0.15462 3.16642
1.09351 0.74055 3.05726
-0.663245 0.96466 2.92016
1.47046 0.95995 2.9369
-0.622098 -0.00483 3.05353
-0.569122 0.31458 3.04211
1.77346 0.21173 3.18934
0.447563 0.35129 3.11869
1.0312 -0.21588 3.18141
0.804956 0.43857 3.13195
0.707128 -0.56271 3.09742
1.31405 -0.87179 2.99624
-0.586418 -0.44184 3.02721
1.72376 -0.09949 3.20348
-0.141994 0.45008 3.05441
0.476194 0.01272 3.14646
-0.0825901 0.79226 2.98601
0.924924 0.24183 3.1715
0.652087 0.28432 3.1452
-0.971105 -0.82439 2.95445
0.203661 -0.25034 3.10858
0.054426 -0.43694 3.072
-0.424434 0.16305 3.06198
-0.923863 -0.02252 3.04124
-0.512624 -0.49739 3.02326
1.55307 -0.42779 3.1558
-0.0620345 -0.96957 2.9331
-0.466005 0.82013 2.96158
0.00292035 0.49338 3.05854
1.46733 0.36197 3.1727
-0.809383 -0.64049 2.98976
-0.671879 -0.2367 3.04298
1.48462 0.27477 3.18886
0.501961 0.51954 3.093
1.53847 0.65362 3.08216
0.126622 0.36763 3.08823
0.829288 0.36163 3.14781
-0.954877 -0.85272 2.94825
1.0313 0.05207 3.19225
0.4995 0.27311 3.13328
1.36638 0.69082 3.07451
-0.840064 -0.19861 3.03849
1.23836 0.0823 3.20263
1.42785 -0.68548 3.07466
0.799709 -0.47533 3.1239
-0.266176 0.20109 3.07155
0.614589 -0.90694 2.9816
-0.426909 0.82891 2.96073
1.1626 0.91391 2.9815
-0.266565 0.69296 3.00049
-0.442592 0.29294 3.0517
-0.397578 0.81828 2.96449
0.765768 -0.4492 3.12711
-1.28808 0.93064 2.94475
0.0218072 -0.76605 2.99901
-0.373975 0.0394 3.06948
-0.606535 -0.63904 2.99555
1.06892 -0.78409 3.04008
0.210032 0.68433 3.03262
-0.363064 -0.42791 3.04188
-0.777973 0.51172 3.01046
1.27683 -0.10103 3.20327
-1.24173 0.72481 2.98033
0.693827 0.93197 2.97355
1.22456 -0.76234 3.04843
1.36805 0.34794 3.17516
1.21778 0.84205 3.01392
1.30661 0.51498 3.13448
1.62506 0.18887 3.19891
-0.666773 -0.25724 3.04179
-0.272901 0.4603 3.04339
-0.200408 -0.89854 2.95023
-1.11743 0.37369 3.02222
1.00917 -0.27174 3.17334
0.470594 -0.3057 3.12683
-0.506416 -0.10366 3.05889
-0.182009 -0.17143 3.08017
-1.02973 -0.49109 3.00953
-0.123326 0.37466 3.06636
-1.24095 -0.96787 2.93386
1.12197 -0.89421 2.99192
-0.0314592 -0.68757 3.01585
1.54588 0.02754 3.21075
-1.06714 0.16609 3.03574
-0.194836 0.17357 3.07898
1.04745 0.81042 3.02927
0.721991 -0.61066 3.08576
1.25782 -0.53561 3.12807
1.17776 -0.52603 3.12929
0.29649 -0.49278 3.08222
0.399183 -0.94738 2.95857
1.69788 -0.23199 3.19059
-0.629594 0.50988 3.01592
0.818526 0.81236 3.02444
1.71568 -0.4068 3.15363
-0.482876 0.94323 2.92852
0.997417 0.69397 3.07235
-0.278579 0.04641 3.07674
-0.785886 0.55404 3.00415
-1.15787 -0.65518 2.98852
1.41999 -0.49551 3.1399
1.15286 0.30234 3.17666
-0.436886 0.75712 2.97772
0.944695 0.42015 3.14452
1.10355 -0.52477 3.12743
0.58919 0.62553 3.07354
-0.105953 0.08256 3.09048
-0.467164 -0.69619 2.98988
-1.07733 0.29021 3.02879
-0.0119642 -0.07917 3.09899
1.18389 -0.98988 2.94183
0.196675 -5e-05 3.11968
1.1233 0.38386 3.16096
-1.11051 0.91239 2.93939
-1.16263 -0.03208 3.03904
-0.982652 -0.2617 3.03144
-0.855606 0.21561 3.03707
-0.148054 0.32836 3.06986
1.38679 -0.61243 3.10321
-1.12252 -0.16168 3.03585
0.0784606 0.80009 2.99269
-0.848599 0.54994 3.00339
-0.76731 0.15071 3.04337
-1.03912 -0.64258 2.98839
-0.228926 -0.26865 3.06932
0.174479 -0.7133 3.02266
0.010741 0.89128 2.9616
-0.0550553 -0.0232 3.09608
0.312089 0.23955 3.11961
-0.0951766 0.35599 3.07095
