ply
format ascii 1.0
comment Created by Open3D
element vertex 400
property double x
property double y
property double z
end_header
2.32622 2.02422 0.445846
2.26369 2.00083 -0.867773
2.58459 1.71391 -0.74169
2.7575 1.43296 0.204768
2.46174 1.81128 -0.997731
1.55254 2.98526 0.943809
2.43512 1.84255 -0.919418
1.79051 2.58079 -0.092309
1.68686 2.56779 -0.443884
2.03986 2.41007 0.511355
1.53232 2.95888 0.584303
2.35718 1.99451 0.283756
2.27389 1.89799 -1.54082
2.57245 1.7368 -0.318341
2.47416 1.79815 -1.0224
2.62431 1.66627 -0.978424
2.71467 1.48094 0.265311
2.2859 1.98463 0.898318
2.33534 1.9526 -0.755395
1.95108 2.17817 -1.20457
2.31397 2.03683 0.489628
1.36565 3.00853 0.267503
2.48219 1.83813 -0.378864
1.5825 2.78095 0.019016
1.89829 2.4968 -0.0295623
2.3622 1.99308 0.03729
2.08932 2.1199 -1.00344
2.27242 2.01918 -0.695096
1.23984 2.97158 -0.0855796
1.8476 2.45472 -0.399534
2.27628 2.10102 0.0991732
3.00862 1.16199 -0.10096
1.62538 2.72591 -0.0586001
2.56599 1.71466 0.177045
2.28617 1.91951 1.04436
1.80793 2.69846 0.716655
1.63459 2.54679 -0.636341
1.98806 2.29012 -0.594525
1.57134 2.85448 0.260923
1.57217 2.96737 1.03844
1.52694 2.86934 0.183936
2.51759 1.78176 -0.716677
2.46597 1.81896 -0.872025
2.37274 1.9563 0.447071
1.90405 2.41777 1.41371
1.74129 2.74534 0.477278
2.27093 2.08509 -0.201744
2.62875 1.66959 -0.748208
2.12467 2.3005 0.481337
1.33142 3.10948 0.559363
1.76367 2.43365 -0.716228
2.27635 2.08776 -0.10938
2.16579 2.22859 0.048792
2.42977 1.88842 0.332022
2.83274 1.43113 -0.357157
2.80779 1.47215 -0.483073
2.79696 1.45005 -0.158946
1.43763 3.10124 1.11861
2.2888 2.06359 0.566001
1.93624 2.54176 0.616646
1.99218 2.40222 1.11358
2.90942 1.27757 -0.0343239
2.11285 2.31086 0.295577
2.40005 1.93747 0.257448
1.8713 2.62362 0.742524
2.73463 1.52817 -0.144638
1.53276 2.88702 0.267596
2.08878 2.25664 1.07529
1.56756 2.80346 0.0582832
2.12589 2.21663 1.01232
2.26304 2.10682 -0.0635211
1.44003 3.09376 0.982687
1.99361 2.24469 -0.77332
1.68896 2.4718 -0.764229
1.75527 2.76091 0.967928
2.74167 1.53506 -0.300552
1.16149 3.26709 0.77268
1.18168 3.18804 0.497765
1.82992 2.52229 -0.190636
1.69849 2.52671 -0.555062
1.66801 2.86172 0.865151
1.97357 2.36033 -0.338304
2.38085 1.92722 0.547534
1.70572 2.77163 0.426004
1.34355 3.18556 1.20596
1.72628 2.69748 0.158693
2.48079 1.78218 -1.14101
2.02204 2.1818 -0.955171
0.933689 3.31573 0.525523
2.54264 1.76653 -0.514491
1.90043 2.55384 0.300094
2.13612 2.01834 -1.36691
1.70704 2.44435 -0.816605
2.02881 2.39033 0.940806
2.37596 1.88898 -0.972297
1.49069 2.65506 -0.58697
2.22301 2.11977 0.799376
3.13415 1.01341 -0.150447
1.8965 2.58938 0.837433
1.90944 2.57517 0.780585
1.57093 2.96861 1.04737
1.96014 2.44999 0.043312
2.07809 2.30477 0.979074
1.33822 3.13784 0.710691
1.90271 2.49001 1.27036
2.26348 1.9427 1.08089
1.95021 2.46075 0.0472001
1.51844 2.69052 -0.424381
2.08555 2.09781 1.38043
1.73424 2.4666 -0.674139
1.82656 2.47142 -0.401631
1.8385 2.54117 1.39149
1.69226 2.82402 0.69888
2.34267 1.98795 -0.395356
2.37542 1.84704 0.850099
1.78 2.50548 1.61297
1.81061 2.39581 -0.730125
1.69012 2.83852 0.911045
1.78417 2.65124 0.190998
2.30924 2.03824 -0.250291
2.0778 2.14509 -0.923614
3.08031 1.08745 -0.168599
2.18281 2.2088 0.648627
2.17688 2.18905 0.815385
2.15361 2.26264 0.364741
1.74388 2.69972 0.242274
1.68639 2.56766 -0.4455
1.40964 3.11988 0.976334
2.89713 1.29049 -0.0186949
1.9306 2.54962 0.714049
1.6531 2.75277 0.125059
2.05922 2.18363 -0.810298
2.11227 2.24677 0.988809
1.8966 2.26403 1.63425
1.61742 2.73138 -0.0610843
2.17175 2.15809 0.958083
1.01158 3.27847 0.510843
1.3876 3.11882 0.815769
2.61655 1.59968 0.383468
1.88936 2.46545 1.37307
1.55875 2.95608 1.32182
1.27253 3.01456 0.0978526
2.36209 1.87303 0.84352
1.45785 3.05751 0.792576
1.84838 2.45834 1.50728
1.98465 2.17803 -1.09864
2.70138 1.59339 -0.519387
2.13625 2.01633 -1.3785
2.89931 1.25111 0.116848
1.70961 2.81052 0.754946
1.98645 2.45827 0.910819
2.46643 1.84404 0.265632
2.33936 1.97078 0.647145
1.24733 3.03207 0.107064
1.45668 2.71313 -0.474458
2.96067 1.2311 -0.125536
2.48585 1.8219 -0.59438
1.58923 2.88702 1.44289
1.23706 3.06084 0.178068
2.16992 2.17549 -0.322805
2.5586 1.73835 0.056177
1.08256 3.09731 0.0488332
1.66989 2.78364 0.318554
2.28481 2.08056 -0.0783831
2.30588 1.99129 0.776497
2.45584 1.79416 -1.23886
2.51838 1.79714 -0.398749
1.13314 3.2872 0.790043
2.39224 1.78494 0.921545
3.08179 1.13446 -0.364345
2.55512 1.75436 -0.473643
2.11429 2.27755 0.855822
2.66046 1.63885 -0.583946
1.25085 3.0041 0.0283103
2.75838 1.53328 -0.588823
2.73113 1.56667 -0.794239
1.60243 2.89967 1.33779
1.6299 2.89896 0.817002
1.28538 3.09191 0.376565
1.50908 2.9449 0.426483
2.37601 1.86535 -1.17225
2.58111 1.72591 -0.471267
2.40724 1.88879 -0.722056
2.66876 1.62863 -0.47443
2.24198 1.9762 1.09353
1.59377 2.84693 0.305905
2.36352 1.95541 -0.500728
1.80488 2.56527 1.45291
2.47881 1.7074 0.74732
2.12119 2.08456 -1.05841
2.8998 1.36239 -0.443103
2.32705 1.92429 -1.02314
1.20111 3.22954 0.709666
1.55579 2.96118 0.726166
2.46059 1.8622 0.156459
3.08868 1.04591 -0.0654893
1.67482 2.55421 -0.519317
2.48106 1.80519 -0.869935
1.9828 2.2257 -0.893151
1.90822 2.28024 1.59161
1.93335 2.49245 0.130061
1.54983 2.98921 1.11665
1.93613 2.53941 0.801062
2.04491 2.12012 -1.16721
1.93582 2.40225 1.34083
1.27527 3.07113 0.283958
2.578 1.70436 0.12747
3.04047 1.16093 -0.260169
2.4697 1.69424 0.815592
2.28729 2.05627 -0.305137
1.38788 3.14688 1.16169
2.30992 2.0436 -0.182428
3.10937 1.09807 -0.349032
2.43416 1.86404 -0.71007
1.3733 3.02083 0.329085
2.50109 1.69359 0.683812
2.29352 2.06255 -0.176032
1.6876 2.70418 0.0478944
1.66049 2.87068 0.886917
2.64268 1.6498 -0.96493
1.58332 2.69585 -0.266968
1.15295 3.26143 0.723955
2.63734 1.62705 0.0919973
2.18504 2.0559 -0.936979
2.3561 1.91596 0.75001
2.61981 1.51342 0.625791
1.69017 2.58433 -0.378833
2.70565 1.50428 0.22533
2.09477 2.31155 0.833295
2.55894 1.66599 0.472921
1.2636 3.12957 0.463049
2.79618 1.36191 0.252911
1.73893 2.5022 -0.537804
2.50444 1.7682 -1.06513
1.34899 3.18103 1.17593
2.29218 2.08256 0.14448
1.37523 3.02709 0.356662
2.19369 2.14127 0.895542
2.47055 1.81334 0.428171
1.99682 2.22693 1.44228
2.97717 1.15553 0.0683927
2.23753 2.01553 1.03016
2.37909 1.97085 0.152766
2.25941 2.01377 0.942532
1.88384 2.43803 -0.344382
2.42262 1.75208 0.874306
1.8628 2.6334 0.705887
2.64451 1.61801 0.0859193
1.94672 2.49609 0.243208
1.3524 3.07463 0.477015
2.83937 1.42268 -0.352722
2.70314 1.44024 0.456184
1.81296 2.65879 0.388834
2.53416 1.66281 0.613981
2.91425 1.21225 0.171962
1.96816 2.49491 0.453379
2.00564 2.41785 0.140007
2.74331 1.48859 0.0429624
2.39081 1.85541 -1.15389
2.1591 2.24617 0.619486
2.50113 1.82103 -0.158443
1.59692 2.8248 0.225878
1.9897 2.21441 -0.91955
1.90328 2.58398 0.726089
2.05716 2.24482 -0.527656
2.09733 2.08533 1.36552
2.64779 1.65047 -0.384393
1.84219 2.5483 1.36342
1.55436 2.83551 0.137234
2.28206 2.02996 0.778043
1.7841 2.69389 0.424652
1.98533 2.33829 1.29688
2.87882 1.25091 0.213133
1.82145 2.33196 1.71856
2.4678 1.85054 -0.443305
2.59295 1.70925 -0.179988
1.47434 3.03607 1.40374
2.15711 2.25338 0.564875
1.62606 2.87313 0.576515
2.03143 2.39781 0.879306
1.55529 2.82512 0.102119
1.02574 3.21159 0.312726
2.21285 2.06827 -0.727088
1.35358 3.17683 1.14853
2.45583 1.86376 0.21785
1.99314 2.45662 0.345714
2.54886 1.674 0.501812
1.90104 2.58414 0.82502
2.04011 2.40788 0.66214
2.16247 2.01576 -1.26961
1.9711 2.4251 -0.0330071
1.92655 2.41792 -0.270478
2.45889 1.87141 -0.184826
2.60115 1.69981 -0.669194
2.14539 2.13015 -0.714188
1.24106 3.22191 0.795692
1.62025 2.52778 -0.729455
2.73722 1.45109 0.250404
2.40794 1.91749 0.350937
1.69076 2.79612 1.29351
2.19853 2.02963 -1.02521
2.3693 1.93412 -0.642462
1.64994 2.85979 1.24408
2.19587 2.17829 0.72231
1.73699 2.62184 1.55004
2.30421 2.0632 0.349489
1.99201 2.45966 0.842106
2.13581 2.03365 -1.27816
1.76764 2.74688 0.766059
2.10236 2.32876 0.546318
1.83623 2.51178 1.45466
2.46926 1.82781 -0.734453
1.68657 2.84263 0.933845
1.11745 3.23077 0.524932
1.57141 2.84645 0.229371
2.40555 1.93828 -0.0460229
1.34755 2.86907 -0.206723
2.72146 1.46564 0.284258
1.9839 2.23258 1.46831
2.60143 1.64191 0.301507
2.52565 1.79011 -0.10582
2.70414 1.48828 0.297481
1.60372 2.81868 0.223848
3.19161 0.97289 -0.252748
1.72669 2.51455 -0.526259
2.37714 1.96376 -0.23658
2.10192 2.13443 -0.880755
1.22316 3.07616 0.201405
2.38153 1.90724 0.632409
2.11851 2.18336 -0.559303
2.77357 1.48387 -0.188269
1.57613 2.95398 0.831416
3.09068 1.12415 -0.365517
2.22169 1.98355 1.14961
1.16211 3.14902 0.326839
1.73512 2.75523 1.21339
1.9433 2.31902 1.45652
1.8206 2.61222 1.28806
1.54388 2.98006 1.28264
2.35564 1.9461 -0.653376
2.5186 1.7854 0.132511
1.73706 2.4352 -0.777074
2.88259 1.39147 -0.525901
1.60344 2.88434 0.521441
1.82285 2.59915 0.116597
2.36434 1.96158 -0.431389
2.1833 2.17272 -0.249919
2.39738 1.85874 -1.07538
2.41724 1.91925 0.17772
2.2111 1.93801 -1.56187
1.10752 3.1237 0.161048
1.80447 2.46058 -0.50843
1.51117 3.02951 1.11257
2.7632 1.52998 -0.637137
2.36137 1.99297 -0.0150375
2.0235 2.26054 1.31371
1.51564 2.84829 0.0787232
1.31517 3.10859 0.510677
1.36085 3.06463 0.460841
1.78483 2.57409 -0.138798
1.41874 2.76531 -0.387634
1.29115 3.22102 1.03654
2.70232 1.56284 -0.0846504
2.13552 2.14169 1.15321
1.16871 3.29119 0.925519
2.78383 1.35772 0.325519
2.02076 2.3242 1.19599
2.33808 2.01309 -0.164168
2.79422 1.45429 -0.16394
2.36455 1.86186 -1.28202
1.26249 3.178 0.653707
1.82098 2.67149 1.02898
2.70257 1.50856 0.22644
1.96124 2.48578 0.965091
1.39727 3.02559 0.409262
2.19149 2.15515 0.858937
2.27956 2.09104 -0.0165413
1.99965 2.22868 -0.822616
2.82544 1.45791 -0.556576
2.15772 2.22492 -0.0644416
0.993301 3.16707 0.137184
2.10759 2.30431 0.139035
1.86541 2.60486 1.06573
3.08991 1.06701 -0.140093
2.7142 1.58365 -0.844789
2.50403 1.78307 -0.87989
2.68314 1.61193 -0.452546
2.40893 1.93251 0.127496
1.19469 3.19391 0.547557
2.62709 1.66625 -0.908065
2.47696 1.75534 0.621229
2.82299 1.42445 -0.211184
2.611 1.69298 -0.436002
2.31138 1.91484 -1.18914
2.15047 2.1902 -0.351839
1.69346 2.58123 -0.381004
2.53443 1.6539 0.637825
2.20519 2.17333 -0.0553349
2.16963 2.24217 0.390067
2.39707 1.94591 0.184423
