ply
format ascii 1.0
comment Created by Open3D
element vertex 400
property double x
property double y
property double z
end_header
3.11831 -0.976589 0.539933
2.25544 0.234529 2.26596
2.97418 -1.15522 0.929308
2.18634 -1.58006 1.75221
3.05302 -0.301216 0.628448
3.07082 -0.702447 0.659398
2.53601 -1.9579 1.29386
2.89437 -0.645619 1.10521
2.29982 0.331291 2.23233
1.90122 0.210048 2.72596
3.17137 -1.32885 0.364004
2.70692 -1.09594 1.37087
2.16966 -0.856366 2.03534
2.33244 0.0273172 2.09705
2.41081 -0.418948 1.88618
3.20527 -1.3097 0.0847467
3.13681 -1.23995 0.503432
1.93509 -0.315092 2.46224
2.93118 -2.0353 0.799978
2.045 -0.898659 2.13744
2.80973 -0.618392 1.26722
2.68945 -0.431521 1.48616
2.37616 -0.389408 1.93684
2.74746 -1.22695 1.2915
2.91983 -1.94176 0.856568
2.86466 -0.43139 1.16651
2.17326 -1.59054 1.75777
2.69032 0.534392 1.58675
2.37402 -1.0446 1.77352
2.76388 0.536404 1.41778
3.13437 -0.709303 0.388619
2.39604 -0.656756 1.84985
2.40893 -1.79328 1.47937
2.31731 -0.179106 2.06354
2.47452 -1.58213 1.50395
2.60055 -1.32739 1.45173
2.37035 0.523255 2.18348
2.77468 0.432846 1.3825
3.05534 -1.49207 0.724282
2.50796 -1.84016 1.37186
2.32391 -0.963335 1.84851
2.92245 0.124289 0.994928
2.07327 -0.259402 2.33275
2.50931 -0.47717 1.74511
2.35053 0.0675967 2.0822
2.57828 -2.09484 1.18805
2.82608 0.174782 1.24899
2.49512 -1.00476 1.65242
2.76378 0.861661 1.46537
2.56951 -1.01198 1.56325
1.85417 -0.0252083 2.67261
2.54708 -1.76977 1.36404
2.1057 -0.842382 2.10137
1.99232 0.256794 2.63121
1.96305 -0.357549 2.41651
2.80296 -0.413939 1.28914
3.03406 -0.470717 0.737965
3.12617 -0.603251 0.387749
2.81165 -1.51605 1.14165
2.66749 -1.61795 1.29244
1.93168 -0.598303 2.35549
2.951 -0.0694375 0.93167
2.48918 -1.56367 1.49643
3.14858 -0.794695 0.341214
2.91197 0.174437 1.02152
2.03819 -0.375444 2.33056
2.805 0.510075 1.31242
2.93023 -0.895927 1.02901
2.29895 -0.580314 1.98136
2.79286 0.281189 1.3306
2.78219 0.196734 1.35159
2.57722 -2.00207 1.23498
3.05565 -1.00631 0.741416
1.87111 0.0858908 2.70402
2.28918 -0.0648375 2.13075
3.03279 -0.408348 0.729861
3.12199 -1.39172 0.555949
3.18051 -1.55496 0.317894
2.6422 -0.105366 1.59984
2.87665 0.1686 1.12087
2.66586 0.324788 1.60812
2.73221 0.695038 1.51572
2.56116 0.292152 1.79931
2.77732 -0.165062 1.34804
2.25101 0.131828 2.23958
2.89508 -1.70275 0.973354
3.00427 -1.01485 0.869218
2.54816 0.0548062 1.77938
3.01106 -1.35131 0.837518
3.09286 -0.70139 0.579212
2.51761 0.585089 1.94396
2.46522 -0.417417 1.81564
2.42331 -1.70751 1.50298
2.24725 -0.434796 2.08034
2.65412 0.372089 1.63812
3.03708 -1.33443 0.782647
2.41397 0.0386002 1.98348
3.15331 -1.02711 0.399105
2.91707 0.412048 0.987446
2.45375 0.00315416 1.91681
2.62922 0.206385 1.66227
2.59149 0.0686069 1.70929
2.2875 -1.34432 1.76075
3.06341 -0.956702 0.716504
3.13431 -1.57193 0.501282
2.71418 -0.0183205 1.47898
2.3226 0.0385139 2.11372
2.92629 -0.158391 1.01031
2.8323 -0.106151 1.23449
2.24575 -1.26335 1.82688
2.89817 -1.77405 0.94765
2.32318 -0.0859435 2.07995
2.02371 -0.508755 2.29823
2.40808 -1.47584 1.60427
2.86161 0.131114 1.16142
3.0467 -0.618817 0.723795
2.34521 -0.399299 1.97303
2.08003 -0.600371 2.20919
2.18695 -1.77151 1.66427
2.94806 0.201518 0.905705
2.61203 -1.56658 1.36991
3.2015 -1.42686 0.175037
2.32965 -0.749601 1.90188
2.76788 1.05416 1.49986
2.62475 0.729836 1.76717
2.35157 -2.12344 1.35973
2.58443 -1.11733 1.52193
3.19121 -1.11912 0.167507
2.5368 0.614215 1.9155
3.20515 -1.33668 0.103457
2.59917 0.743228 1.82482
2.73068 0.737858 1.52681
3.01473 -0.983574 0.844498
2.64553 -1.86297 1.22843
3.07926 -1.49044 0.667212
2.69519 -0.902487 1.41906
2.90055 -1.5246 1.00891
2.33266 -0.246516 2.02662
3.01838 -1.82566 0.727768
1.95669 -0.525837 2.35904
2.05767 -1.20396 2.01016
3.07355 -1.85924 0.5987
2.52126 -2.16038 1.20359
2.86897 0.156674 1.14164
2.38806 0.215448 2.06552
2.01516 -0.918242 2.15686
2.11954 -0.300345 2.26681
2.22035 -1.71299 1.66683
2.37461 -0.0128556 2.02785
2.86637 0.296846 1.14464
3.20323 -1.21356 0.016313
3.04275 -1.66918 0.72028
2.95684 -1.96978 0.786515
2.89079 -0.420777 1.11046
2.56245 -1.71956 1.36833
1.88076 -0.103182 2.60814
2.19687 -1.66519 1.70646
3.18798 -1.56384 0.275333
2.21725 -1.79206 1.63205
3.12267 -1.67335 0.519978
2.94359 -1.50781 0.941527
2.21633 -1.29882 1.83994
2.2099 -1.75112 1.65701
2.87243 0.171017 1.132
2.63945 -0.827803 1.50831
3.12766 -0.750626 0.441213
2.32581 -1.86575 1.51411
2.75938 1.05572 1.52423
2.99107 -1.08639 0.897361
2.19674 -1.38315 1.82464
3.10533 -1.51384 0.59566
3.1089 -0.715214 0.517143
2.81312 -1.52762 1.13682
3.02673 -1.49451 0.786628
2.90832 -0.205995 1.06
2.95168 -0.656812 0.981528
2.80989 -0.291626 1.27945
2.54093 0.276449 1.83177
2.72313 -1.37947 1.29122
2.38376 -0.698701 1.85402
2.85266 -0.713736 1.18449
2.44974 -0.984123 1.70864
2.55951 -1.22844 1.52396
2.51633 -0.0615696 1.80949
2.82974 -0.0301105 1.24009
2.42844 -0.0979859 1.93211
1.94843 0.178716 2.65217
1.89912 -0.192829 2.55
2.9021 -1.90297 0.898019
1.8825 -0.15582 2.58364
3.09371 -1.14386 0.640363
3.03993 -1.84812 0.677062
2.50749 -2.1422 1.22548
2.87743 0.184412 1.11813
2.73597 0.477371 1.47723
2.74721 0.172375 1.42643
2.99609 -0.069823 0.786522
2.78476 -0.730645 1.30229
2.05042 -0.193341 2.38188
2.96473 -1.91581 0.794208
3.05066 -1.67628 0.70162
2.74755 -0.269772 1.39938
2.76157 0.236508 1.39948
2.34057 -0.985573 1.82494
2.7804 0.119073 1.35236
2.94816 0.29723 0.89297
2.77038 0.659974 1.41572
2.41948 -1.22762 1.67368
2.825 -1.2337 1.17896
3.02589 -0.237404 0.716377
2.35772 -1.5482 1.62338
2.74818 0.644211 1.46908
2.29496 -0.111766 2.11037
1.97265 -0.555035 2.33231
2.6855 -1.95928 1.14598
3.09124 -0.492063 0.524192
2.2923 -0.7133 1.95256
2.77501 0.984618 1.46154
2.4179 0.475333 2.08938
3.02912 -1.56937 0.769184
2.5913 0.400587 1.76449
2.55623 -0.335329 1.70363
2.14524 -1.61802 1.76682
2.89272 -0.197127 1.09766
2.47036 -0.559984 1.7801
2.70753 -1.19464 1.35139
3.07678 -0.463818 0.578625
3.03144 -0.213025 0.689648
2.32803 -0.454326 1.98021
2.4612 -1.15938 1.65001
2.77039 -0.127485 1.36331
2.8117 -0.176607 1.27806
2.15781 -1.50201 1.80792
3.12238 -0.756734 0.468974
2.81489 -0.221445 1.27074
2.95489 0.175526 0.886231
2.78661 0.838448 1.39904
3.09516 -1.51415 0.623308
2.58807 -1.66447 1.36245
2.66657 -1.24166 1.39395
2.76921 -0.404693 1.35195
2.22272 -0.209066 2.17406
2.73068 1.01317 1.58987
2.96232 -0.579222 0.952275
2.32009 0.37136 2.2144
2.84905 -0.515988 1.19743
2.7441 -1.0223 1.33106
2.34629 -0.790695 1.87268
3.17403 -1.36555 0.353497
2.73765 0.0390368 1.43737
3.08083 -1.77315 0.6079
2.84647 0.790406 1.21785
2.61022 -1.44175 1.40948
2.56181 -0.524119 1.66495
2.73298 0.547112 1.49244
2.29397 -1.36762 1.74662
2.88455 0.31078 1.09311
2.06077 -1.07665 2.05706
1.96355 -0.303549 2.43662
2.99103 -1.1523 0.894681
3.17672 -1.05721 0.267817
2.55682 0.282925 1.80524
3.19148 -1.31967 0.24229
2.59714 -1.0449 1.52246
2.13242 -0.176527 2.29256
2.71039 0.670442 1.56352
2.92026 -0.355241 1.03994
2.59297 0.560514 1.79353
2.82864 -0.0385674 1.24258
2.94182 0.224902 0.923524
2.46551 -1.99098 1.33995
2.89976 -1.50782 1.01369
2.52275 -0.711359 1.68296
2.69313 0.871867 1.64684
2.13574 -1.1285 1.97267
2.77875 0.896618 1.4316
2.91396 -2.05899 0.815683
2.82368 0.800234 1.28769
2.11436 0.0242919 2.38294
2.66391 -1.75191 1.25121
2.67064 -0.366183 1.52355
3.11101 -0.868746 0.547089
2.7872 0.451856 1.35349
2.91001 -0.580282 1.07202
2.27035 0.0694389 2.19423
3.16136 -1.477 0.411706
3.03488 -1.60838 0.749774
2.87203 -1.58906 1.03769
2.72078 0.340366 1.49647
2.17269 0.301717 2.40622
2.72589 0.729782 1.53706
2.13787 0.311669 2.45864
2.99504 -0.164921 0.808492
2.77101 -0.941599 1.30219
2.30469 0.318792 2.22105
3.14026 -0.886595 0.423734
2.33183 -0.0920436 2.06681
2.62414 0.723082 1.76685
2.59246 -1.78174 1.31472
3.1844 -1.47263 0.30139
2.39847 -0.0489861 1.98558
2.97521 -1.35932 0.908003
2.17312 -0.583087 2.1185
3.12664 -1.7334 0.493971
2.21724 -0.283049 2.15897
2.63524 -0.535615 1.5578
3.20171 -1.3429 0.154467
2.89376 -1.42766 1.03901
2.3192 -0.685638 1.93051
3.08736 -1.24516 0.660961
2.07819 -0.48476 2.25036
2.99132 -0.0340673 0.796223
2.848 -0.377071 1.20106
2.63531 -2.01401 1.1731
3.00822 -0.627387 0.838197
2.91853 -0.78671 1.05481
2.88089 0.600412 1.09916
2.1931 -1.18662 1.90108
2.10638 -1.14303 1.99278
2.8211 0.932548 1.31586
3.1796 -0.950494 0.179075
3.17096 -1.24063 0.354918
2.24247 -0.282609 2.12891
2.75034 -2.0206 1.04707
2.62854 -1.61243 1.3373
2.88474 -0.723007 1.12326
2.11827 -0.0444422 2.35406
2.19937 0.379783 2.39751
1.93388 -0.435873 2.41632
2.83517 -0.95536 1.19836
2.9336 -0.541192 1.01827
2.7072 0.803839 1.59694
2.21916 -1.13535 1.89556
2.71818 0.663967 1.54413
2.26875 -1.58192 1.68555
2.62653 0.574503 1.72888
2.67975 -0.594363 1.48329
2.44198 0.0240413 1.93882
2.47726 -0.075235 1.86588
1.84078 0.130454 2.76163
2.44046 -1.40076 1.5988
2.4695 -1.84181 1.40571
3.11262 -1.05884 0.572544
3.04803 -0.454153 0.686813
3.03267 -0.793956 0.788134
2.52549 -1.41657 1.50813
2.39461 -0.976919 1.77062
2.75581 -0.182916 1.38898
2.56976 -0.220358 1.70131
2.8897 -0.407709 1.11251
2.75303 -0.383482 1.38227
1.99339 0.0113819 2.52598
2.86507 -0.269561 1.16383
3.10371 -1.66599 0.575458
2.95393 -0.209762 0.94012
3.07842 -1.50295 0.667756
2.26791 -1.78748 1.59599
3.12735 -0.672524 0.412434
2.16911 -0.556876 2.13089
2.83136 -1.73715 1.05394
2.67566 -1.75653 1.23668
2.49591 -1.70812 1.43676
2.89465 -0.766099 1.10282
2.11269 -0.994263 2.04165
2.24288 -1.67102 1.66828
2.88311 -1.11952 1.10101
2.12373 -1.05509 2.00995
3.13212 -0.786469 0.431356
2.19622 -1.00315 1.96152
2.63264 -0.216379 1.60249
2.88491 -2.06133 0.857197
3.15439 -1.00171 0.386448
2.66629 0.0379479 1.57343
3.00598 -0.0682679 0.750615
3.20385 -1.23745 0.0448306
2.23338 0.372103 2.34491
2.61888 -0.271208 1.61768
2.91588 0.113841 1.01518
2.48543 -1.05504 1.65102
3.09063 -0.837051 0.615805
2.37672 -0.194325 1.98167
3.11991 -1.08356 0.549825
3.06915 -1.67417 0.660367
2.30972 0.277662 2.20074
2.88187 -0.63262 1.13059
2.10133 -0.658849 2.168
2.38365 -0.0471584 2.00688
3.15455 -1.31292 0.438809
2.18507 -0.491077 2.1338
3.02136 -1.17456 0.827485
3.04525 -0.401201 0.684614
2.08017 -0.117373 2.37444
2.37228 -1.19751 1.72999
2.4389 0.377653 2.02731
3.15601 -1.67864 0.406424
2.48268 -1.22453 1.60911
2.99828 -0.874413 0.880864
2.64674 0.160995 1.62377
2.06863 -0.311449 2.31992
2.28417 -1.35018 1.76162
