ply
format ascii 1.0
comment Created by Open3D
element vertex 400
property double x
property double y
property double z
end_header
0.406016 2.13499 2.29422
1.58991 2.12484 1.74611
0.316558 2.39346 2.03504
0.682236 3.06631 0.451141
0.397066 2.13827 2.29541
-1.30519 2.77474 1.49698
-0.589391 2.56806 2.19597
0.443522 2.69982 1.45117
0.53563 2.66004 1.48574
0.746396 2.90522 0.865598
1.63746 2.43854 1.35914
1.11889 2.78962 0.990989
1.58305 2.53 1.254
-0.930059 2.47537 2.46361
0.0574769 2.11753 2.48371
-0.734603 2.5884 2.20804
-0.787176 2.80722 1.61069
-0.394713 2.57286 2.1069
1.56161 2.55571 1.22477
1.85652 2.27016 1.49125
1.08674 2.22538 1.85494
-0.661833 2.78945 1.66539
1.09901 2.70922 1.14659
-0.158669 1.87732 2.77065
0.0291953 2.04877 2.55901
0.864579 2.38957 1.75718
1.53336 2.59154 1.18207
0.0491175 2.12719 2.47856
-0.00969862 2.89301 1.1421
-0.136283 2.63103 1.87554
0.924674 3.05953 0.444318
1.15587 2.78473 0.987941
-0.762247 2.58013 2.23292
0.30097 3.03342 0.591304
-0.316833 2.58877 2.04242
1.0438 2.73002 1.12986
1.1925 2.04452 1.99901
0.845969 2.91253 0.818688
0.895049 2.68362 1.27597
0.0281596 2.62079 1.81514
0.560741 3.00913 0.634791
-0.221509 2.27513 2.45386
-0.425058 2.93752 1.02024
0.3485 2.29079 2.151
-0.352152 2.9226 1.09438
-1.263 2.71702 1.87819
0.775539 2.43228 1.7421
0.63537 2.10194 2.21184
0.926444 3.07425 0.406933
1.23777 2.31954 1.67162
-0.925316 2.60455 2.22512
0.993934 2.07383 2.06313
-0.716698 2.2303 2.70248
-0.170489 2.25822 2.44886
1.70321 2.44558 1.32801
0.757748 2.81648 1.06596
0.796038 2.94907 0.744534
0.645356 2.68768 1.38026
0.489639 2.27324 2.09876
-0.239088 2.18998 2.55187
0.926676 3.06909 0.42
1.14067 2.62077 1.2817
1.46549 2.67584 1.07499
-1.11785 2.61436 2.22698
-0.698218 2.51138 2.33539
-1.06406 2.83646 1.34487
-0.976038 2.50104 2.43272
-0.198841 2.59394 1.97766
1.63501 2.47007 1.3184
1.15314 2.62351 1.27213
1.06418 3.08172 0.376874
-0.516233 2.6459 2.01116
1.24734 2.71068 1.08981
0.4568 2.92918 0.890615
-0.100029 2.29261 2.37611
-0.345647 2.64756 1.93741
0.777377 2.71487 1.26788
0.957587 2.2324 1.90917
0.595959 3.03017 0.567064
-1.24894 2.68207 2.01905
-0.247414 1.91339 2.78248
-0.81999 2.27103 2.69416
-0.0354909 2.57788 1.9274
-0.625576 2.0735 2.80861
-0.420811 2.91581 1.12724
-0.626031 2.49128 2.3417
0.474832 2.98815 0.713782
0.146851 2.96654 0.850586
0.867711 2.80961 1.03956
-0.0515506 2.67438 1.74481
-0.0110215 2.2337 2.39919
0.297524 2.87106 1.1059
0.0323926 1.86613 2.69777
-0.614549 2.72379 1.85531
0.937696 2.74161 1.14934
0.579736 2.67815 1.42961
-0.499053 2.49973 2.27758
-0.172453 2.71046 1.71961
-0.235608 1.89346 2.79101
1.4755 2.66545 1.08823
0.158288 3.02081 0.647922
-0.652096 2.89191 1.22579
0.97915 2.11317 2.03002
-0.576769 2.87768 1.30465
1.27406 2.61075 1.24505
0.233474 2.91732 0.991781
0.00596619 2.86796 1.21786
-0.201215 2.11689 2.60404
1.11317 2.79734 0.978148
1.05495 3.17426 0.153195
0.706891 2.24412 2.0212
1.65006 2.38572 1.4224
-0.042142 2.76022 1.54012
0.222071 2.0096 2.50151
-0.556997 2.41042 2.43361
-0.419624 2.45167 2.31738
0.699785 2.5554 1.5909
0.495819 2.36416 1.98066
0.468079 2.7606 1.30979
0.687825 2.77194 1.19001
-0.663125 2.39267 2.4982
1.57013 2.63395 1.10733
-0.320633 2.15859 2.61792
0.692816 2.03573 2.24757
0.920846 2.63268 1.35552
1.46521 2.53368 1.28984
0.0487141 2.80986 1.3711
0.666992 2.13677 2.16027
-0.0535457 2.84749 1.30167
0.441395 2.5459 1.73782
1.50407 2.47019 1.36448
-0.973426 2.77052 1.74725
1.10241 2.37208 1.66598
0.411806 2.83584 1.15555
0.209289 2.69446 1.57554
0.820322 2.07699 2.14461
-0.403496 2.93362 1.04181
0.564888 2.7123 1.36856
-0.554031 2.90198 1.18829
-0.84582 2.55815 2.29926
0.790809 2.9611 0.71591
-0.345777 2.04334 2.72742
1.68943 2.43312 1.34863
1.80693 2.30472 1.46741
-0.0727529 2.01935 2.63007
-0.144884 2.95247 0.948845
0.863347 2.68694 1.28355
1.00729 3.08357 0.376845
0.79575 2.84305 0.993372
0.139451 2.18454 2.37723
-0.0192589 2.92302 1.04116
1.04498 2.42089 1.62675
0.173039 2.46908 2.0008
1.33778 2.40327 1.52026
-0.858097 2.31981 2.65211
0.201008 2.72554 1.5115
1.11822 2.79714 0.976854
0.378173 2.82639 1.19278
-1.082 2.82986 1.37528
0.271612 2.9084 1.0072
-0.255249 2.85429 1.34459
0.328614 2.78005 1.32701
1.80201 2.2712 1.50773
1.26088 2.85107 0.831239
0.236128 2.10683 2.40689
0.474819 3.05677 0.498065
1.30437 2.60608 1.24088
-0.635698 2.78035 1.6911
-0.457564 2.93916 1.007
0.922983 2.39227 1.72468
1.46504 2.33715 1.55291
1.28304 2.86361 0.801682
-0.803902 2.81271 1.58762
0.777391 2.93144 0.792787
-0.232679 2.93814 1.01791
0.846512 2.8443 0.972816
-0.573704 2.89644 1.21426
1.02803 2.42976 1.62235
0.705261 2.78827 1.14785
-0.857311 2.56745 2.28466
0.210153 2.25708 2.2622
1.29846 2.23623 1.74499
0.644944 2.34586 1.92719
0.903576 2.90745 0.813929
0.548407 1.96587 2.38125
0.323075 2.32826 2.11778
0.0247325 2.30241 2.30293
-0.301238 2.77775 1.59869
0.64933 2.89435 0.922831
-0.549424 2.23848 2.63366
1.53039 2.70118 1.01538
0.267903 2.51924 1.87215
-0.358378 2.33795 2.44261
-1.00628 2.45212 2.51697
0.0848009 3.01712 0.665614
-0.277713 2.6671 1.86528
-0.269285 2.3395 2.40022
0.271851 2.29783 2.18223
0.30949 2.78918 1.31349
0.660477 2.07808 2.22292
-0.0205248 2.44353 2.13874
-0.365818 2.2755 2.5185
0.315506 3.03822 0.573117
0.124772 2.9763 0.819332
0.242036 2.00917 2.49233
-0.132623 2.97576 0.847609
0.322305 2.69993 1.50918
-0.690176 2.77584 1.71657
0.631832 2.03666 2.27685
0.769167 2.06683 2.17993
0.521744 2.89229 0.970271
1.1467 3.01404 0.521916
-0.628282 2.78933 1.65959
-0.184299 2.67091 1.81468
0.174637 2.77881 1.39801
0.795928 2.38795 1.79376
-0.238032 2.89892 1.1785
1.14938 2.72361 1.10208
0.154997 2.19509 2.35843
0.876007 2.22835 1.9542
-0.645101 2.20952 2.69792
-0.427911 2.84568 1.41865
-0.246611 2.82693 1.43191
1.03319 3.18515 0.125115
-0.575817 2.69258 1.92428
0.938999 2.15748 2.0025
-0.659773 2.82655 1.52759
-0.657413 2.78476 1.68064
-0.192726 2.86652 1.2849
-0.312427 1.92286 2.80172
-1.10092 2.78756 1.62746
1.40348 2.12003 1.82788
1.15908 2.25099 1.79095
-0.683421 2.83659 1.48758
-0.450449 2.71087 1.8338
-0.448654 2.56056 2.15267
0.271139 2.34264 2.12651
-0.952953 2.69869 1.99352
0.888582 2.35326 1.7938
0.513213 2.05211 2.32123
-0.0597185 2.89629 1.14527
0.632002 2.56204 1.61363
0.713353 3.07757 0.41609
-0.0378373 2.82788 1.35449
-0.233622 2.82749 1.42583
-0.65505 2.66237 2.02323
-0.137736 2.69514 1.73934
1.22076 2.95837 0.627918
0.192465 1.96835 2.54964
0.845854 2.64097 1.37469
0.198133 2.53247 1.8867
1.73115 2.41755 1.35486
0.298566 3.0204 0.637591
-0.0537874 2.88818 1.17115
0.806384 2.69478 1.29375
0.679691 2.89551 0.910145
-0.676305 2.30834 2.60597
1.24293 2.44562 1.50308
0.385017 2.3293 2.0841
0.738863 2.83341 1.03547
-0.786559 2.65629 2.07569
-0.63684 2.75543 1.77021
1.11981 2.39963 1.6211
-1.05979 2.8315 1.3864
1.01986 2.16855 1.95108
1.33026 2.72452 1.0382
1.58973 2.31318 1.53371
-1.16677 2.73822 1.8317
1.04082 2.31968 1.76282
0.0583845 1.90181 2.66139
1.4134 2.70478 1.04467
0.31309 2.66151 1.59238
0.628141 1.95475 2.35211
-0.276033 1.90473 2.79956
1.56489 2.19534 1.6797
0.691154 2.58276 1.54926
-0.970246 2.59161 2.26134
0.077866 2.35624 2.20887
0.876661 2.68273 1.28556
-0.940098 2.71188 1.95307
1.38353 2.44068 1.45123
-0.534662 2.68926 1.91813
0.417527 2.08695 2.33586
-0.822954 2.79324 1.66652
-0.738783 2.31135 2.62424
0.134614 2.34092 2.19945
0.166219 2.94112 0.933749
0.686661 2.32219 1.93621
-0.644664 2.32836 2.57139
0.000796374 2.7874 1.45132
-0.162807 2.71 1.71635
-0.833021 2.62606 2.15711
0.464628 2.65834 1.52368
0.876892 2.80255 1.05092
-1.08328 2.53321 2.39494
-0.0277546 2.95545 0.92194
0.681984 2.85554 1.00538
0.774168 2.81877 1.05475
1.21417 2.48508 1.4596
0.826549 2.55345 1.53219
-0.325817 2.49659 2.20634
0.354132 2.63325 1.6268
1.82699 2.27777 1.49205
1.48356 2.39872 1.46736
0.809725 2.0565 2.17
0.331307 3.04301 0.555051
0.155503 2.08646 2.46544
-0.214966 2.74062 1.66423
-0.491558 2.8877 1.25774
0.282721 2.75119 1.41511
0.468249 2.19203 2.20258
-0.356021 2.90592 1.16813
0.492326 2.22383 2.15489
-0.501936 2.92916 1.05318
1.28028 2.24487 1.74298
0.309449 2.53882 1.81816
0.166898 2.99701 0.737194
1.62946 2.34303 1.48274
0.139201 2.97276 0.829776
-1.08193 2.77581 1.69592
0.705999 2.45566 1.74333
-0.194165 2.9364 1.02139
1.56512 2.39265 1.44424
0.582864 1.95877 2.37061
1.09945 2.3103 1.74676
1.79055 2.441 1.30647
0.402095 2.2912 2.12261
-0.304371 2.93802 1.0225
-1.06053 2.67097 2.07837
0.502239 2.82221 1.15296
-0.709658 2.44061 2.4489
-0.395415 2.19222 2.61756
0.160561 2.20102 2.34935
0.737655 2.73283 1.24961
1.17092 2.80529 0.944334
0.88862 2.30046 1.86129
-0.565507 2.91481 1.11908
1.31945 2.71751 1.05365
0.0460298 2.71559 1.60718
-0.971793 2.70855 1.96511
-0.375673 2.87783 1.28626
0.442888 2.55526 1.72132
0.226904 2.97777 0.796351
0.10334 2.46852 2.03788
0.985078 2.65132 1.29509
0.0557127 2.44122 2.10318
-0.128695 2.9771 0.841556
0.073134 2.68991 1.65133
0.54142 2.48125 1.78945
-0.110561 2.78798 1.49588
-1.12252 2.61811 2.21807
0.217866 2.91762 0.995486
0.611801 2.69337 1.38471
0.494345 2.36172 1.98469
0.443792 3.03346 0.57695
-1.27626 2.75159 1.6965
0.483142 3.0528 0.510277
0.147438 2.99581 0.743997
0.586558 2.01991 2.31472
0.91543 3.14622 0.22078
-0.55328 2.19811 2.67503
0.689023 2.42899 1.79074
-1.16196 2.811 1.42372
-0.237272 2.69119 1.79325
-0.836098 2.80181 1.63171
1.02041 2.49465 1.53206
-0.815861 2.8623 1.34383
-1.04595 2.78661 1.65815
-0.908768 2.59349 2.24504
-0.853773 2.81809 1.55935
-0.974319 2.73094 1.89307
0.303757 2.24644 2.2264
-1.34749 2.76321 1.51544
0.342561 2.90559 0.992926
0.75008 2.21257 2.03563
-0.0820397 1.92698 2.70454
1.76687 2.30713 1.4778
-0.903532 2.71609 1.93718
-1.17764 2.7513 1.7683
0.293989 2.40139 2.03592
-0.291145 1.95138 2.77384
1.50996 2.46755 1.3659
-1.29093 2.75814 1.64069
1.13732 2.20789 1.85116
0.267541 2.90355 1.02294
0.150613 2.02815 2.51966
0.534886 2.77691 1.24414
-0.709461 2.64948 2.07007
-0.103701 2.96392 0.897007
0.602383 2.24188 2.07744
0.249359 2.04584 2.45681
-0.986215 2.6823 2.04316
-0.514565 2.88523 1.26966
-0.867582 2.47983 2.44005
0.247596 2.05957 2.44532
0.704277 2.39441 1.8315
-1.26832 2.71426 1.88718
-0.964396 2.39088 2.59357
-0.50334 2.4717 2.32324
1.27411 2.85629 0.81784
