ply
format ascii 1.0
comment Created by Open3D
element vertex 200
property double x
property double y
property double z
end_header
-1.13982 2.53804 1.34654
-2.4795 -1.31987 1.44214
-3.47243 -0.158239 0.337626
-0.457235 0.126456 3.12493
-0.79665 -1.23508 2.83559
-1.69781 -1.2087 2.28407
-0.407614 0.857551 2.99336
0.378433 0.958193 3.29467
-1.73456 0.912279 2.55914
-2.92714 -0.163443 1.99091
-3.72025 0.688195 1.19558
-1.10881 2.57894 1.29087
-0.447706 -0.484652 3.14415
0.076697 0.237836 3.34203
-3.61973 0.129619 1.18589
-3.50284 1.26317 1.26353
-0.50972 -0.97395 3.05945
-1.34586 -0.249021 2.77793
-1.46573 0.256312 2.75318
0.106135 0.0492423 3.38626
-0.777883 -1.79851 2.64968
-2.65014 1.94361 1.21967
-1.11599 2.26119 1.79644
-1.87348 -0.207969 2.56561
-3.67927 0.273637 0.779016
-0.954246 0.507262 2.89436
-1.84042 -1.81847 1.69763
-2.84053 1.48111 1.81208
-1.74978 1.45681 2.30443
-2.47695 1.75422 1.73404
-3.51157 -0.0348809 1.31587
-1.71467 -1.72496 1.91559
-1.56779 0.0744216 2.71808
-0.630711 1.50945 2.63172
-0.99346 0.723002 2.83613
-2.98534 -0.879125 1.20503
-3.63072 0.339551 1.39072
-2.95378 1.65641 1.48267
-3.44257 -0.320332 0.923329
-3.22342 -0.694561 0.349992
-0.870084 -0.67698 2.92414
-2.01262 1.74744 1.97829
-1.62085 1.65257 2.20977
-2.68169 1.89096 1.31804
-1.25884 -1.15235 2.58997
0.320725 0.642365 3.36841
-3.5182 -0.0858639 1.20934
-0.249109 0.701412 3.09873
-1.11534 2.60992 1.22065
-3.5631 -0.063711 0.665245
-2.02174 2.21256 1.28184
-2.5486 1.57123 1.8972
-2.33924 -0.298368 2.31653
-2.60597 -1.25022 1.33841
-1.33353 -1.98576 2.08289
-3.24853 -0.517024 0.00892466
-1.89898 -0.498825 2.47911
-3.24368 0.813188 1.92965
-2.26773 -1.31547 1.71719
-2.46421 -1.20798 1.59992
-3.29171 0.151665 1.81479
-1.73097 2.3603 1.21595
-0.856823 1.63913 2.47479
-3.27422 0.614871 1.92905
-1.06766 1.11844 2.68458
-0.850073 0.683514 2.89163
-0.0315999 0.385991 3.26384
-2.89974 -0.959211 1.25151
-3.20808 0.186027 1.90945
-0.352486 0.712692 3.05629
-2.66404 -1.18316 1.3391
-3.46535 0.357517 1.69735
-3.20519 -0.674541 1.00046
-2.37886 -1.1508 1.75785
-1.2971 -0.425476 2.77321
-3.05647 0.300056 2.05938
-0.995514 0.0191185 2.92576
0.384233 0.407784 3.46382
-2.03856 -1.59815 1.69004
-2.60324 1.55327 1.88494
-0.186411 0.635329 3.14111
-3.36012 -0.480075 0.572623
-3.10422 0.589087 2.05347
-3.02109 1.50572 1.64283
-3.64666 0.499776 1.43365
-3.67004 0.460257 1.35201
-3.37717 0.403481 1.81319
-0.230624 -0.331966 3.25059
-1.7269 -1.53163 2.05423
-3.08814 1.29859 1.80149
-0.794189 -0.921786 2.91583
-1.56111 2.08574 1.80128
0.658659 0.555899 3.58576
-2.92166 -0.178728 1.98748
-2.76031 1.79084 1.44617
-0.777172 -0.251362 3.00805
-1.88214 -0.767832 2.38699
-1.22947 -1.61556 2.39696
-3.26556 -0.611208 0.322485
-0.88176 -1.16177 2.80689
-2.02325 2.21288 1.27955
-1.35547 -0.596681 2.71282
-0.501221 1.6235 2.60924
-2.86785 -0.496668 1.83125
-2.9471 -0.335318 1.87201
-2.00465 2.22679 1.26497
-2.98509 0.0123434 2.02531
-1.62404 -1.4355 2.20309
-3.36469 0.744518 1.84017
-1.09288 0.392527 2.86597
-0.191169 -0.45635 3.27097
-2.31248 0.793818 2.40101
-0.201827 0.660538 3.12834
-2.01854 1.12587 2.39298
-2.71296 -0.195207 2.13188
-1.54128 -1.30715 2.33827
-3.33289 -0.505361 0.919448
-0.495317 -0.561889 3.11663
-3.05922 0.69667 2.0747
-3.30772 -0.250854 1.49291
-1.71391 1.25094 2.43139
-2.17697 2.02825 1.52408
-3.61862 0.0509677 0.900589
-3.71646 0.826708 1.06221
-2.01052 -1.69103 1.6266
-0.743346 0.958465 2.8457
-1.21489 -0.628437 2.77125
-3.04242 -0.929702 0.89964
-0.602345 1.52745 2.63111
-3.05805 -0.634839 1.44865
-3.04865 -0.902947 0.958344
-1.6142 2.34454 1.35526
-2.66335 1.79096 1.54187
-1.23156 0.223944 2.83468
0.152227 0.457643 3.33314
-1.87016 -0.350419 2.53541
-2.44227 1.37674 2.10436
-2.10477 0.998974 2.41391
-3.22013 1.57747 1.20599
-2.42693 0.360239 2.39902
-0.934506 -0.458098 2.92552
-2.85053 1.24578 1.99391
-2.24911 1.56716 2.04216
-2.62139 0.289711 2.30688
-2.98313 0.0904998 2.05514
-2.05592 -1.27258 1.96369
-1.43769 2.21096 1.6961
-0.763453 1.83283 2.36904
0.656911 0.909666 3.46868
-3.13992 -0.140149 1.81096
-2.51967 0.961824 2.27669
-2.38493 -1.40687 1.467
-3.18188 1.54145 1.38727
-3.66977 0.677131 1.3991
-3.23852 -0.601234 1.07369
-2.95583 -0.921523 1.19423
-3.68687 0.267747 0.962908
-3.23673 -0.210424 1.64304
-1.12497 0.72491 2.79465
-2.15831 -0.815029 2.1912
-1.49765 1.73747 2.18488
-3.23295 1.30246 1.66848
-1.34481 -0.846233 2.64986
-2.68904 -0.879104 1.68106
-1.74344 -1.06587 2.33035
-3.54188 0.575492 1.64296
-0.816288 1.27987 2.69114
-3.57091 1.19025 1.16947
-2.92143 0.358279 2.15461
-2.00954 2.14972 1.428
-1.22763 -0.145771 2.83403
-3.08229 1.53449 1.53867
-3.27913 -0.200008 1.59201
-0.982257 -0.60472 2.88348
-0.893107 -0.72757 2.90428
-3.04056 1.44921 1.69353
-3.56472 0.0125836 1.21291
-3.32307 -0.475652 0.258718
-0.772053 -2.49047 2.32556
-2.92887 0.432776 2.15715
-3.66864 1.00637 1.02158
-0.792042 -1.84249 2.62035
-3.54527 0.593731 1.63953
-1.06123 -1.60225 2.52643
-2.06249 1.89878 1.78638
-0.150964 1.33698 2.89829
-2.75444 -0.38398 2.00738
-1.93377 1.47245 2.2325
-3.17338 -0.727979 0.973748
-2.28262 -1.35823 1.6561
-3.0247 -0.764849 1.31933
-2.98936 -0.789029 1.35108
-3.48799 -0.0474898 1.36224
-1.65751 -1.15667 2.33951
-1.07404 0.237564 2.88792
-2.5536 1.10353 2.20885
-2.54033 -1.30913 1.36182
-1.13823 1.82343 2.24121
-3.06265 1.63846 1.37075
-3.54009 0.121473 1.42838
