ply
format ascii 1.0
comment Created by Open3D
element vertex 250
property double x
property double y
property double z
end_header
-2.31892 -2.44211 0.310907
-1.9412 -2.66422 -1.89899
-2.39212 0.173181 -1.95353
-2.93897 -0.906411 -1.32178
-2.43262 -2.66568 -0.196812
-3.0917 -0.5812 -0.323369
-3.17107 1.05722 0.636981
-3.00875 -0.114003 -0.802519
-2.31359 -2.35119 0.439374
-3.05933 -1.49837 -0.959789
-2.632 -2.12247 -1.80907
-3.0412 -0.549916 -0.841063
-2.94007 -2.23308 -1.03377
-3.05692 -0.901352 -0.00121863
-2.86592 -2.3828 -0.754698
-2.58754 -2.77135 -0.806834
-3.07932 -0.463051 0.0291316
-3.00581 0.994651 -0.499309
-3.08423 -0.0403261 0.19689
-2.44376 -0.16481 -1.95103
-2.49106 -2.40037 -1.81661
-3.00387 0.704285 -0.546261
-3.07863 -1.26466 -0.419942
-3.04672 0.291318 -0.439253
-2.6709 -0.218975 -1.65576
-2.86427 -2.1332 -0.300898
-3.06314 -0.598729 0.118192
-2.30221 -2.89348 -1.42719
-2.74641 0.0256508 -1.46089
-3.01006 -1.49581 -1.21161
-2.22542 -2.44929 0.419704
-2.01745 -2.84289 -1.68268
-2.19699 -2.79655 -0.118024
-2.07237 -2.13288 -2.16936
-1.91424 -2.64782 -1.91977
-3.16773 1.07025 0.554967
-2.47075 0.124483 -1.8643
-1.9948 -2.4055 -2.06971
-2.94758 -1.7843 -0.174732
-2.77243 0.0545036 -1.40208
-2.75955 -0.0255049 -1.45042
-3.08407 -0.304793 -0.360986
-2.71895 -2.36557 -1.58525
-2.6414 -2.74063 -0.950083
-2.47192 -0.485021 -1.97287
-2.5286 -2.73347 -1.45723
-2.48666 0.944345 -1.70251
-2.5496 -2.77064 -1.34114
-3.0981 0.396037 0.134612
-2.87875 -2.25262 -0.525178
-2.29271 -2.05722 -2.08931
-2.73515 -0.458631 -1.61192
-2.62159 1.05041 -1.46643
-2.28513 -2.9435 -0.647056
-2.99735 -0.733434 -1.09659
-2.66986 1.32337 -1.35243
-2.91567 -0.387833 -1.2193
-2.37661 -2.35282 0.352146
-2.77901 -1.38124 -1.70719
-3.08727 -0.513434 -0.435529
-3.07582 -0.428537 -0.541169
-3.0206 0.511334 -0.515673
-2.65348 -0.290132 -1.69964
-2.58229 -2.63396 -0.407154
-2.25608 -2.99922 -0.989157
-2.20372 -2.25471 -2.06455
-2.95155 -1.64947 -1.38531
-3.04653 1.07049 -0.325962
-2.59775 -2.27648 0.107431
-3.09094 -0.997603 -0.4158
-2.96214 -1.74834 -1.34417
-2.52946 0.153128 -1.77963
-2.39228 -2.48174 0.155701
-2.89862 0.136177 -1.08127
-2.77019 0.233965 -1.35487
-3.15651 1.01119 0.496839
-2.61678 1.17039 -1.46214
-2.89161 -2.34518 -1.12433
-2.97046 -2.0457 -1.17474
-3.08037 -0.727569 -0.650976
-3.05262 -0.798723 0.0845944
-2.41335 -1.84289 -2.06171
-2.77841 -2.4753 -0.59622
-3.08935 -0.0150788 0.0416961
-3.04339 -0.449221 -0.784234
-2.40051 -2.9274 -0.97035
-3.08584 0.612873 -0.0784588
-2.43865 -2.36614 0.246681
-2.78767 0.155833 -1.34112
-3.04159 -1.60683 -1.05348
-2.40061 0.237988 -1.9322
-2.98535 0.865671 -0.592443
-2.86213 -2.24031 -0.445374
-2.99789 -1.97511 -1.08551
-2.72078 -2.09872 -1.71356
-2.75748 0.281998 -1.36736
-2.73686 -1.92418 0.233541
-2.36778 -2.65705 -0.0840419
-2.49758 -1.47135 -2.02965
-2.9914 -1.06343 0.227827
-2.91754 -2.2189 -1.22801
-2.63091 -2.65781 -0.574809
-2.83658 -2.40324 -0.657345
-2.62962 -2.07886 0.279156
-2.6166 -2.38814 -1.70383
-3.05197 -1.08122 -0.0766076
-3.08393 -0.755392 -0.16382
-2.6602 1.35434 -1.36956
-3.04213 0.99429 -0.344402
-3.01319 -0.0875933 -0.771476
-2.60515 -0.241818 -1.75901
-2.52676 -1.38667 -2.00359
-2.93399 0.0222677 -1.0186
-2.50092 -2.13891 0.42743
-2.82071 1.22974 -1.03571
-2.97293 -1.68786 -1.32163
-2.9095 0.9125 -0.837782
-2.35573 -2.68119 -0.109349
-2.79787 -2.53719 -0.899694
-2.61262 -2.45299 -1.6643
-3.15387 0.966948 0.539221
-2.51279 -2.1072 -1.92419
-3.05724 -0.582657 -0.764791
-2.74852 -2.48719 -1.41689
-3.12515 0.88004 0.237585
-2.91324 1.2222 -0.794076
-2.46531 -0.433841 -1.97206
-2.63691 -0.630636 -1.7968
-3.09014 -0.570979 -0.404897
-2.64677 0.809187 -1.45757
-2.94525 0.233582 -0.906436
-3.00002 1.17941 -0.516308
-2.8545 -2.2174 -1.43051
-2.44402 1.19351 -1.74328
-2.50271 -0.278341 -1.90104
-2.88219 0.15127 -1.12063
-2.81497 1.0736 -1.06479
-2.97017 -0.106461 -0.949437
-2.26579 -2.42186 -1.95161
-3.12068 0.931581 0.158504
-2.07474 -2.47996 -1.99867
-2.25933 -2.99775 -1.00585
-2.47093 0.71526 -1.75812
-2.93376 -2.25911 -0.943628
-2.88089 -2.2988 -0.622052
-1.99468 -2.45731 -2.03882
-2.99029 -1.47255 -0.0576548
-3.08235 0.374109 -0.124894
-2.33175 -2.22679 -2.00856
-2.89022 -2.00956 -0.228438
-2.5974 1.00934 -1.51431
-2.85456 -1.96569 -0.0801283
-2.68679 0.786559 -1.38707
-2.43057 -2.9099 -1.0472
-2.4324 -2.35419 0.271274
-2.65548 -2.729 -1.05208
-2.99639 0.864564 -0.549868
-2.99769 -0.872852 0.323679
-3.02595 -1.3912 -0.15012
-2.80164 0.94764 -1.11472
-2.37732 -1.79785 -2.09459
-2.70658 -0.914784 -1.75298
-2.03982 -2.44297 -2.03345
-2.8883 -2.3736 -0.967371
-2.73834 -0.0263591 -1.49049
-3.10583 0.951081 0.0269568
-3.13104 0.904984 0.287141
-2.75352 -2.2306 -1.61371
-2.70553 -2.15136 0.0557558
-2.65105 0.15476 -1.5949
-2.65268 -2.20158 -1.75799
-3.09551 0.515408 0.0384489
-2.8856 -0.278874 -1.25832
-2.07811 -2.40589 -2.04187
-1.83022 -2.78606 -1.79829
-2.69331 -2.52597 -1.48168
-2.50819 -2.69087 -1.54932
-3.02842 -1.851 -0.980756
-2.46658 0.679804 -1.76995
-3.08561 -1.25966 -0.537018
-2.60275 0.709208 -1.55303
-3.01291 -0.583049 0.434667
-2.66019 -2.26638 0.00671962
-2.85868 -1.43486 -1.5811
-2.8671 -1.71354 -1.56481
-1.88266 -2.47708 -2.05563
-2.85949 -0.161608 -1.28167
-3.07594 -0.411407 -0.530499
-2.86021 -2.37472 -1.23844
-3.07275 -1.48773 -0.807685
-2.76704 -2.17828 -1.61789
-2.17471 -2.22103 -2.092
-3.07898 -1.30067 -0.806373
-2.43534 -2.90322 -1.11238
-2.91959 0.335776 -0.9534
-1.86792 -2.4467 -2.07851
-2.42493 1.23412 -1.76936
-2.49448 -2.7056 -1.54564
-3.04951 -1.06532 -0.987301
-2.89448 -0.986504 -1.44486
-2.08339 1.49168 -2.22051
-1.97442 1.64192 -2.3622
-1.91189 1.25723 -2.39803
-1.55563 1.79056 -2.83435
-2.29554 0.791865 -1.9828
-2.25999 1.41402 -1.99631
-1.73087 0.836453 -2.55628
-2.20118 1.32586 -2.07096
-1.59069 1.44521 -2.72959
-2.08269 0.958566 -2.21694
-1.88012 0.52157 -2.43163
-1.99639 1.29864 -2.30986
-1.47318 1.34988 -2.81995
-1.51206 1.55488 -2.82175
-1.41501 1.26694 -2.85628
-1.76558 1.63126 -2.58781
-1.88665 0.924968 -2.4167
-1.98119 1.45034 -2.3351
-2.01585 0.660839 -2.30076
-2.31351 0.227216 -2.03626
-1.7387 1.56514 -2.60473
-2.28213 0.225788 -2.07121
-1.91976 0.653848 -2.39161
-1.78131 1.71517 -2.58623
-1.34473 1.00607 -2.8756
-1.63205 1.51152 -2.70113
-1.85865 0.687618 -2.44549
-2.27724 0.688492 -2.01656
-1.40024 1.0054 -2.83348
-1.72366 1.76364 -2.65678
-1.51858 1.23258 -2.76439
-2.34046 0.29054 -1.9958
-1.61342 1.49748 -2.71658
-1.82004 1.55955 -2.52028
-2.27431 0.603303 -2.03006
-1.75744 1.04202 -2.53895
-2.21946 1.52142 -2.05323
-1.60766 1.36091 -2.70197
-2.32509 1.07333 -1.9195
-2.12507 0.693568 -2.18752
-1.61859 0.990547 -2.65748
-2.07854 1.31706 -2.21818
-1.60232 1.07139 -2.6769
-1.44442 1.47885 -2.86793
-2.27985 1.29535 -1.96993
-1.9987 1.16785 -2.30424
-2.07779 1.7215 -2.25048
-1.44615 1.55993 -2.88312
-1.91881 1.16268 -2.38755
-2.21851 0.744833 -2.07969
