ply
format ascii 1.0
comment Created by Open3D
element vertex 250
property double x
property double y
property double z
end_header
2.69641 2.01542 -0.324636
1.18802 3.36851 -1.30928
0.55784 1.03388 -2.86154
1.68809 1.63328 -2.38516
2.55448 2.48248 -0.611685
2.28256 0.8317 -2.02464
2.3696 -1.05892 -2.20065
1.78565 0.691191 -2.45832
2.73836 1.86961 -0.282484
2.1845 1.94377 -1.99387
1.57325 2.90189 -1.95165
1.92991 1.08062 -2.31655
2.2939 2.59548 -1.64342
2.55179 0.926308 -1.6696
2.45276 2.5676 -1.36096
2.34399 2.90748 -1.03872
2.44241 0.542268 -1.8542
1.59844 -0.405068 -2.74854
2.40621 0.0965953 -1.93745
0.708335 1.31988 -2.74988
1.55594 3.13218 -1.74233
1.66461 -0.135529 -2.65111
2.44023 1.45819 -1.78119
1.8948 0.156984 -2.43833
1.06781 1.21931 -2.70116
2.6371 2.1137 -1.19295
2.52746 0.607773 -1.73142
1.8078 3.32785 -1.16896
1.15814 0.912862 -2.73917
1.99887 2.07416 -2.11383
2.69386 1.95793 -0.193031
1.43041 3.40693 -1.15341
2.4699 2.53748 -0.349622
0.951179 3.07358 -1.78839
1.15048 3.3644 -1.31073
2.31452 -1.02603 -2.25349
0.684456 1.03125 -2.83968
1.04209 3.24533 -1.55925
2.65849 1.75679 -1.32235
1.20255 0.858411 -2.73353
1.1908 0.951019 -2.71975
2.16407 0.618803 -2.16069
1.84911 2.99109 -1.77082
2.28925 2.96149 -1.17456
0.821309 1.6027 -2.64474
1.90474 3.22165 -1.40789
0.522572 0.25507 -3.10414
2.00086 3.19174 -1.336
2.23658 -0.236536 -2.17139
2.55479 2.33546 -1.28686
1.1362 2.97894 -1.92064
1.21971 1.40102 -2.61517
0.726519 0.0463704 -3.09783
2.27139 2.95009 -0.665191
1.80715 1.36993 -2.36263
0.739784 -0.241986 -3.17848
1.56114 1.14044 -2.52992
2.73401 1.92126 -0.3768
1.49864 2.23123 -2.30671
2.19096 0.834643 -2.1184
2.09239 0.819281 -2.21085
1.75829 0.0113856 -2.56119
1.05243 1.30183 -2.68543
2.5306 2.57691 -0.852857
2.06661 3.17912 -0.828255
1.14989 3.12703 -1.76123
1.90372 2.2936 -2.11346
1.70578 -0.559778 -2.70379
2.728 2.00048 -0.705898
2.36414 1.23183 -1.90143
1.96822 2.35532 -2.05338
0.768304 0.964874 -2.84032
2.6721 2.13613 -0.450643
1.45798 0.624268 -2.65975
1.16984 0.681865 -2.78045
2.29136 -0.945706 -2.25571
0.686127 -0.057196 -3.14343
2.24154 2.73583 -1.61745
2.17178 2.51511 -1.82925
2.12914 1.13022 -2.15201
2.56551 0.793597 -1.6589
1.17121 2.79028 -2.07696
2.5119 2.55558 -1.16683
2.31024 0.158962 -2.04538
1.93198 0.965451 -2.32689
2.16075 3.11645 -0.944789
2.03081 -0.305318 -2.38469
2.72203 1.9925 -0.476458
1.21648 0.741206 -2.75042
2.15177 2.08443 -1.992
0.555419 0.968335 -2.88215
1.57076 -0.247595 -2.7357
2.58551 2.28133 -1.2328
2.22146 2.40926 -1.8241
1.6873 2.83546 -1.96387
1.13733 0.647445 -2.80003
2.78944 1.64379 -0.874312
2.57024 2.41112 -0.50373
1.13039 2.46489 -2.27349
2.69158 0.936171 -1.41783
2.15814 2.68662 -1.75159
2.47551 2.68967 -0.976509
2.49518 2.53093 -1.27371
2.7879 1.74365 -0.708384
1.71107 3.06817 -1.76391
2.56271 1.11794 -1.63467
2.42801 0.892231 -1.84846
0.712389 -0.259389 -3.19559
1.71667 -0.485969 -2.6793
1.79856 0.652532 -2.45389
0.965911 1.2904 -2.70948
1.13951 2.38121 -2.31368
1.5584 0.688434 -2.59688
2.79997 1.70754 -0.506632
1.06853 -0.325018 -3.0486
1.96963 2.29289 -2.07295
1.35481 -0.159407 -2.85286
2.55434 2.44437 -0.500553
2.36772 2.77172 -1.33654
1.75271 3.10132 -1.70957
2.3289 -0.931368 -2.20939
1.41239 2.94435 -1.94752
1.99744 1.06809 -2.26727
2.01008 3.00467 -1.63695
2.15844 -0.697794 -2.33489
1.28173 -0.443378 -2.96174
0.800114 1.55882 -2.66174
1.09466 1.63974 -2.58698
2.23 0.866791 -2.07717
0.829471 0.246056 -3.00602
1.56349 0.45093 -2.62733
1.52353 -0.551784 -2.83409
1.99176 2.79066 -1.83206
0.385307 0.0648886 -3.20688
0.818561 1.39183 -2.71068
1.4177 0.631802 -2.67893
1.09838 -0.178278 -2.99537
1.66811 0.761633 -2.52429
1.31712 3.21047 -1.66314
2.09163 -0.698959 -2.40171
1.1674 3.27422 -1.5382
2.05868 3.18702 -0.841142
0.553343 0.476919 -3.02893
2.35091 2.56864 -1.57361
2.51443 2.42647 -1.32697
1.07721 3.27234 -1.51832
2.65674 1.43382 -1.41403
2.0792 -0.0795789 -2.30803
1.26825 3.08045 -1.82548
2.65839 1.97212 -1.21965
0.69392 0.105333 -3.09286
2.70509 1.8536 -1.12497
0.90799 0.229427 -2.98067
2.13191 3.14462 -1.01888
2.72798 1.96889 -0.462534
2.23572 3.00724 -1.25058
1.60437 -0.268924 -2.71696
2.69019 0.724609 -1.4459
2.60188 1.41694 -1.52868
1.10044 -0.0461561 -2.96255
1.11046 2.76805 -2.09189
1.26514 1.85921 -2.48558
1.10899 3.25985 -1.55157
2.34092 2.67528 -1.50831
1.15181 0.972097 -2.72931
1.99674 -0.645542 -2.47948
2.18381 -0.745083 -2.31963
1.81358 2.89464 -1.86909
2.73606 1.92879 -0.86318
0.966403 0.870933 -2.81127
1.64458 2.94219 -1.90081
2.13883 -0.285524 -2.27886
1.4802 1.06803 -2.57995
1.12013 3.23526 -1.59828
1.20541 3.41094 -1.12166
1.94385 3.0691 -1.62232
1.82142 3.23413 -1.46801
2.26502 2.2502 -1.83459
0.554791 0.512885 -3.01795
2.37474 1.51723 -1.85868
0.773515 0.379073 -2.99118
2.67175 0.42188 -1.51336
2.71142 2.04948 -0.812988
1.64936 2.21301 -2.26118
1.75661 2.43932 -2.13757
0.991086 3.2919 -1.44467
1.40869 0.980427 -2.62676
2.09314 0.799137 -2.21183
2.1608 2.82026 -1.65255
2.28056 1.85387 -1.91565
1.80393 2.85358 -1.90313
1.10125 3.11183 -1.77273
2.22456 1.69604 -1.99922
2.09482 3.17426 -1.06429
1.48333 0.388722 -2.68222
0.956753 3.27781 -1.4616
0.342521 0.0436671 -3.22719
1.8183 3.24381 -1.45025
2.01896 1.59347 -2.18949
1.60898 1.76437 -2.3952
-0.260013 0.0504783 -3.38026
-0.473255 -0.00585513 -3.45691
-0.414318 0.333806 -3.2716
-1.10946 0.0997064 -3.52403
0.26631 0.523516 -3.07946
0.0279812 0.00509525 -3.33038
-0.503177 0.76312 -3.06506
-0.0305043 0.11619 -3.29811
-0.908533 0.336086 -3.33635
-0.083511 0.497299 -3.14912
-0.216213 0.969397 -2.9552
-0.313558 0.256209 -3.29295
-1.01726 0.458436 -3.27102
-1.05688 0.288954 -3.38611
-1.0544 0.544591 -3.21829
-0.7569 0.11287 -3.4481
-0.334946 0.622158 -3.12349
-0.389427 0.141237 -3.36298
-0.0845725 0.789292 -3.02716
0.433329 1.02853 -2.88178
-0.765019 0.176153 -3.4119
0.390031 1.04679 -2.88117
-0.206768 0.838721 -3.0144
-0.771886 0.0422466 -3.49369
-1.03209 0.770732 -3.07088
-0.882978 0.267233 -3.3754
-0.294716 0.835892 -3.02031
0.266821 0.627666 -3.04323
-0.966059 0.751707 -3.08249
-0.871926 0.0361881 -3.51829
-0.912509 0.529827 -3.21773
0.456292 0.954968 -2.90263
-0.901228 0.286334 -3.36618
-0.65336 0.139949 -3.41322
0.284649 0.706466 -3.01288
-0.540782 0.582212 -3.16058
-0.0707249 -0.0569565 -3.38353
-0.852062 0.393135 -3.29496
0.233084 0.254196 -3.18176
0.0520547 0.706891 -3.04627
-0.696265 0.68162 -3.11671
-0.204928 0.19596 -3.30075
-0.746243 0.623107 -3.15214
-1.10908 0.374061 -3.33592
0.0971201 0.0919074 -3.27695
-0.265631 0.363418 -3.23506
-0.357206 -0.127197 -3.49309
-1.14336 0.314063 -3.381
-0.372018 0.40815 -3.22941
0.167769 0.610932 -3.06599
