ply
format ascii 1.0
comment Created by Open3D
element vertex 400
property double x
property double y
property double z
end_header
-2.49048 -1.85996 -0.213546
-1.51865 -2.74587 -0.185867
-1.6248 -2.6737 -0.61567
-2.24002 -1.95044 -0.936588
-1.43101 -2.84201 -0.459949
-2.93627 -1.60153 1.01309
-1.48871 -2.78896 -0.419012
-2.12038 -2.25092 0.558809
-1.81345 -2.4412 0.622914
-2.58655 -1.86338 0.261775
-2.65876 -1.83244 1.00874
-2.37649 -1.9752 -0.256446
-0.996418 -3.17546 -0.265804
-1.92952 -2.37973 -0.590889
-1.41321 -2.8591 -0.478011
-1.45344 -2.83714 -0.677436
-2.28541 -1.9102 -0.872381
-2.77047 -1.50006 -0.213028
-1.60983 -2.67811 -0.270645
-1.21286 -2.91639 0.160582
-2.52162 -1.82918 -0.195968
-2.37624 -1.99794 1.1617
-1.89226 -2.42806 -0.455416
-2.19517 -2.16828 0.847434
-2.17664 -2.21845 0.423212
-2.20401 -2.15127 -0.26101
-1.39507 -2.81415 0.0216222
-1.65429 -2.63731 -0.179064
-2.0452 -2.16622 1.22452
-1.86865 -2.43367 0.429294
-2.25878 -2.11852 -0.123933
-2.01392 -2.15669 -1.30577
-2.13421 -2.21708 0.77819
-2.26551 -2.01514 -0.601975
-2.84131 -1.36437 -0.259261
-2.75995 -1.74644 0.629695
-1.64073 -2.54065 0.645021
-1.7187 -2.55948 0.213585
-2.39741 -2.02841 0.907317
-3.00406 -1.53548 0.986556
-2.3282 -2.06808 0.949224
-1.64291 -2.65644 -0.520313
-1.52585 -2.75908 -0.457505
-2.48065 -1.84839 -0.294471
-3.16056 -1.16126 0.363248
-2.5808 -1.90583 0.709972
-2.03536 -2.32066 -0.131416
-1.62011 -2.67823 -0.678232
-2.55294 -1.87223 0.124333
-2.61598 -1.82492 1.25728
-1.59221 -2.60511 0.473748
-2.10471 -2.2594 -0.13335
-2.23169 -2.16269 0.044408
-2.39387 -1.92432 -0.382792
-1.87939 -2.38448 -0.991093
-1.79839 -2.48155 -0.944447
-2.01111 -2.2359 -0.952404
-3.06041 -1.47846 1.17636
-2.57642 -1.77597 -0.159251
-2.67503 -1.80297 0.428174
-2.98462 -1.40978 0.289941
-2.06922 -2.11777 -1.15389
-2.42086 -2.00285 0.140013
-2.3508 -1.98672 -0.327088
-2.7725 -1.72242 0.531976
-2.02913 -2.23367 -0.853102
-2.39911 -2.02067 0.957604
-2.93306 -1.41236 0.118689
-2.22672 -2.1443 0.873917
-2.88708 -1.45544 0.0641603
-2.14001 -2.22985 -0.110459
-2.96176 -1.57203 1.16936
-1.57233 -2.66597 0.17754
-1.53999 -2.62077 0.553549
-2.94252 -1.57366 0.711092
-1.92584 -2.35089 -0.853198
-2.76066 -1.66792 1.48888
-2.53683 -1.83289 1.41872
-2.0413 -2.31091 0.489586
-1.72011 -2.50509 0.585642
-2.87662 -1.65311 0.844079
-1.92773 -2.40617 0.273484
-2.5412 -1.76687 -0.320764
-2.53991 -1.93744 0.753706
-3.1173 -1.41181 1.30249
-2.32409 -2.09967 0.686747
-1.32467 -2.9383 -0.493997
-1.42651 -2.77733 0.112971
-2.49631 -1.75311 1.68436
-1.79079 -2.51838 -0.548799
-2.43933 -2.01494 0.462036
-1.11068 -3.04378 -0.0832875
-1.49827 -2.65312 0.521355
-2.87482 -1.54432 0.255634
-1.44495 -2.81999 -0.344343
-1.65782 -2.48793 0.82334
-2.73663 -1.60615 -0.0729959
-1.9674 -2.18016 -1.49959
-2.83509 -1.65079 0.489947
-2.79426 -1.69035 0.470745
-3.01037 -1.52917 0.988311
-2.23569 -2.17444 0.346378
-2.88374 -1.49912 0.160286
-2.74056 -1.7355 1.27253
-3.09464 -1.29808 0.415282
-2.8674 -1.33878 -0.226832
-2.23886 -2.1721 0.361
-1.8044 -2.40456 0.828781
-3.06779 -1.11557 0.00867056
-1.62373 -2.57711 0.517859
-1.86499 -2.43299 0.455991
-3.17377 -1.2059 0.496859
-2.75232 -1.76396 0.80028
-1.88575 -2.44487 -0.250824
-2.71234 -1.51012 -0.373619
-3.28329 -1.00219 0.512985
-1.58693 -2.61949 0.413805
-2.90853 -1.62011 0.812035
-2.35276 -2.08265 0.613112
-1.99676 -2.35072 -0.191629
-1.45835 -2.76454 0.0475835
-1.96466 -2.2031 -1.40916
-2.65445 -1.73716 0.0183829
-2.75953 -1.6064 0.00860472
-2.46604 -1.95021 0.0770895
-2.39311 -2.05049 0.675886
-1.81201 -2.44204 0.62315
-2.95513 -1.57439 1.20933
-2.08059 -2.10703 -1.13607
-2.74502 -1.7352 0.437711
-2.29136 -2.11451 0.777591
-1.54846 -2.69439 0.087968
-2.87871 -1.48033 0.0951109
-3.2359 -0.924725 0.259819
-2.13121 -2.21759 0.787684
-2.84239 -1.48745 -0.00966317
-2.50625 -1.7838 1.60293
-2.83005 -1.67637 1.22415
-2.37927 -1.83696 -0.719038
-3.14831 -1.2065 0.40736
-3.19208 -1.32275 0.988068
-2.21274 -2.07435 1.2318
-2.71402 -1.5211 -0.34582
-2.81812 -1.69724 1.13112
-3.21917 -1.08755 0.431302
-1.30449 -2.85819 0.136736
-1.78012 -2.51465 -0.783463
-1.10154 -3.05104 -0.0847958
-2.15783 -1.99259 -1.16545
-2.79389 -1.72624 0.778464
-2.86641 -1.57831 0.333621
-2.34307 -1.9674 -0.440102
-2.61267 -1.69747 -0.260625
-2.21541 -2.06399 1.262
-1.74941 -2.4204 0.888448
-2.00712 -2.18465 -1.22299
-1.73359 -2.57416 -0.46949
-3.2584 -1.21785 0.91768
-2.27486 -2.02304 1.28961
-1.94445 -2.40096 0.00393495
-2.1882 -2.10875 -0.580007
-2.12447 -2.0554 1.42464
-2.45202 -2.00151 0.787536
-2.12726 -2.23811 -0.144427
-2.69765 -1.59952 -0.222447
-1.24899 -3.00101 -0.467877
-1.8758 -2.43972 -0.509991
-2.76881 -1.65153 1.52316
-2.74022 -1.43696 -0.429425
-1.85049 -2.36576 -1.37696
-1.81982 -2.48966 -0.566217
-2.80108 -1.59076 0.115438
-1.73674 -2.56257 -0.722384
-2.14749 -2.10746 1.23974
-1.72947 -2.56219 -0.866277
-1.58729 -2.71051 -0.823401
-3.19701 -1.30509 0.917289
-2.84214 -1.68672 0.897358
-2.45492 -1.92237 1.2774
-2.52856 -1.92542 1.01528
-1.29177 -2.94959 -0.361088
-1.82027 -2.48675 -0.604713
-1.63744 -2.65859 -0.366594
-1.81322 -2.48417 -0.73548
-2.88233 -1.33585 -0.187931
-2.43666 -2.00404 0.886115
-1.8054 -2.51353 -0.288582
-3.21243 -1.15772 0.537684
-2.62154 -1.56467 -0.54547
-1.35447 -2.85128 -0.0259034
-1.81777 -2.44442 -1.08711
-1.4022 -2.84914 -0.284797
-2.71713 -1.71352 1.43432
-2.77196 -1.74501 0.993764
-2.27203 -2.05076 -0.423129
-2.02099 -2.1136 -1.44446
-1.7473 -2.48173 0.621827
-1.52799 -2.75826 -0.477915
-1.4727 -2.7358 0.171751
-3.21967 -0.968794 0.263053
-2.30487 -2.12093 0.395339
-3.05911 -1.47993 1.01779
-2.80421 -1.67133 0.426578
-1.25717 -2.90786 0.0531828
-3.11714 -1.22093 0.329821
-2.37399 -1.97241 1.26986
-2.23131 -2.05105 -0.61775
-1.91673 -2.28467 -1.32903
-2.65868 -1.50526 -0.548332
-1.95602 -2.38754 -0.163363
-3.08882 -1.44594 1.24379
-2.04776 -2.30576 -0.188312
-1.85692 -2.35052 -1.42221
-1.647 -2.6512 -0.40313
-2.42976 -1.96437 1.16498
-2.58087 -1.61381 -0.570992
-2.05356 -2.30251 -0.163318
-2.22976 -2.16202 0.718826
-2.89273 -1.63844 0.855733
-1.46393 -2.82855 -0.70207
-1.95081 -2.32836 0.786678
-2.7191 -1.69528 1.49093
-2.19725 -2.06714 -0.714387
-1.45793 -2.78301 -0.0913214
-2.66637 -1.60569 -0.31123
-2.50912 -1.62411 -0.782341
-1.86937 -2.40513 0.632273
-2.2643 -1.94563 -0.8495
-2.79239 -1.61393 0.153285
-2.44687 -1.77806 -0.631411
-2.52401 -1.86916 1.31944
-2.25788 -1.90021 -1.01418
-1.74028 -2.50085 0.539714
-1.38316 -2.88948 -0.520606
-3.09651 -1.43351 1.29545
-2.28953 -2.08521 -0.14822
-2.45336 -1.94896 1.16804
-2.80072 -1.53424 -0.0370616
-2.44471 -1.83918 -0.464721
-3.13172 -1.09203 0.162712
-2.11471 -2.01799 -1.28809
-2.85497 -1.39809 -0.156984
-2.28299 -2.06695 -0.288666
-2.80306 -1.47012 -0.173692
-1.91742 -2.40445 0.391872
-2.70558 -1.46912 -0.474146
-2.74724 -1.74896 0.544893
-2.19201 -2.07051 -0.725839
-2.39338 -2.04943 0.388462
-2.55082 -1.87621 1.21779
-1.88161 -2.38044 -1.00175
-2.39426 -1.74912 -0.893004
-2.51082 -1.96093 0.598096
-2.53263 -1.66434 -0.616131
-2.18485 -1.94165 -1.2035
-2.55212 -1.91095 0.372471
-2.31074 -2.11275 0.291483
-2.14633 -2.08557 -0.887222
-1.30719 -2.93903 -0.37859
-2.64068 -1.76459 0.0615643
-2.04904 -2.27312 -0.480897
-2.37058 -2.05114 0.868242
-1.45183 -2.75228 0.1589
-2.75705 -1.73021 0.481331
-1.77788 -2.5241 0.132696
-3.0569 -1.12576 -0.00848374
-1.87732 -2.42094 -0.705207
-3.15933 -1.23116 0.499292
-2.29197 -2.0979 0.905916
-2.70617 -1.60585 -0.178263
-2.53927 -1.93872 0.643318
-3.07884 -1.24478 0.249582
-2.21557 -1.91416 -1.1511
-3.29191 -0.861498 0.360988
-1.84571 -2.47263 -0.436475
-2.02383 -2.27837 -0.624872
-3.2478 -1.26261 1.10431
-2.60467 -1.80582 0.0680755
-2.65725 -1.84194 0.881815
-2.83638 -1.59286 0.259074
-2.26241 -2.118 0.897911
-2.3398 -1.89753 1.54562
-1.62643 -2.65469 -0.102232
-3.07734 -1.45307 1.28924
-2.31384 -2.00575 -0.41866
-2.46934 -1.98042 0.327726
-2.46626 -1.7566 -0.618612
-2.82597 -1.65921 0.48302
-2.6922 -1.75579 0.26005
-1.19137 -2.98686 -0.103743
-2.17476 -2.22144 0.321027
-1.98098 -2.36349 0.347448
-2.03446 -2.29584 -0.415414
-1.67729 -2.62367 -0.637346
-1.63276 -2.64278 -0.0107722
-2.79412 -1.66885 1.40068
-1.55821 -2.58982 0.641725
-2.27122 -1.91709 -0.909434
-2.41087 -1.91456 -0.346807
-3.15809 -1.32879 0.781609
-1.38914 -2.83902 -0.119425
-1.69742 -2.606 -0.307718
-3.13456 -1.37517 0.855493
-2.69783 -1.67633 -0.0124303
-3.27546 -1.08337 0.625686
-2.43083 -1.93658 -0.170419
-2.82129 -1.63038 0.330684
-1.18093 -2.98853 -0.0722359
-2.79895 -1.71557 0.692421
-2.60187 -1.82925 0.160082
-3.2026 -1.14541 0.477691
-1.6292 -2.66787 -0.453577
-2.92493 -1.60427 0.817455
-2.54529 -1.80293 1.49435
-2.37112 -2.04674 0.901589
-2.13937 -2.20446 -0.330407
-1.96213 -2.25449 1.07588
-2.29455 -1.89255 -0.887998
-3.14649 -1.06999 0.175848
-2.33487 -1.90847 -0.678487
-2.08305 -2.23271 -0.5201
-2.30656 -1.88586 -0.859741
-2.36948 -2.05292 0.859112
-1.90353 -2.26097 -1.56887
-1.7485 -2.49274 0.557099
-2.00316 -2.33774 -0.2923
-1.49539 -2.74096 0.0229845
-2.29207 -2.00725 1.31028
-2.59157 -1.6972 -0.335379
-1.75545 -2.54642 0.0458531
-1.99559 -2.26185 -0.911951
-2.85295 -1.67716 0.974294
-1.84896 -2.36587 -1.39055
-2.91552 -1.28972 -0.168392
-2.38668 -1.92445 1.40495
-3.10317 -1.38718 0.721324
-3.16107 -1.10125 0.265681
-3.1272 -1.30562 0.559764
-3.16893 -1.35501 1.01554
-1.68886 -2.61288 -0.289584
-2.2457 -2.0583 -0.518451
-1.53666 -2.6356 0.493654
-1.76516 -2.5089 -1.05438
-2.6126 -1.87518 0.905739
-2.29345 -2.12855 0.548923
-1.85792 -2.468 -0.284791
-2.00129 -2.35473 -0.00748068
-1.36765 -2.88847 -0.380877
-2.29391 -2.04258 -0.35213
-0.970144 -3.17897 -0.193098
-2.22949 -2.00173 1.42565
-1.77301 -2.49204 0.46394
-3.05705 -1.48363 1.07363
-1.69607 -2.59711 -0.872023
-2.16654 -2.1878 -0.260503
-3.07096 -1.21308 0.167607
-2.23763 -2.1263 0.942327
-2.57298 -1.85078 1.26814
-2.5386 -1.88688 1.20476
-2.08131 -2.27761 0.558098
-1.81793 -2.36612 0.952164
-2.98903 -1.52314 1.36463
-2.07272 -2.19244 -0.80573
-2.95405 -1.32316 0.00435974
-2.88439 -1.57551 1.50082
-2.30095 -1.8406 -1.00841
-3.01817 -1.32679 0.214569
-2.0595 -2.29167 -0.229802
-2.00833 -2.24018 -0.94747
-1.20668 -3.01973 -0.355453
-2.68249 -1.758 1.35446
-2.97383 -1.51864 0.601408
-2.26568 -1.94545 -0.84429
-2.90593 -1.54109 0.370909
-2.50082 -1.92204 1.1514
-2.78068 -1.56596 -0.0256965
-2.1736 -2.197 -0.133299
-1.53249 -2.69584 0.161946
-1.74812 -2.53523 -0.966994
-2.14575 -2.23689 0.0475216
-2.17719 -1.98318 1.53709
-2.30426 -2.10764 0.139105
-2.98872 -1.48155 0.522865
-1.9794 -2.17752 -1.43041
-1.55157 -2.74628 -0.799421
-1.52137 -2.76573 -0.50979
-1.82754 -2.46753 -0.757464
-2.26087 -2.08057 -0.336876
-2.58148 -1.80712 1.41366
-1.50457 -2.78877 -0.679415
-2.55543 -1.67687 -0.510269
-1.97439 -2.27305 -0.988916
-1.84369 -2.46029 -0.649138
-1.27226 -2.95396 -0.280397
-1.92155 -2.41912 0.0280892
-1.86793 -2.40676 0.627754
-2.54518 -1.64315 -0.622635
-2.15013 -2.22839 -0.0225251
-2.48172 -1.93008 0.0512926
-2.3019 -2.04108 -0.319023
