ply
format ascii 1.0
comment Created by Open3D
element vertex 250
property double x
property double y
property double z
end_header
-0.228214 -3.22684 0.986595
0.634696 -3.5977 -1.0612
-1.50038 -1.88642 -1.93875
-1.34404 -2.88924 -1.02573
-0.0689603 -3.56914 0.564511
-1.86405 -2.54928 -0.165537
-3.15991 -1.23148 0.278463
-2.00504 -2.26135 -0.758794
-0.307858 -3.13139 1.08326
-1.12794 -3.31583 -0.508766
-0.242674 -3.65407 -1.13749
-1.74333 -2.60212 -0.669689
-0.555666 -3.77581 -0.36584
-1.69808 -2.68666 0.235794
-0.460581 -3.77435 -0.0547911
0.00478714 -3.87641 0.010039
-2.00047 -2.38257 0.137722
-2.77071 -1.40469 -0.789665
-2.30729 -2.04899 0.175813
-1.32361 -2.16154 -1.83887
0.0409759 -3.7597 -1.06311
-2.57462 -1.62042 -0.750489
-1.39897 -3.04844 -0.0599161
-2.36429 -1.92115 -0.528801
-1.5168 -2.28989 -1.54237
-0.709039 -3.49971 0.307265
-1.9196 -2.44981 0.262386
0.418515 -3.90332 -0.546089
-1.76788 -2.12486 -1.42731
-1.04275 -3.33404 -0.75014
-0.175768 -3.14657 1.09354
0.648914 -3.73063 -0.80303
0.174095 -3.48843 0.679681
0.251954 -3.36321 -1.4749
0.648428 -3.57235 -1.08563
-3.14941 -1.23721 0.196218
-1.54556 -1.95496 -1.83987
0.463759 -3.48488 -1.29996
-1.01876 -3.27996 0.326313
-1.81736 -2.1093 -1.37958
-1.74709 -2.16793 -1.40257
-2.02727 -2.35491 -0.281536
-0.196805 -3.83854 -0.853555
-0.0263357 -3.92064 -0.136388
-1.13587 -2.41339 -1.76726
0.154019 -3.94682 -0.622965
-2.1128 -1.34668 -1.92259
0.138997 -3.96295 -0.501253
-2.58365 -1.76007 -0.0102865
-0.598922 -3.64177 0.127078
0.0238584 -3.43968 -1.42193
-1.42039 -2.49459 -1.4315
-2.32787 -1.31154 -1.72842
0.307711 -3.76347 0.215207
-1.5427 -2.75748 -0.860753
-2.56065 -1.1251 -1.69875
-1.67804 -2.48215 -1.07766
-0.336309 -3.19303 0.999751
-0.845299 -3.20212 -1.25582
-1.88166 -2.52158 -0.292478
-1.90628 -2.47558 -0.418086
-2.47003 -1.76281 -0.665461
-1.44969 -2.33824 -1.56363
-0.158607 -3.69081 0.352824
0.433025 -3.85577 -0.0958535
0.211128 -3.51587 -1.34034
-0.866579 -3.4411 -0.871422
-2.88392 -1.34134 -0.646039
-0.500739 -3.33787 0.741679
-1.57937 -2.86528 -0.133395
-0.819565 -3.51006 -0.803498
-1.62437 -1.95595 -1.76759
-0.226561 -3.3368 0.848948
-2.02724 -2.06789 -1.09718
-1.93962 -1.96984 -1.38635
-3.09179 -1.28407 0.157779
-2.4017 -1.22182 -1.75903
-0.430049 -3.84244 -0.419662
-0.66975 -3.6921 -0.555276
-1.69696 -2.71505 -0.43661
-1.77747 -2.59252 0.288236
-0.208128 -3.36162 -1.45855
-0.368046 -3.7485 0.124369
-2.29629 -2.06705 0.019923
-1.82053 -2.51979 -0.644478
0.276035 -3.89712 -0.0997932
-2.67045 -1.64201 -0.276923
-0.352942 -3.26619 0.902178
-1.9055 -2.03438 -1.3507
-1.02687 -3.40106 -0.566887
-1.5523 -1.84138 -1.93717
-2.65463 -1.50262 -0.841286
-0.610316 -3.60509 0.200024
-0.75298 -3.64131 -0.490536
-0.342885 -3.67639 -1.05366
-1.95832 -1.9297 -1.41212
-0.854126 -3.153 0.759249
-0.0487118 -3.49593 0.670456
-0.514247 -3.14612 -1.53613
-1.59155 -2.7103 0.502476
-0.509264 -3.79149 -0.555682
-0.146144 -3.7756 0.198886
-0.445107 -3.74883 0.0445373
-0.684757 -3.18207 0.848551
-0.0826639 -3.81117 -0.959701
-1.5646 -2.82753 0.215773
-1.77891 -2.6348 0.0376809
-2.56981 -1.10014 -1.72404
-2.82835 -1.39664 -0.641583
-2.03137 -2.23894 -0.736767
-1.43275 -2.28396 -1.63406
-0.595172 -3.09974 -1.53595
-1.99335 -2.15962 -1.00448
-0.580267 -3.10769 1.00887
-2.67619 -1.2261 -1.36968
-0.870665 -3.46938 -0.799526
-2.57922 -1.47012 -1.08907
-0.0193018 -3.51041 0.653319
-0.28256 -3.8695 -0.148315
-0.0461923 -3.84645 -0.903052
-3.07004 -1.30495 0.211176
-0.140824 -3.58771 -1.25115
-1.74956 -2.62015 -0.587332
-0.174731 -3.90965 -0.657414
-2.93313 -1.41121 -0.0521239
-2.78834 -1.2425 -1.13696
-1.16377 -2.37229 -1.78125
-1.20074 -2.59052 -1.55786
-1.85317 -2.5581 -0.246516
-2.19443 -1.4986 -1.65028
-2.15891 -1.9928 -0.958424
-2.88091 -1.27259 -0.859399
-0.422993 -3.79088 -0.749429
-2.23196 -1.14899 -2.03345
-1.30496 -2.27142 -1.75861
-2.01681 -2.05442 -1.13909
-2.5665 -1.33976 -1.35225
-1.95189 -2.26109 -0.901291
0.249128 -3.65285 -1.18432
-2.94694 -1.38809 -0.142705
0.437668 -3.57649 -1.21103
0.432997 -3.8604 -0.112282
-1.94383 -1.51128 -1.90934
-0.552321 -3.77119 -0.271976
-0.551743 -3.69652 0.0477184
0.490745 -3.51526 -1.25538
-1.27278 -3.06148 0.34774
-2.50624 -1.81977 -0.252186
0.0869365 -3.56976 -1.29584
-0.821666 -3.41361 0.340603
-2.27413 -1.33474 -1.76216
-0.852692 -3.32728 0.470125
-2.22379 -1.52665 -1.57656
0.257821 -3.9209 -0.178647
-0.360818 -3.24831 0.922304
-0.0239099 -3.94321 -0.237491
-2.67062 -1.50183 -0.800303
-1.73694 -2.55839 0.538968
-1.3328 -3.04674 0.235399
-2.46625 -1.43121 -1.36346
-0.203525 -3.31233 -1.50278
-1.07996 -2.83058 -1.43418
0.44696 -3.53407 -1.25475
-0.44073 -3.82748 -0.261185
-1.7228 -2.1628 -1.44051
-2.92214 -1.39192 -0.274141
-2.9633 -1.38692 -0.0119649
-0.30297 -3.77134 -0.920149
-0.650445 -3.33153 0.655131
-1.75264 -1.9972 -1.59221
-0.217745 -3.71359 -1.06585
-2.63874 -1.69341 -0.136877
-1.71743 -2.39253 -1.14632
0.3965 -3.53499 -1.27385
0.774923 -3.58926 -0.928658
-0.0960149 -3.91404 -0.707759
0.160364 -3.92216 -0.723287
-0.875745 -3.55114 -0.426457
-1.91562 -1.53616 -1.91037
-1.38403 -3.07416 -0.173473
-2.07887 -1.56057 -1.71233
-1.9553 -2.33847 0.561141
-0.533552 -3.39359 0.641871
-0.895452 -3.2671 -1.12024
-0.727131 -3.46812 -1.024
0.590027 -3.45802 -1.26486
-1.76819 -2.29633 -1.20243
-1.91942 -2.46119 -0.412836
-0.365116 -3.86653 -0.520076
-1.175 -3.28521 -0.366373
-0.345579 -3.74393 -0.939415
0.216679 -3.47823 -1.37614
-1.29926 -3.15565 -0.419344
0.262998 -3.93303 -0.243013
-2.19567 -1.91262 -1.03277
0.586158 -3.43131 -1.29545
-2.23847 -1.11275 -2.07002
0.179232 -3.92273 -0.715388
-1.39149 -3.00612 -0.660445
-1.23532 -2.94252 -1.11998
-2.05894 -0.795618 -2.57372
-2.04554 -0.645406 -2.75199
-1.74642 -0.885581 -2.67437
-1.73487 -0.35876 -3.24363
-1.81752 -1.38667 -2.1452
-2.18539 -0.921904 -2.33803
-1.31176 -1.09805 -2.70254
-2.07053 -0.961195 -2.38349
-1.56143 -0.606525 -3.04362
-1.71894 -1.17472 -2.41589
-1.24666 -1.39622 -2.49321
-1.85326 -0.893974 -2.60264
-1.39521 -0.61499 -3.10157
-1.55458 -0.495111 -3.16297
-1.29179 -0.642922 -3.11186
-1.83847 -0.560872 -2.96318
-1.51191 -1.10967 -2.59581
-1.93372 -0.780905 -2.67061
-1.46255 -1.36007 -2.40936
-1.45992 -1.81274 -2.03296
-1.77291 -0.593637 -2.96001
-1.42871 -1.80013 -2.06575
-1.36852 -1.31993 -2.49353
-1.90403 -0.511196 -2.9861
-1.0692 -0.786105 -3.05424
-1.64018 -0.580878 -3.03591
-1.33389 -1.26633 -2.5544
-1.73122 -1.45528 -2.14742
-1.11845 -0.814829 -3.01417
-1.87803 -0.452929 -3.06721
-1.36519 -0.717334 -3.01478
-1.52843 -1.77707 -2.01279
-1.61429 -0.581692 -3.04648
-1.84667 -0.634235 -2.87821
-1.67199 -1.51693 -2.13564
-1.46616 -0.965514 -2.74569
-2.21244 -0.830172 -2.42331
-1.52577 -0.672195 -2.9929
-2.03171 -1.1923 -2.16636
-1.58722 -1.3859 -2.31132
-1.30642 -0.934356 -2.84315
-1.94437 -0.91646 -2.52088
-1.34204 -0.869894 -2.88501
-1.44657 -0.513853 -3.18461
-2.12969 -1.01428 -2.27857
-1.77264 -0.98764 -2.5594
-2.19546 -0.634231 -2.66892
-1.49656 -0.460362 -3.22265
-1.69332 -0.955451 -2.63701
-1.71091 -1.38911 -2.2237
