ply
format ascii 1.0
comment Created by Open3D
element vertex 200
property double x
property double y
property double z
end_header
0.580612 -1.70197 2.514
0.782357 -2.69745 -1.44272
-0.718016 -3.37721 -0.525082
2.79023 -1.4313 0.395349
2.59741 -1.55425 -1.019
1.79934 -2.23366 -1.15484
2.5828 -1.39983 1.10967
3.09277 -0.759967 1.33168
1.76182 -2.52109 0.964486
1.00767 -3.38464 -0.29562
-0.0985464 -3.94917 0.371058
0.532055 -1.65822 2.55224
2.89356 -1.38065 -0.205209
3.14255 -1.00395 0.589931
-0.00181819 -3.80745 -0.170021
-0.0456993 -3.81004 0.971334
2.86072 -1.37425 -0.70452
2.24294 -2.13221 -0.114803
2.11503 -2.27715 0.367869
3.21863 -0.975398 0.41164
2.50373 -1.43367 -1.59264
0.0810192 -3.04319 1.73808
1.04938 -1.80023 2.28988
1.8765 -2.56699 -0.157582
-0.423002 -3.74619 -0.0768159
2.37013 -1.8579 0.689847
1.28507 -2.13522 -1.83448
0.64392 -3.37458 1.32043
1.44367 -2.49738 1.47423
0.644284 -3.02748 1.6244
0.17584 -3.7335 -0.30648
1.5163 -2.09264 -1.70492
2.07534 -2.34831 0.172695
2.08604 -1.54717 1.69023
2.27423 -1.89339 0.892367
0.345338 -3.13501 -1.09072
0.159695 -3.89907 0.0572852
0.275198 -3.39106 1.44632
-0.134822 -3.52172 -0.621076
-0.558267 -3.10384 -1.02463
2.58337 -1.69529 -0.467083
1.01694 -2.66532 1.69698
1.36731 -2.36082 1.67279
0.171258 -3.10003 1.69259
2.21389 -1.9199 -1.01646
3.18727 -0.813199 1.02063
0.0802355 -3.70207 -0.368644
2.75146 -1.27114 0.984778
0.459682 -1.64459 2.57482
-0.449453 -3.57402 -0.408324
0.294817 -2.48981 2.08325
0.800957 -3.13258 1.45221
1.51195 -2.9214 -0.326825
0.636637 -2.78961 -1.39937
1.82527 -1.76492 -1.9009
-0.911424 -3.03348 -0.887497
1.82635 -2.541 -0.456814
0.721941 -3.74075 0.625954
1.10561 -2.58466 -1.38527
0.920708 -2.74168 -1.31408
0.688119 -3.69814 -0.0449803
0.301361 -2.2056 2.25618
1.85173 -1.72138 1.77579
0.738793 -3.75395 0.426442
2.05546 -1.94644 1.25867
2.37555 -1.77232 0.87578
3.01589 -1.09315 0.715591
0.426021 -3.06255 -1.15507
0.798216 -3.65173 0.00848819
2.67844 -1.35632 0.979507
0.610567 -2.84996 -1.33981
0.496761 -3.8412 0.126011
0.057926 -3.29406 -0.935377
1.08792 -2.71544 -1.23132
2.27711 -2.07083 -0.283925
0.970409 -3.56477 0.154281
2.45292 -1.86873 0.20611
3.32818 -0.765047 0.806176
1.18789 -2.33734 -1.64068
0.775176 -3.17895 1.42684
2.81942 -1.22013 0.931179
-0.418877 -3.32029 -0.805602
0.911363 -3.63061 0.433623
0.426015 -3.49362 1.30622
0.173732 -3.94024 0.218147
0.0949557 -3.93342 0.167937
0.626659 -3.79809 0.193662
3.03949 -1.22104 -0.018122
1.61726 -2.16319 -1.50101
0.583091 -3.59105 1.11025
2.63163 -1.60179 -0.700939
0.941988 -2.20886 2.06532
3.50679 -0.555779 0.997019
1.00817 -3.37718 -0.310436
0.281611 -3.20711 1.59782
2.63346 -1.66725 -0.0271631
1.78085 -2.47492 -0.730121
2.10325 -1.79487 -1.49059
-0.608268 -3.14148 -0.950044
2.53455 -1.63135 -0.959458
0.292163 -2.49053 2.08316
2.22545 -2.09353 -0.466082
2.08892 -1.42654 1.81562
0.920078 -3.25203 -0.63442
0.912637 -3.35245 -0.480031
0.282203 -2.46941 2.09755
0.998779 -3.46403 -0.125152
1.77601 -2.12057 -1.37868
0.60996 -3.82147 0.534785
2.31659 -1.97101 0.557453
3.08747 -1.18048 -0.134291
1.45265 -3.00813 0.763901
2.79929 -1.23263 0.952966
1.48988 -2.75364 1.12524
1.21011 -3.22431 -0.287495
1.91138 -2.09514 -1.22828
-0.0801508 -3.40236 -0.791498
2.86352 -1.41092 -0.289889
0.93059 -3.60319 0.547324
0.433957 -3.57996 -0.477783
1.60204 -2.48758 1.28819
0.500775 -2.69883 1.90823
-0.2599 -3.70995 -0.277127
-0.241805 -3.91418 0.494512
1.14912 -2.28349 -1.73573
2.32771 -1.67835 1.15503
2.32764 -1.97664 -0.475054
0.0468066 -3.08835 -1.17894
2.09168 -1.52156 1.71125
0.519992 -3.29994 -0.832641
0.0966581 -3.11491 -1.14716
0.470406 -2.13807 2.26861
0.401362 -3.14574 1.61912
2.26755 -2.07905 0.371561
3.12757 -0.946902 0.814919
1.86823 -2.54317 -0.301035
1.05487 -3.08244 1.2939
1.50043 -2.83188 0.99204
-0.0561748 -3.54911 1.30872
1.47431 -3.08184 0.322096
2.53556 -1.77372 -0.258218
0.844021 -3.42321 1.10563
1.02941 -2.89502 1.49801
1.3377 -3.231 0.220278
1.01698 -3.47773 -0.0446321
1.39677 -2.4658 -1.29275
0.86354 -2.06867 2.19247
1.75437 -1.61476 1.96703
3.34822 -0.547998 1.33414
0.770046 -3.53065 -0.315984
1.24968 -3.17777 0.892893
0.846314 -2.60912 -1.51509
0.131257 -3.56752 1.29635
0.110225 -3.965 0.387075
0.106948 -3.35448 -0.859256
0.349854 -3.10038 -1.13029
-0.251129 -3.81113 -0.0644739
0.591693 -3.56353 -0.414046
2.1948 -2.00473 0.874666
1.51848 -2.67033 -0.829127
1.36993 -2.2431 1.7684
0.413045 -3.68615 1.08346
2.20295 -2.04404 -0.717871
0.884433 -3.00559 -1.00696
1.80984 -2.3026 -1.01426
0.392803 -3.91335 0.326797
2.11647 -1.72348 1.44803
-0.145296 -3.83892 0.881648
1.09349 -3.4718 0.237355
0.444817 -2.51963 2.03773
2.31794 -2.04625 0.0067452
0.30528 -3.52075 1.31674
0.529256 -3.58827 -0.413972
2.50113 -1.7941 -0.412957
2.56444 -1.70682 -0.521789
0.475501 -3.52366 1.25338
0.0561716 -3.75486 -0.276436
-0.70417 -3.18625 -0.82943
2.2931 -1.27152 -2.30905
1.08358 -3.48545 0.310342
-0.289742 -3.87014 0.673333
2.47768 -1.43433 -1.64077
0.386086 -3.9169 0.344064
2.27477 -1.67784 -1.44447
0.800405 -2.66353 1.82081
2.50676 -1.16455 1.60325
1.10551 -3.20937 -0.491682
1.31769 -2.64977 1.46083
0.0496223 -3.25137 -0.987231
1.04923 -2.57605 -1.43557
0.425722 -3.21733 -0.97058
0.469689 -3.19208 -0.987067
0.228442 -3.7249 -0.311391
1.85688 -2.21717 -1.09302
2.3639 -1.94805 0.408842
1.15629 -3.19943 1.0219
0.686641 -2.73037 -1.44751
1.52095 -1.92786 1.90093
0.138934 -3.45715 1.40434
0.252179 -3.80828 -0.143697
