ply
format ascii 1.0
comment Created by Open3D
element vertex 400
property double x
property double y
property double z
end_header
1.29055 1.94994 2.05907
1.47617 0.794265 2.65908
1.10286 0.97684 2.82793
0.652136 1.79349 2.46114
1.26426 0.726482 2.86535
2.33086 2.26158 1.29045
1.28938 0.788976 2.80805
2.03598 1.38486 1.9524
2.10094 1.03414 2.03781
1.72184 1.97142 1.8384
2.36332 1.93889 1.44908
1.27811 1.81831 2.16219
1.47375 0.198739 2.98925
1.06581 1.33836 2.60924
1.25221 0.707821 2.88636
1.08201 0.781021 2.97322
0.699894 1.83759 2.40134
1.19647 2.30782 1.79262
1.39563 0.910881 2.65699
1.77338 0.408227 2.58662
1.29927 1.98486 2.02857
2.4989 1.60471 1.47249
1.19423 1.27078 2.5773
2.26326 1.43484 1.7485
1.91946 1.46669 2.00072
1.31158 1.60988 2.2895
1.65359 0.628526 2.59552
1.46626 0.950231 2.58288
2.54669 1.23659 1.53624
1.94604 1.11721 2.13628
1.4273 1.65041 2.20103
0.374774 1.57958 2.78867
2.21122 1.37443 1.81585
0.973693 1.75271 2.35279
1.1127 2.41632 1.71029
2.02578 2.11274 1.58002
2.12209 0.840729 2.08635
1.78194 0.973827 2.32956
2.301 1.6546 1.62879
2.29497 2.34686 1.25727
2.3376 1.57231 1.63156
1.18089 0.984526 2.76817
1.25215 0.837632 2.80723
1.21373 1.95527 2.08822
1.63101 2.68148 1.27243
2.12237 1.88967 1.64969
1.45746 1.38713 2.34459
1.05036 0.980382 2.86239
1.60017 1.95717 1.90975
2.56133 1.86342 1.31213
1.99324 0.803259 2.2199
1.44514 1.46911 2.30342
1.58441 1.58879 2.15059
1.15135 1.86617 2.18448
0.71386 1.3478 2.80606
0.777796 1.23917 2.85373
0.711894 1.50535 2.67918
2.445 2.38726 1.12195
1.31998 2.04524 1.97282
1.85838 2.04685 1.71659
1.63806 2.46169 1.49544
0.500448 1.62001 2.6876
1.64024 1.7958 1.99406
1.21665 1.80119 2.20358
1.93452 2.14507 1.61021
0.800141 1.50861 2.63027
2.34081 1.6508 1.59729
1.48017 2.43677 1.57572
2.28279 1.46715 1.71941
1.44183 2.38999 1.63302
1.46 1.50694 2.27192
2.45714 2.27046 1.19087
1.76326 0.812395 2.41704
2.05545 0.737675 2.18572
2.06192 2.31875 1.41858
0.827817 1.38046 2.71524
2.72342 2.00722 1.08351
2.68298 1.76203 1.22662
1.98454 1.30432 2.02663
2.075 0.934293 2.09731
2.19527 2.21634 1.41025
1.81524 1.20345 2.19936
1.16916 2.03746 2.04065
2.16392 1.83622 1.64882
2.53642 2.43989 1.01033
2.12697 1.59892 1.78916
1.25263 0.605616 2.94899
1.72259 0.654449 2.52302
2.86312 1.70429 1.01977
1.13044 1.16475 2.68623
1.92525 1.76331 1.84607
1.59791 0.314288 2.80233
2.03233 0.694372 2.22332
1.64282 2.32799 1.61135
1.35636 0.728405 2.79079
2.25447 0.844158 1.95469
1.35603 2.2284 1.8082
0.208434 1.55758 2.8988
1.88155 2.22904 1.57925
1.87304 2.18288 1.61664
2.29516 2.35422 1.25193
1.84853 1.54546 2.01022
1.54301 2.36179 1.62175
2.56462 2.00278 1.24642
1.72149 2.57656 1.35354
1.1352 2.44293 1.67606
1.86073 1.54693 2.00138
2.25765 1.00449 1.90228
1.28428 2.65604 1.39713
2.02597 0.833969 2.17856
1.9676 1.10997 2.12181
1.76876 2.6634 1.24566
2.17748 2.07608 1.50856
1.37491 1.23038 2.4884
1.04947 2.27319 1.87299
1.71679 2.81678 1.07976
1.94732 0.803394 2.26137
2.16081 2.25982 1.40278
2.06351 1.64139 1.81565
1.41015 1.35149 2.3947
1.66889 0.697695 2.54946
0.295422 1.53598 2.87276
1.47337 2.10361 1.8623
1.43152 2.2383 1.77097
1.57377 1.86142 1.98721
2.11247 1.67886 1.76272
2.10117 1.03252 2.0382
2.49067 2.25768 1.17193
0.513593 1.63096 2.67119
1.85304 2.12937 1.66423
2.20311 1.55058 1.75161
1.69382 0.795559 2.48259
1.47753 2.37123 1.63756
1.45344 2.82788 1.13328
2.21881 1.37004 1.8111
1.38227 2.35002 1.69071
2.81013 1.71805 1.08814
2.51867 2.11029 1.23325
0.820767 1.92327 2.2759
1.68628 2.65199 1.28719
2.24603 2.57978 1.10247
2.55279 1.41885 1.47872
1.07863 2.26797 1.86871
2.44583 2.10728 1.29583
1.67006 2.74604 1.18407
1.74933 0.513961 2.56229
0.925765 1.18984 2.79881
1.59766 0.30395 2.80794
0.455511 1.73781 2.59951
2.15201 2.12849 1.49336
1.72282 2.30002 1.60014
1.10943 1.81516 2.24247
1.20664 2.1144 1.96181
2.5745 1.41957 1.45517
2.30207 0.939165 1.87791
0.456508 1.55397 2.77015
1.20933 1.08444 2.68581
2.15458 2.67979 1.05784
2.59421 1.48267 1.41511
1.58697 1.26023 2.33214
1.01591 1.65209 2.41039
2.68666 1.31086 1.3532
2.20011 1.73113 1.67372
1.43159 1.49764 2.29409
1.21569 2.21464 1.87156
1.28467 0.513685 2.97837
1.14886 1.2601 2.61213
2.74722 2.01411 1.05357
0.975362 2.32633 1.84253
0.368714 1.38133 2.97878
1.1097 1.20227 2.67467
1.52595 2.26633 1.71029
0.98896 1.1274 2.80282
2.55839 1.34696 1.49345
0.864148 1.1416 2.87338
0.932999 0.96216 2.95772
2.17877 2.59928 1.12351
2.24749 2.16713 1.40725
2.58279 1.68195 1.36166
2.37886 1.79006 1.50611
1.36301 0.551847 2.88735
1.07562 1.20907 2.6915
1.31171 0.956249 2.69234
0.961064 1.22211 2.75365
1.1708 2.45226 1.65629
2.28157 1.70136 1.62434
1.35398 1.14184 2.55412
1.79125 2.70647 1.18978
0.905019 2.19781 1.99218
1.61985 0.587344 2.64503
0.643899 1.2879 2.8962
1.40982 0.671476 2.77964
2.68681 1.96216 1.14333
2.33888 2.07128 1.39852
1.14426 1.72385 2.29473
0.238465 1.61744 2.82227
2.102 0.960859 2.06326
1.23489 0.842871 2.81705
1.76533 0.700425 2.46495
1.47229 2.80084 1.1669
1.88315 1.61787 1.9502
2.31 2.40886 1.2023
1.82914 2.20362 1.62395
1.68889 0.468494 2.63953
1.6189 2.62991 1.33371
2.579 1.59309 1.39629
0.968093 1.71331 2.38632
0.389121 1.45798 2.8953
0.884704 2.24863 1.94834
1.44093 1.29915 2.40603
2.4948 2.41269 1.06464
1.40518 1.41107 2.36213
0.324739 1.39791 2.98934
1.27954 0.972597 2.7057
2.49974 1.66384 1.45003
0.89553 2.15033 2.04093
1.42648 1.41377 2.34771
2.15927 1.48834 1.81253
2.20254 2.23372 1.39426
1.05968 0.796817 2.97974
2.22348 1.16984 1.87973
2.72728 1.96031 1.09975
0.884449 1.69083 2.44339
1.55867 0.713011 2.63462
1.13491 2.19615 1.91664
0.701902 2.11003 2.14489
2.10642 1.09532 2.01053
0.730342 1.80517 2.41705
1.56667 2.24668 1.70987
0.885538 1.98987 2.19171
2.61162 1.75523 1.30534
0.567411 1.8345 2.45968
2.0389 0.961382 2.11961
1.22223 0.677698 2.92919
2.53513 2.4156 1.02932
1.39903 1.69173 2.18924
2.50121 1.68983 1.43881
1.36986 2.30246 1.73824
1.05522 1.94811 2.16022
1.42099 2.70055 1.30938
0.351658 1.70814 2.6762
1.21883 2.40597 1.68994
1.26917 1.7106 2.24292
1.22451 2.34074 1.75217
1.91293 1.17668 2.13719
0.943231 2.29168 1.88727
1.95137 2.11236 1.62271
0.874903 1.68666 2.45122
1.86673 1.72147 1.90557
2.53479 1.79401 1.36611
0.703472 1.3525 2.80826
0.635873 1.98506 2.2901
2.03457 1.8253 1.74241
0.868037 2.09815 2.09956
0.406502 1.78197 2.57902
1.82946 1.91037 1.81861
1.79223 1.64076 1.996
0.732619 1.6628 2.53808
1.3471 0.571802 2.88935
1.51932 2.07725 1.86211
1.14085 1.4633 2.48075
2.27133 1.62896 1.6638
1.75667 0.678221 2.48238
1.89099 2.13575 1.63992
1.71152 1.05116 2.34847
1.27158 2.64558 1.41281
0.974025 1.29484 2.69393
1.77878 2.6429 1.26389
2.3052 1.53652 1.67336
1.25843 2.21474 1.85612
2.07013 1.85146 1.70501
1.55174 2.59903 1.38858
0.44634 1.81058 2.53385
1.5249 2.88247 1.03693
1.21913 1.2123 2.59906
1.01405 1.45894 2.55353
2.33168 2.63112 1.00118
1.53473 2.03152 1.88877
2.25895 1.95365 1.52043
1.65834 2.27857 1.64543
2.30017 1.50438 1.69019
2.7716 1.5387 1.18949
1.53282 0.907968 2.55522
2.53397 2.39327 1.04632
1.13795 1.77446 2.2602
1.80233 1.82032 1.88816
0.891499 2.01192 2.16983
1.87721 2.21921 1.58857
1.6976 2.09969 1.7629
1.57461 0.408743 2.77579
1.83314 1.4791 2.05409
1.87218 1.25425 2.13375
1.20348 1.43407 2.46527
1.07461 1.04276 2.80375
1.60703 0.903612 2.50025
2.65693 2.05194 1.1333
2.12112 0.749943 2.11788
0.667869 1.82771 2.42367
1.18186 1.8796 2.16065
2.06407 2.57597 1.20588
1.54308 0.637294 2.6864
1.35292 1.01818 2.6268
2.14245 2.53103 1.20508
1.43011 2.16485 1.83214
1.84814 2.77249 1.09155
1.34747 1.86738 2.09417
1.73284 2.24426 1.63944
1.59965 0.393724 2.75993
2.07496 2.14859 1.52802
1.62327 2.00951 1.86236
1.73196 2.70893 1.20783
1.23965 0.958773 2.74255
2.1623 2.27869 1.38895
2.73596 1.76654 1.16447
2.29791 1.6257 1.64345
1.2605 1.54488 2.36013
2.4394 1.15679 1.67373
0.680781 1.85304 2.39542
1.42582 2.71828 1.28616
0.876968 1.85696 2.31016
1.09742 1.5117 2.47084
0.704844 1.86207 2.37734
2.26407 1.62881 1.66972
0.170271 1.4864 2.99306
2.05209 0.968729 2.1052
1.31989 1.37561 2.43489
1.64638 0.742639 2.54706
2.60893 1.50006 1.39382
1.13743 2.10522 1.99587
1.64199 1.03683 2.40766
0.754405 1.47809 2.67883
2.31149 2.16861 1.3622
0.356785 1.38182 2.98545
1.17469 2.49269 1.61201
2.67555 1.59744 1.28967
2.02557 2.51763 1.27782
1.52043 2.71127 1.27006
1.8564 2.58469 1.2925
2.27843 2.54553 1.11288
1.3694 1.00561 2.62235
1.05976 1.71072 2.34497
2.01028 0.739549 2.22784
0.688156 1.21663 2.92717
2.2834 1.8991 1.5303
2.01487 1.58255 1.87824
1.34953 1.20294 2.52105
1.5703 1.32786 2.30671
1.33715 0.642647 2.85619
1.20659 1.73644 2.25545
1.53084 0.162069 2.95204
2.68925 1.42464 1.32226
1.97838 1.00601 2.15477
2.35884 2.39778 1.17724
0.866856 1.10174 2.90117
1.31934 1.56481 2.31494
1.46531 2.61142 1.40136
2.33568 1.47208 1.67144
2.57168 1.81421 1.32247
2.52548 1.78156 1.37994
2.0378 1.34091 1.96981
2.34878 1.00898 1.80976
2.60828 2.28019 1.0555
0.832625 1.5537 2.57777
1.34706 2.49591 1.55982
2.7223 2.147 1.01678
0.555857 1.88979 2.41222
1.54417 2.52559 1.4672
1.36626 1.4319 2.37257
0.717367 1.5009 2.67996
1.37861 0.452046 2.93194
2.63032 1.92957 1.21616
1.95097 2.37854 1.43104
0.735052 1.80578 2.41449
1.74752 2.3417 1.55551
2.48656 1.74443 1.4311
1.38905 2.27368 1.7567
1.43389 1.55064 2.26022
1.75364 0.769078 2.4445
0.77052 1.18094 2.90346
1.5995 1.48753 2.19978
2.76281 1.36291 1.24305
1.65821 1.65814 2.06688
1.8707 2.41356 1.44084
0.26928 1.55959 2.86371
0.960887 0.915519 2.97103
1.20944 0.839343 2.83839
0.938274 1.24319 2.75254
1.22872 1.69309 2.27541
2.67805 1.81195 1.21369
1.07099 0.842341 2.94041
0.969825 2.10132 2.06067
0.688531 1.46626 2.72377
1.03146 1.2446 2.69456
1.42901 0.520261 2.84788
1.61016 1.23023 2.33221
2.10295 1.09419 2.01397
0.855939 2.1164 2.08657
1.53692 1.50411 2.22819
1.54646 1.88524 1.98522
1.23616 1.73961 2.23879
