ply
format ascii 1.0
comment Created by Open3D
element vertex 200
property double x
property double y
property double z
end_header
-0.469366 2.38553 1.90865
-0.649023 2.20162 -2.16826
0.892589 3.03716 -1.47503
-2.70689 1.63084 -0.0581467
-2.51895 1.32845 -1.44593
-1.68695 1.89591 -1.76642
-2.4958 1.79662 0.636286
-3.03735 1.27657 1.03008
-1.61748 2.78242 0.179049
-0.828396 3.20258 -1.27117
0.311524 3.87628 -0.78787
-0.422907 2.35221 1.9583
-2.8175 1.41401 -0.61909
-3.07992 1.29756 0.249082
0.203128 3.58928 -1.26546
0.25608 3.91999 -0.173466
-2.78898 1.26153 -1.09487
-2.12711 2.12379 -0.745106
-1.98786 2.3953 -0.324109
-3.15881 1.22268 0.0861102
-2.43635 1.04208 -1.95929
0.0947732 3.41596 0.7815
-0.93399 2.43947 1.66199
-1.7384 2.5074 -0.909088
0.621176 3.53532 -1.15519
-2.26237 2.10147 0.103474
-1.18403 1.57762 -2.38434
-0.452966 3.64165 0.281341
-1.29703 2.89046 0.676303
-0.469408 3.398 0.672797
0.0207159 3.48854 -1.37605
-1.41616 1.58676 -2.24983
-1.94598 2.40466 -0.531209
-1.98735 2.07913 1.15318
-2.16312 2.18893 0.287786
-0.186574 2.69847 -1.95464
0.0485169 3.75127 -1.07571
-0.0829087 3.67423 0.399964
0.317176 3.17851 -1.61336
0.714584 2.63973 -1.87524
-2.49307 1.62233 -0.958415
-0.860224 3.09275 0.844225
-1.22649 2.81339 0.906501
0.00733175 3.46191 0.720783
-2.11651 1.65821 -1.54637
-3.13132 1.24239 0.716204
0.114018 3.43541 -1.42569
-2.67206 1.64645 0.55269
-0.351187 2.34187 1.98443
0.635811 3.27335 -1.4224
-0.145448 2.99846 1.27045
-0.621617 3.45691 0.47632
-1.35685 2.77767 -1.17084
-0.498268 2.2945 -2.15231
-1.74368 1.23326 -2.34493
1.06457 2.59341 -1.72083
-1.69206 2.39323 -1.18756
-0.516859 3.7946 -0.490013
-0.977355 2.12768 -2.08316
-0.783806 2.28852 -2.05904
-0.490642 3.55776 -1.11956
-0.165746 2.77729 1.51822
-1.74343 2.25792 1.18646
-0.534556 3.75033 -0.684924
-1.93896 2.33408 0.62473
-2.27088 2.07382 0.306176
-2.9477 1.41246 0.344516
-0.271504 2.61489 -1.99588
-0.602628 3.53475 -1.05581
-2.59465 1.72243 0.523551
-0.468553 2.36804 -2.11258
-0.290599 3.73381 -0.995829
0.110112 2.88017 -1.84977
-0.951518 2.29632 -1.97355
-2.16582 2.01797 -0.889467
-0.778052 3.50303 -0.892444
-2.34828 1.97612 -0.363304
-3.27628 1.14176 0.523783
-1.0747 1.82174 -2.25662
-0.593606 3.4925 0.438817
-2.74305 1.58578 0.515631
0.588643 2.91745 -1.7294
-0.713385 3.64372 -0.643688
-0.229153 3.7397 0.234983
0.0379596 3.83795 -0.933785
0.115863 3.8127 -0.979243
-0.42207 3.71912 -0.919619
-2.97023 1.32343 -0.394953
-1.51161 1.71861 -2.0759
-0.382361 3.78441 0.0179584
-2.54808 1.46782 -1.15554
-0.806777 2.75923 1.32956
-3.46427 1.00655 0.765642
-0.829405 3.19118 -1.28319
-0.0979089 3.54266 0.598198
-2.54112 1.72562 -0.529639
-1.6523 2.2485 -1.42965
-2.01642 1.39551 -1.96308
0.767104 2.69465 -1.81436
-2.45162 1.41603 -1.41077
-0.14276 2.99899 1.27017
-2.11447 1.98416 -1.06998
-1.99566 2.00033 1.30811
-0.750656 2.97305 -1.55634
-0.736663 3.11334 -1.4376
-0.133825 2.98245 1.29014
-0.813945 3.32735 -1.13094
-1.67143 1.72177 -1.94772
-0.401463 3.83937 -0.599766
-2.20393 2.16837 -0.0555783
-3.02123 1.25358 -0.494769
-1.28441 3.17331 -0.151554
-2.72212 1.60297 0.533022
-1.33229 3.03674 0.267703
-1.03901 3.06248 -1.21855
-1.80678 1.74823 -1.79747
0.254887 3.01798 -1.74233
-2.78656 1.41681 -0.708668
-0.733147 3.65147 -0.527073
-0.246551 3.30593 -1.49757
-1.45716 2.83565 0.499834
-0.341362 3.15849 1.04077
0.454802 3.45134 -1.3377
0.453686 3.87097 -0.65845
-1.0396 1.74068 -2.3317
-2.22591 2.06236 0.60104
-2.22281 1.87529 -1.04552
0.108346 2.61244 -2.02322
-1.99418 2.06105 1.18067
-0.350162 2.94013 -1.75678
0.0602314 2.64968 -2.00088
-0.338043 2.72536 1.54835
-0.220585 3.49656 0.63541
-2.15068 2.21516 -0.264401
-3.06622 1.3074 0.481062
-1.73253 2.44265 -1.03942
-0.879083 3.37666 0.337324
-1.33971 3.07349 0.11747
0.255312 3.76779 0.225102
-1.3056 3.11694 -0.595928
-2.43952 1.75524 -0.780848
-0.651882 3.63656 0.0600972
-0.862022 3.25531 0.587166
-1.16205 3.22273 -0.735503
-0.830757 3.36473 -1.05798
-1.2737 2.05638 -1.96248
-0.734901 2.65791 1.49248
-1.65038 2.20624 1.40115
-3.30368 1.08831 1.09181
-0.583501 3.32356 -1.33108
-1.07169 3.36198 -0.0756285
-0.71816 2.09966 -2.21245
0.0690339 3.79178 0.20646
0.104024 3.90716 -0.778772
0.0649773 2.96257 -1.7948
-0.193238 2.65416 -1.98252
0.453105 3.61009 -1.16354
-0.40443 3.31709 -1.43305
-2.07803 2.28598 0.239223
-1.38069 2.39261 -1.57894
-1.23462 2.72873 1.03208
-0.20771 3.85848 -0.0338769
-2.09662 1.86274 -1.29646
-0.731116 2.62775 -1.84124
-1.69265 2.00307 -1.65192
-0.181368 3.85539 -0.823735
-2.01025 2.1791 0.870066
0.356363 3.91631 -0.266883
-0.905247 3.4448 -0.786978
-0.294002 3.02176 1.21706
-2.20561 2.08084 -0.604467
-0.107066 3.76225 0.238146
-0.340766 3.33743 -1.43965
-2.40527 1.72807 -0.934582
-2.474 1.6165 -1.01396
-0.277384 3.75574 0.17532
0.141584 3.51129 -1.35253
0.866201 2.76726 -1.71113
-2.2403 0.668427 -2.59635
-0.894053 3.47846 -0.720997
0.500619 3.87813 -0.474167
-2.41068 1.0274 -2.00534
-0.174337 3.86341 -0.80818
-2.19356 1.30616 -1.8864
-0.643126 3.11538 0.964967
-2.4285 1.71068 1.17744
-0.936964 2.9835 -1.40883
-1.16324 3.02551 0.620339
0.115723 2.82391 -1.88696
-0.921917 2.10189 -2.12836
-0.261513 2.81622 -1.86413
-0.30689 2.78965 -1.87295
-0.0323072 3.4817 -1.37867
-1.74479 1.90112 -1.70293
-2.25357 2.1059 -0.191539
-0.976269 3.41508 0.0423106
-0.551732 2.22661 -2.18162
-1.40115 2.47389 1.24904
0.0563451 3.71798 0.341717
-0.0502498 3.61122 -1.24251
