ply
format ascii 1.0
comment Created by Open3D
element vertex 200
property double x
property double y
property double z
end_header
2.53804 -1.13982 -1.34654
-1.31987 -2.4795 -1.44214
-0.158239 -3.47243 -0.337626
0.126456 -0.457235 -3.12493
-1.23508 -0.79665 -2.83559
-1.2087 -1.69781 -2.28407
0.857551 -0.407614 -2.99336
0.958193 0.378433 -3.29467
0.912279 -1.73456 -2.55914
-0.163443 -2.92714 -1.99091
0.688195 -3.72025 -1.19558
2.57894 -1.10881 -1.29087
-0.484652 -0.447706 -3.14415
0.237836 0.076697 -3.34203
0.129619 -3.61973 -1.18589
1.26317 -3.50284 -1.26353
-0.97395 -0.50972 -3.05945
-0.249021 -1.34586 -2.77793
0.256312 -1.46573 -2.75318
0.0492423 0.106135 -3.38626
-1.79851 -0.777883 -2.64968
1.94361 -2.65014 -1.21967
2.26119 -1.11599 -1.79644
-0.207969 -1.87348 -2.56561
0.273637 -3.67927 -0.779016
0.507262 -0.954246 -2.89436
-1.81847 -1.84042 -1.69763
1.48111 -2.84053 -1.81208
1.45681 -1.74978 -2.30443
1.75422 -2.47695 -1.73404
-0.0348809 -3.51157 -1.31587
-1.72496 -1.71467 -1.91559
0.0744216 -1.56779 -2.71808
1.50945 -0.630711 -2.63172
0.723002 -0.99346 -2.83613
-0.879125 -2.98534 -1.20503
0.339551 -3.63072 -1.39072
1.65641 -2.95378 -1.48267
-0.320332 -3.44257 -0.923329
-0.694561 -3.22342 -0.349992
-0.67698 -0.870084 -2.92414
1.74744 -2.01262 -1.97829
1.65257 -1.62085 -2.20977
1.89096 -2.68169 -1.31804
-1.15235 -1.25884 -2.58997
0.642365 0.320725 -3.36841
-0.0858639 -3.5182 -1.20934
0.701412 -0.249109 -3.09873
2.60992 -1.11534 -1.22065
-0.063711 -3.5631 -0.665245
2.21256 -2.02174 -1.28184
1.57123 -2.5486 -1.8972
-0.298368 -2.33924 -2.31653
-1.25022 -2.60597 -1.33841
-1.98576 -1.33353 -2.08289
-0.517024 -3.24853 -0.00892466
-0.498825 -1.89898 -2.47911
0.813188 -3.24368 -1.92965
-1.31547 -2.26773 -1.71719
-1.20798 -2.46421 -1.59992
0.151665 -3.29171 -1.81479
2.3603 -1.73097 -1.21595
1.63913 -0.856823 -2.47479
0.614871 -3.27422 -1.92905
1.11844 -1.06766 -2.68458
0.683514 -0.850073 -2.89163
0.385991 -0.0315999 -3.26384
-0.959211 -2.89974 -1.25151
0.186027 -3.20808 -1.90945
0.712692 -0.352486 -3.05629
-1.18316 -2.66404 -1.3391
0.357517 -3.46535 -1.69735
-0.674541 -3.20519 -1.00046
-1.1508 -2.37886 -1.75785
-0.425476 -1.2971 -2.77321
0.300056 -3.05647 -2.05938
0.0191185 -0.995514 -2.92576
0.407784 0.384233 -3.46382
-1.59815 -2.03856 -1.69004
1.55327 -2.60324 -1.88494
0.635329 -0.186411 -3.14111
-0.480075 -3.36012 -0.572623
0.589087 -3.10422 -2.05347
1.50572 -3.02109 -1.64283
0.499776 -3.64666 -1.43365
0.460257 -3.67004 -1.35201
0.403481 -3.37717 -1.81319
-0.331966 -0.230624 -3.25059
-1.53163 -1.7269 -2.05423
1.29859 -3.08814 -1.80149
-0.921786 -0.794189 -2.91583
2.08574 -1.56111 -1.80128
0.555899 0.658659 -3.58576
-0.178728 -2.92166 -1.98748
1.79084 -2.76031 -1.44617
-0.251362 -0.777172 -3.00805
-0.767832 -1.88214 -2.38699
-1.61556 -1.22947 -2.39696
-0.611208 -3.26556 -0.322485
-1.16177 -0.88176 -2.80689
2.21288 -2.02325 -1.27955
-0.596681 -1.35547 -2.71282
1.6235 -0.501221 -2.60924
-0.496668 -2.86785 -1.83125
-0.335318 -2.9471 -1.87201
2.22679 -2.00465 -1.26497
0.0123434 -2.98509 -2.02531
-1.4355 -1.62404 -2.20309
0.744518 -3.36469 -1.84017
0.392527 -1.09288 -2.86597
-0.45635 -0.191169 -3.27097
0.793818 -2.31248 -2.40101
0.660538 -0.201827 -3.12834
1.12587 -2.01854 -2.39298
-0.195207 -2.71296 -2.13188
-1.30715 -1.54128 -2.33827
-0.505361 -3.33289 -0.919448
-0.561889 -0.495317 -3.11663
0.69667 -3.05922 -2.0747
-0.250854 -3.30772 -1.49291
1.25094 -1.71391 -2.43139
2.02825 -2.17697 -1.52408
0.0509677 -3.61862 -0.900589
0.826708 -3.71646 -1.06221
-1.69103 -2.01052 -1.6266
0.958465 -0.743346 -2.8457
-0.628437 -1.21489 -2.77125
-0.929702 -3.04242 -0.89964
1.52745 -0.602345 -2.63111
-0.634839 -3.05805 -1.44865
-0.902947 -3.04865 -0.958344
2.34454 -1.6142 -1.35526
1.79096 -2.66335 -1.54187
0.223944 -1.23156 -2.83468
0.457643 0.152227 -3.33314
-0.350419 -1.87016 -2.53541
1.37674 -2.44227 -2.10436
0.998974 -2.10477 -2.41391
1.57747 -3.22013 -1.20599
0.360239 -2.42693 -2.39902
-0.458098 -0.934506 -2.92552
1.24578 -2.85053 -1.99391
1.56716 -2.24911 -2.04216
0.289711 -2.62139 -2.30688
0.0904998 -2.98313 -2.05514
-1.27258 -2.05592 -1.96369
2.21096 -1.43769 -1.6961
1.83283 -0.763453 -2.36904
0.909666 0.656911 -3.46868
-0.140149 -3.13992 -1.81096
0.961824 -2.51967 -2.27669
-1.40687 -2.38493 -1.467
1.54145 -3.18188 -1.38727
0.677131 -3.66977 -1.3991
-0.601234 -3.23852 -1.07369
-0.921523 -2.95583 -1.19423
0.267747 -3.68687 -0.962908
-0.210424 -3.23673 -1.64304
0.72491 -1.12497 -2.79465
-0.815029 -2.15831 -2.1912
1.73747 -1.49765 -2.18488
1.30246 -3.23295 -1.66848
-0.846233 -1.34481 -2.64986
-0.879104 -2.68904 -1.68106
-1.06587 -1.74344 -2.33035
0.575492 -3.54188 -1.64296
1.27987 -0.816288 -2.69114
1.19025 -3.57091 -1.16947
0.358279 -2.92143 -2.15461
2.14972 -2.00954 -1.428
-0.145771 -1.22763 -2.83403
1.53449 -3.08229 -1.53867
-0.200008 -3.27913 -1.59201
-0.60472 -0.982257 -2.88348
-0.72757 -0.893107 -2.90428
1.44921 -3.04056 -1.69353
0.0125836 -3.56472 -1.21291
-0.475652 -3.32307 -0.258718
-2.49047 -0.772053 -2.32556
0.432776 -2.92887 -2.15715
1.00637 -3.66864 -1.02158
-1.84249 -0.792042 -2.62035
0.593731 -3.54527 -1.63953
-1.60225 -1.06123 -2.52643
1.89878 -2.06249 -1.78638
1.33698 -0.150964 -2.89829
-0.38398 -2.75444 -2.00738
1.47245 -1.93377 -2.2325
-0.727979 -3.17338 -0.973748
-1.35823 -2.28262 -1.6561
-0.764849 -3.0247 -1.31933
-0.789029 -2.98936 -1.35108
-0.0474898 -3.48799 -1.36224
-1.15667 -1.65751 -2.33951
0.237564 -1.07404 -2.88792
1.10353 -2.5536 -2.20885
-1.30913 -2.54033 -1.36182
1.82343 -1.13823 -2.24121
1.63846 -3.06265 -1.37075
0.121473 -3.54009 -1.42838
