ply
format ascii 1.0
comment Created by Open3D
element vertex 250
property double x
property double y
property double z
end_header
-0.236577 1.38359 -3.07695
-2.41209 0.861022 -2.81299
-1.39328 -1.74115 -2.14375
-1.11123 -0.771238 -3.06213
-0.768041 1.33992 -3.26756
-0.0514713 -0.720742 -3.07877
1.42667 -1.77977 -2.52511
-0.341115 -1.27356 -2.82335
-0.0865268 1.35703 -3.03724
-0.968453 -0.169996 -3.39986
-2.03632 0.188788 -3.24388
-0.526092 -0.927706 -3.02015
-1.31403 0.470976 -3.57083
0.127874 -0.3119 -3.16916
-1.11999 0.731781 -3.55963
-1.3463 1.1419 -3.45112
0.314157 -0.682317 -3.02212
0.330552 -2.10278 -2.39637
0.619321 -0.980675 -2.86489
-1.50291 -1.46995 -2.32081
-2.16218 0.47293 -3.22002
0.18423 -1.87222 -2.5057
-0.384245 -0.169712 -3.32825
0.143362 -1.49393 -2.70332
-1.216 -1.39103 -2.55139
-0.61273 0.692975 -3.46258
0.346099 -0.526705 -3.05909
-2.0044 1.10962 -3.23425
-0.938415 -1.55196 -2.52754
-1.20742 -0.251128 -3.35335
-0.152293 1.46441 -2.99332
-2.26426 1.06935 -2.95181
-0.776028 1.56509 -3.09995
-2.45482 0.257653 -2.73083
-2.42945 0.848604 -2.7818
1.35502 -1.8211 -2.51704
-1.31655 -1.69323 -2.23504
-2.47051 0.555912 -2.7635
-0.360615 0.414005 -3.40603
-0.870068 -1.56328 -2.54054
-0.944904 -1.50893 -2.55925
0.0103824 -0.968368 -2.96594
-1.90276 0.451194 -3.41725
-1.4599 1.04182 -3.48913
-1.63217 -1.21495 -2.46937
-1.94243 0.88151 -3.38218
-0.874872 -2.33674 -1.93599
-1.84524 0.950241 -3.4158
0.718091 -1.38187 -2.71071
-0.860038 0.703959 -3.52166
-2.32185 0.145811 -2.90545
-1.25081 -1.19241 -2.70246
-0.599503 -2.38464 -2.02006
-1.30384 1.4569 -3.23761
-0.833469 -0.853344 -3.04986
-0.390613 -2.59106 -1.9602
-0.836621 -1.16642 -2.84214
-0.158461 1.30276 -3.09608
-1.6586 -0.456882 -3.09605
-0.131782 -0.819942 -3.04875
-0.201042 -0.928785 -3.00568
0.146721 -1.70173 -2.59499
-1.28425 -1.34093 -2.56252
-0.92924 1.17944 -3.3937
-1.64385 1.38382 -3.2321
-2.38183 0.355311 -2.89881
-1.43079 -0.165754 -3.3581
0.52348 -2.11557 -2.40496
-0.325172 1.06577 -3.27118
-0.284197 -0.400425 -3.23742
-1.42619 -0.0693679 -3.40572
-1.21959 -1.70604 -2.27832
-0.383238 1.33209 -3.1599
-0.526325 -1.55483 -2.62586
-0.763332 -1.6976 -2.46979
1.27879 -1.78897 -2.52927
-0.553826 -2.4837 -1.9697
-1.44442 0.549141 -3.56896
-1.37357 0.246346 -3.5272
-0.407549 -0.717172 -3.12432
0.24281 -0.365139 -3.12591
-2.20291 -0.0692232 -2.93489
-1.0191 0.902318 -3.51417
0.485616 -1.06342 -2.85996
-0.437667 -0.992681 -2.98364
-1.57993 1.27865 -3.33805
0.596108 -1.64415 -2.61641
-0.251521 1.25183 -3.1585
-0.77569 -1.63183 -2.51584
-1.09596 -0.107 -3.42497
-1.34942 -1.7913 -2.1268
0.195909 -2.02109 -2.42683
-0.784391 0.729867 -3.50159
-1.26216 0.210536 -3.52553
-1.92668 0.173678 -3.31682
-0.759753 -1.73888 -2.43966
-0.0637345 0.764141 -3.26488
-0.670301 1.39864 -3.20436
-2.02959 -0.403865 -2.87052
0.272584 -0.062735 -3.17065
-1.49177 0.3925 -3.54459
-1.08545 1.11845 -3.44774
-1.04158 0.796859 -3.54034
-0.0919823 0.951536 -3.225
-2.03527 0.461264 -3.33133
-0.00609487 -0.185471 -3.23342
0.0332105 -0.508258 -3.13826
-0.396903 -2.62063 -1.93942
0.478859 -2.05603 -2.43006
-0.302449 -1.28579 -2.81735
-1.32909 -1.3878 -2.49938
-1.97131 -0.476485 -2.86508
-0.503516 -1.44613 -2.70214
0.00492873 1.10503 -3.12908
-0.109009 -2.44327 -2.13539
-1.38241 -0.116173 -3.39254
-0.0253065 -2.12814 -2.33883
-0.70398 1.41382 -3.20245
-1.3185 0.832137 -3.55583
-2.02227 0.533156 -3.35246
1.30192 -1.73405 -2.54376
-2.15473 0.173846 -3.1279
-0.464853 -0.876241 -3.04749
-1.78588 0.608984 -3.49111
0.988309 -1.76515 -2.55049
0.125116 -2.37708 -2.22377
-1.61429 -1.25598 -2.44367
-1.49682 -1.08161 -2.67752
-0.123407 -0.760114 -3.07342
-0.672921 -2.18425 -2.13564
-0.323531 -1.58756 -2.63167
0.379319 -2.26494 -2.32032
-1.68755 0.336018 -3.48577
-0.830696 -2.54994 -1.80124
-1.48823 -1.37476 -2.41872
-0.559756 -1.57697 -2.60491
-0.191919 -2.3191 -2.18984
-0.479834 -1.32258 -2.78482
-2.32749 0.519262 -3.02012
0.932816 -1.83783 -2.52663
-2.41949 0.61839 -2.86585
-1.65827 1.37502 -3.23453
-1.00955 -2.15692 -2.00912
-1.24088 0.52992 -3.57496
-0.965554 0.705551 -3.54131
-2.4603 0.611993 -2.78322
-0.135975 0.177614 -3.32619
0.468279 -1.45689 -2.70455
-2.30148 0.307643 -3.00642
-0.498272 0.605998 -3.43924
-0.661798 -2.35935 -2.01343
-0.350962 0.637913 -3.38951
-0.609923 -2.1521 -2.18127
-1.64034 1.22367 -3.35913
-0.22549 1.25325 -3.14815
-1.54796 0.987878 -3.49769
0.236469 -2.00776 -2.43745
0.429442 -0.190951 -3.10353
-0.187417 0.0601837 -3.32801
-0.284538 -2.22597 -2.22573
-2.22264 -0.107511 -2.88437
-1.5466 -0.846941 -2.85062
-2.44365 0.585854 -2.81943
-1.30994 0.634624 -3.57678
-0.985329 -1.51604 -2.53999
0.816002 -1.89956 -2.50545
1.04377 -1.76956 -2.54638
-1.87626 0.312883 -3.39753
-0.312892 0.901084 -3.32287
-1.03054 -1.67972 -2.39002
-2.01407 0.268553 -3.29326
0.671073 -1.51964 -2.66264
-0.838544 -1.26372 -2.77266
-2.43272 0.537447 -2.84062
-2.37839 1.04279 -2.75708
-1.86753 0.636811 -3.45494
-2.01544 0.817123 -3.34702
-1.11703 0.133903 -3.50624
-1.03365 -2.12965 -2.01867
-0.48962 -0.221248 -3.33278
-0.802902 -2.11987 -2.13322
0.636671 -0.401221 -3.00669
-0.405504 0.996532 -3.325
-1.5494 -0.391028 -3.19017
-1.63165 -0.149902 -3.3046
-2.49922 0.662046 -2.68729
-0.822484 -1.36352 -2.70367
-0.185111 -0.939364 -2.99923
-1.56489 0.541784 -3.55125
-0.822202 -0.125612 -3.40818
-1.85965 0.26184 -3.39
-2.39953 0.326314 -2.85912
-0.753942 -0.286976 -3.34235
-1.6975 1.19134 -3.36097
-0.334548 -1.68368 -2.56885
-2.51178 0.632566 -2.66205
-0.843228 -2.58783 -1.76806
-2.01925 0.835955 -3.33998
-0.842202 -0.546686 -3.22506
-1.25977 -0.734241 -3.05167
-1.21899 -2.85957 -1.35396
-1.31274 -3.0035 -1.19579
-1.491 -2.66675 -1.28524
-1.75772 -3.163 -0.751999
-1.21573 -2.24628 -1.81777
-1.01345 -2.76992 -1.54684
-1.81249 -2.30416 -1.27902
-1.1222 -2.70245 -1.52625
-1.77791 -2.84052 -0.916545
-1.40428 -2.40291 -1.55733
-1.78679 -2.04045 -1.53741
-1.38253 -2.69824 -1.34746
-1.91229 -2.75219 -0.844465
-1.83579 -2.94161 -0.801931
-1.9837 -2.67473 -0.822466
-1.55552 -3.0069 -1.00692
-1.62942 -2.38137 -1.38907
-1.35444 -2.832 -1.27536
-1.59677 -2.15724 -1.60951
-1.46212 -1.79113 -2.05046
-1.59847 -2.94743 -1.00739
-1.49951 -1.7922 -2.02201
-1.69725 -2.15206 -1.52341
-1.5221 -3.08349 -0.989347
-2.10408 -2.43461 -0.857359
-1.72211 -2.90086 -0.929383
-1.74404 -2.1799 -1.45403
-1.28615 -2.1645 -1.84043
-2.05727 -2.43755 -0.908903
-1.57858 -3.13147 -0.91754
-1.89579 -2.64686 -0.931299
-1.39841 -1.83923 -2.05112
-1.74407 -2.88819 -0.917544
-1.51051 -2.93911 -1.08469
-1.32916 -2.09591 -1.87031
-1.7199 -2.48238 -1.2249
-1.03401 -2.86905 -1.46829
-1.7797 -2.76401 -0.964488
-1.05341 -2.47275 -1.73735
-1.46458 -2.18045 -1.69789
-1.86795 -2.43472 -1.11632
-1.27929 -2.70792 -1.4163
-1.85969 -2.5054 -1.07035
-1.91523 -2.87047 -0.76854
-1.02813 -2.66556 -1.61059
-1.42324 -2.58527 -1.39964
-1.16624 -3.06522 -1.26084
-1.90035 -2.9461 -0.739105
-1.51374 -2.58449 -1.32781
-1.33315 -2.21598 -1.7646
