ply
format ascii 1.0
comment Created by Open3D
element vertex 400
property double x
property double y
property double z
end_header
-1.02027 2.66134 -1.68684
1.00286 1.88549 -2.39077
-0.956942 2.42171 -2.06481
-0.792737 1.44094 -2.76444
-0.389984 2.75472 -1.43736
-0.719587 2.66692 -1.65163
-1.39563 1.74827 -2.63335
-0.422334 2.44696 -1.96207
1.06214 1.95708 -2.32893
1.26384 1.47298 -2.70604
-1.41667 2.64982 -1.71096
-0.64643 2.11607 -2.3478
-0.0310208 1.56443 -2.67114
0.730265 1.93212 -2.36057
0.23244 1.92644 -2.40416
-1.54492 2.72795 -1.47232
-1.26602 2.61855 -1.78069
0.678787 1.41273 -2.72946
-1.76651 2.17947 -2.34597
0.00218496 1.4196 -2.74645
-0.305696 2.34904 -2.06674
-0.019106 2.24857 -2.13813
0.288061 1.89324 -2.42524
-0.803874 2.13374 -2.35007
-1.65672 2.18371 -2.34868
-0.204481 2.46311 -1.90903
-0.796994 1.42499 -2.77071
0.855521 2.47614 -1.78269
-0.352528 1.75131 -2.5848
0.761978 2.5718 -1.65592
-0.870137 2.76569 -1.43953
0.0134562 1.85817 -2.47816
-1.14375 1.64063 -2.68468
0.53953 1.87094 -2.42253
-0.960845 1.7526 -2.62554
-0.787979 1.94456 -2.49603
1.19123 2.07972 -2.21712
0.654364 2.56142 -1.67585
-1.35886 2.4452 -2.06408
-1.25203 1.73944 -2.6391
-0.23833 1.71268 -2.59913
0.175568 2.68247 -1.52302
0.641339 1.57787 -2.62802
0.0977858 2.02682 -2.33499
0.754568 1.96168 -2.334
-1.57161 1.76999 -2.6162
0.359811 2.56564 -1.69271
-0.396807 1.89491 -2.4935
1.06341 2.64605 -1.54784
-0.458453 1.97737 -2.43928
1.04325 1.37694 -2.75628
-1.20159 1.79563 -2.61003
0.0232921 1.49705 -2.70511
1.24302 1.58573 -2.62657
0.615586 1.43557 -2.71682
-0.119232 2.39046 -1.9903
-0.477127 2.67817 -1.60357
-0.77885 2.78448 -1.38826
-1.13496 2.14485 -2.37037
-1.12544 1.95932 -2.50961
0.384171 1.3543 -2.76694
-0.0255973 2.67062 -1.56472
-0.950995 1.77235 -2.61434
-0.968807 2.76489 -1.44165
0.233204 2.68108 -1.52018
0.546332 1.51561 -2.67042
0.680802 2.62001 -1.58831
-0.679339 2.42986 -2.02041
0.158675 1.7651 -2.5312
0.496304 2.5485 -1.70542
0.436278 2.5141 -1.75927
-1.46881 1.7853 -2.61359
-0.935721 2.56443 -1.85674
1.1513 1.41633 -2.73654
0.674792 1.86274 -2.42064
-0.427757 2.69373 -1.56783
-1.36713 2.55873 -1.89119
-1.63407 2.6088 -1.77725
0.323042 2.26823 -2.07426
0.283069 2.63126 -1.59882
0.690879 2.39721 -1.89062
0.950988 2.56681 -1.65909
0.77395 2.26084 -2.04255
0.126402 2.41951 -1.92041
0.902657 1.85944 -2.41409
-1.39069 2.20267 -2.33292
-0.87158 2.4944 -1.95688
0.563302 2.19198 -2.13079
-1.17561 2.42143 -2.08532
-0.762007 2.70003 -1.58821
1.10269 2.27121 -2.02123
0.190509 1.98923 -2.35685
-1.06084 1.67238 -2.66922
0.339949 1.7375 -2.53624
0.74797 2.3934 -1.89167
-1.19246 2.45859 -2.03728
0.671172 2.0296 -2.27886
-1.13893 2.70283 -1.59848
0.418232 2.75035 -1.38376
0.601755 2.06857 -2.2481
0.622254 2.3246 -1.9818
0.533689 2.24717 -2.07548
-0.602073 1.59545 -2.68927
-0.906971 2.58791 -1.81474
-1.5501 2.53348 -1.92999
0.326372 2.37659 -1.94931
0.749597 1.92305 -2.36722
-0.0585838 2.61322 -1.66633
0.111857 2.50349 -1.8103
-0.49378 1.56605 -2.69826
-1.46485 2.19157 -2.34434
0.626398 1.89745 -2.39543
0.418501 1.47315 -2.70014
-0.810224 1.70089 -2.64596
0.273551 2.60155 -1.64681
-0.612475 2.65531 -1.66234
0.302246 1.85585 -2.45291
0.287531 1.51719 -2.6801
-1.00021 1.40654 -2.77705
0.193125 2.73935 -1.41797
-1.03472 1.90773 -2.53839
-1.59924 2.68183 -1.60201
-0.030052 1.7638 -2.54842
1.24436 2.69305 -1.49032
1.12215 2.43583 -1.83095
-1.47698 1.52072 -2.71913
-0.571215 1.97136 -2.4559
-1.33881 2.75002 -1.45233
1.11051 2.30102 -1.98842
-1.55858 2.71835 -1.5006
1.16615 2.40625 -1.86764
0.993308 2.57442 -1.64861
-0.858781 2.51585 -1.92411
-1.36336 1.88641 -2.56149
-1.38951 2.47686 -2.02061
-0.45549 2.14614 -2.29758
-1.22165 2.24724 -2.2832
0.461288 1.87418 -2.42568
-1.63645 2.32592 -2.21031
0.444141 1.39583 -2.7431
-0.323904 1.37404 -2.78053
-1.73772 2.38923 -2.12928
-1.61143 1.69676 -2.64517
0.284398 2.61789 -1.62007
0.866934 2.037 -2.26157
-0.000452548 1.3833 -2.76452
0.566647 1.62158 -2.60202
-0.953873 1.45276 -2.76084
0.655198 1.97257 -2.3304
0.405922 2.65001 -1.55791
-1.49678 2.76005 -1.36946
-1.5102 2.38946 -2.13848
-1.72107 2.22238 -2.31094
-0.227271 2.49897 -1.86288
-1.15883 1.82226 -2.59458
0.940565 1.39234 -2.74354
-0.889823 1.43644 -2.76694
-1.66402 2.61995 -1.74685
-1.0383 1.43512 -2.76652
-1.62561 2.49424 -1.9894
-1.24731 2.30249 -2.22877
-0.513211 1.5271 -2.71827
-0.989808 1.43467 -2.76727
0.291314 2.6262 -1.60616
-0.338959 2.0984 -2.32568
-0.878128 2.74123 -1.50163
-1.17607 1.53787 -2.72668
1.25912 2.68173 -1.50828
-0.916644 2.45976 -2.01031
-0.589982 1.48952 -2.73886
-1.44907 2.50644 -1.97674
-0.807191 2.72102 -1.54556
-1.14746 2.14407 -2.37189
-1.32558 2.40808 -2.11126
-0.0717431 2.57684 -1.726
-0.502124 2.51713 -1.87594
-0.0206899 2.42908 -1.92786
0.779741 2.2328 -2.07238
-0.930637 2.07237 -2.41347
-0.0184626 1.83532 -2.49783
-0.434729 2.3784 -2.05044
-0.344439 1.84841 -2.5207
-0.661392 1.91944 -2.50219
0.483682 2.12801 -2.20172
0.179937 2.51923 -1.77968
0.52678 2.01683 -2.30105
1.19329 1.52114 -2.66918
0.832293 1.39601 -2.73949
-1.60028 2.17037 -2.36189
0.883134 1.38443 -2.74713
-1.10923 2.58127 -1.84288
-1.68412 2.34835 -2.18268
-1.58296 1.68492 -2.6521
0.295083 2.63636 -1.58945
0.745404 2.52162 -1.72668
0.458028 2.46357 -1.82554
-0.105104 2.73494 -1.45228
-0.380317 2.29194 -2.14175
0.725633 1.56532 -2.63404
-1.67232 2.24231 -2.29481
-1.52674 2.39799 -2.12777
0.0670549 2.35732 -2.00465
0.497188 2.4973 -1.77681
-0.271536 1.72653 -2.59334
0.370637 2.49286 -1.79498
0.268439 2.76524 -1.36337
0.86547 2.60921 -1.59931
-0.565325 1.76369 -2.5946
-0.877258 2.22274 -2.27649
-0.28758 2.73184 -1.47646
-0.855062 1.6318 -2.68276
0.881946 2.57621 -1.64651
0.623696 1.85952 -2.42614
0.403518 1.40771 -2.73763
-1.49265 1.91267 -2.54513
-0.610608 2.75887 -1.44516
0.031742 1.7297 -2.56575
1.1648 2.6881 -1.49118
1.09632 2.12704 -2.17059
-1.39856 2.39421 -2.13119
0.844681 2.3219 -1.9708
0.191244 2.11326 -2.24648
-0.811822 1.38998 -2.78399
-0.0430557 2.55861 -1.7502
0.0502965 1.96372 -2.39297
-0.740503 2.09483 -2.37644
-0.557165 2.74411 -1.4751
-0.280948 2.74715 -1.44389
0.261382 1.82459 -2.4799
-0.52502 1.82415 -2.55362
0.167125 2.42004 -1.91453
0.0765231 2.45977 -1.87455
-0.694096 1.42499 -2.76919
-0.868688 2.73059 -1.5268
0.034125 2.45269 -1.88959
0.160202 2.74225 -1.41493
1.00709 2.67181 -1.50755
-1.43403 2.49258 -1.99794
-1.1185 1.86142 -2.57078
-0.753352 2.03763 -2.42403
-0.0749957 2.35127 -2.03125
0.583073 1.75673 -2.50692
1.25982 2.63402 -1.57658
-0.452082 2.551 -1.81816
1.0844 1.98912 -2.30038
-0.258943 2.42249 -1.97019
-0.608918 2.17589 -2.28945
-0.0821658 1.77372 -2.54644
-1.45365 2.64473 -1.71944
0.351086 2.41949 -1.89344
-1.6607 2.41637 -2.0996
0.866722 2.74363 -1.38982
-0.90813 1.93141 -2.51466
0.00994192 2.07707 -2.30115
0.812975 2.53397 -1.70703
-0.629976 1.59789 -2.68947
0.38939 2.67844 -1.5121
-0.192241 1.40196 -2.76315
0.67166 1.4466 -2.70943
-0.974238 2.44364 -2.03814
-1.2337 2.73694 -1.50603
0.769672 2.25351 -2.05075
-1.47264 2.68918 -1.60791
-0.510991 2.00156 -2.42641
0.68332 1.66108 -2.57062
0.95709 2.53277 -1.70568
-0.210909 2.5539 -1.78009
0.995465 2.35922 -1.9229
0.174125 2.51569 -1.7854
0.222908 2.73661 -1.42093
-1.3905 1.66578 -2.67018
-1.20482 2.24997 -2.27942
-0.135149 1.99024 -2.39235
1.1732 2.55441 -1.68041
-0.289673 1.47312 -2.73356
1.07417 2.67406 -1.50679
-1.77636 2.15477 -2.3659
0.91337 2.71404 -1.43924
0.902565 1.68077 -2.55145
-1.25986 1.92843 -2.53476
0.05811 2.24143 -2.13547
-0.923573 2.68026 -1.64183
0.654251 2.5824 -1.64553
-0.385451 2.48313 -1.90778
0.8239 1.86899 -2.40874
-1.51782 2.59622 -1.8169
-1.4424 2.39281 -2.13389
-1.25811 2.19961 -2.3301
0.640306 2.47002 -1.80193
1.14246 1.80255 -2.45909
0.992241 2.56631 -1.65985
1.18226 1.76403 -2.49058
-0.175136 2.70694 -1.51424
-0.558416 2.22605 -2.23465
1.04512 1.96026 -2.32624
-1.00477 2.72187 -1.55201
0.613351 1.90613 -2.38916
1.11632 2.4336 -1.83361
-1.24311 1.84329 -2.58475
-1.57262 2.63552 -1.7265
0.599733 1.99256 -2.31681
-1.14196 2.37479 -2.14019
0.243308 1.62389 -2.61806
-1.69045 2.48684 -1.99564
0.513183 1.7352 -2.52649
-0.0641982 2.16016 -2.23331
-1.53788 2.70603 -1.54612
-1.12286 2.26057 -2.26288
0.0403899 1.76559 -2.54101
-1.18447 2.54685 -1.90518
0.407067 1.5383 -2.66194
-0.0690348 2.73789 -1.44302
-0.138402 2.45568 -1.90953
-1.51845 1.84698 -2.58075
-0.556953 2.59959 -1.75428
-0.571505 2.44219 -1.98958
0.640165 2.74645 -1.38396
-0.383471 1.52397 -2.71336
-0.287722 1.43844 -2.75002
1.04077 2.74053 -1.40216
-1.1874 2.77937 -1.38223
-1.34586 2.67282 -1.66278
0.494833 1.76386 -2.50694
-1.60393 1.97388 -2.50494
-1.09259 1.91684 -2.53565
-0.477955 2.41575 -2.01044
0.828885 1.67156 -2.5592
1.20083 1.84887 -2.42264
0.552908 1.3881 -2.74517
-0.631475 2.29923 -2.16835
-0.382417 2.52335 -1.84993
1.08813 2.55817 -1.67244
-0.346291 1.56254 -2.69173
0.940728 2.54145 -1.69404
-0.839732 1.52912 -2.729
0.970165 2.4043 -1.86972
-0.158116 2.199 -2.20769
0.632309 2.05931 -2.25439
0.505935 2.07895 -2.24633
1.22259 1.39 -2.75776
-0.75362 1.75145 -2.61507
-1.23088 1.69726 -2.65913
-1.07334 2.63055 -1.75086
-0.490612 2.70317 -1.55584
-0.72774 2.58868 -1.7938
-0.824904 1.84216 -2.56617
-0.299226 1.78837 -2.55652
0.134782 2.38846 -1.95813
0.286237 2.15529 -2.19533
-0.214932 2.5009 -1.85838
-0.0393576 2.33665 -2.04339
0.980778 1.54081 -2.6492
-0.0677479 2.50435 -1.83288
-1.58881 2.46981 -2.02865
-0.141577 2.63711 -1.63681
-1.3998 2.47285 -2.02658
-1.05984 1.49003 -2.74631
-0.825809 2.76468 -1.44129
0.272462 1.62479 -2.61565
-1.37043 2.12128 -2.4015
-1.27279 1.94065 -2.52741
-1.10511 1.75141 -2.63113
-0.526406 2.41746 -2.01517
-0.137228 1.47451 -2.72532
-0.920632 1.48461 -2.74852
-0.82728 2.31832 -2.17229
-0.20661 1.47451 -2.72882
-0.914303 2.73798 -1.51072
-0.197113 1.56397 -2.68187
0.231012 2.23094 -2.12488
-1.75334 2.1203 -2.39514
-1.12373 2.71206 -1.57634
0.428634 2.33099 -1.99223
-0.123178 2.75005 -1.42339
-1.503 2.7505 -1.40487
1.16299 1.8872 -2.38976
0.193825 2.20184 -2.15947
0.177738 2.6706 -1.54344
-0.439007 1.87328 -2.51285
-0.859177 2.65862 -1.6809
0.476908 1.93598 -2.37447
-1.10686 2.63468 -1.74458
-1.54827 2.42225 -2.09622
0.999121 1.95777 -2.32896
-0.396722 2.43453 -1.97466
0.213907 1.52899 -2.677
0.614108 1.97572 -2.33044
-1.36322 2.62675 -1.76333
0.327744 1.65609 -2.59205
-1.03127 2.47694 -1.99854
-0.446107 2.71407 -1.52906
0.7824 1.61388 -2.6004
-0.504556 1.7178 -2.61709
0.978834 2.13181 -2.16751
-1.69178 2.54146 -1.90322
-0.604223 1.83441 -2.55387
-0.745015 2.52207 -1.90114
0.561697 2.33567 -1.97407
0.591177 1.56229 -2.6397
-0.606153 1.59067 -2.69186
