ply
format ascii 1.0
comment Created by Open3D
element vertex 400
property double x
property double y
property double z
end_header
-0.46626 -2.29137 -2.05907
0.48218 -1.60544 -2.65908
0.08911 -1.47057 -2.82793
-0.80706 -1.72932 -2.46114
0.38027 -1.40767 -2.86535
0.04899 -3.24735 -1.29045
0.35384 -1.46962 -2.80805
0.46041 -2.4189 -1.9524
0.75434 -2.21684 -2.03781
-0.17648 -2.61153 -1.8384
0.30012 -3.04212 -1.44908
-0.38198 -2.1895 -2.16219
0.90157 -1.18263 -2.98925
-0.19272 -1.70001 -2.60924
0.38494 -1.38595 -2.88636
0.21283 -1.31736 -2.97322
-0.80447 -1.79427 -2.40134
-0.78584 -2.47791 -1.79262
0.34277 -1.63095 -2.65699
0.96531 -1.54263 -2.58662
-0.48479 -2.32223 -2.02857
0.63229 -2.90169 -1.47249
-0.05413 -1.74302 -2.5773
0.58578 -2.61495 -1.7485
0.32016 -2.39437 -2.00072
-0.21093 -2.06578 -2.2895
0.72483 -1.6137 -2.59552
0.36489 -1.70872 -2.58288
0.92638 -2.67518 -1.53624
0.58607 -2.16604 -2.13628
-0.15776 -2.17627 -2.20103
-0.85193 -1.38194 -2.78867
0.5917 -2.53544 -1.81585
-0.55085 -1.92786 -2.35279
-0.9218 -2.49539 -1.71029
-0.06149 -2.92637 -1.58002
0.90606 -2.09503 -2.08635
0.57142 -1.94862 -2.32956
0.45707 -2.79703 -1.62879
-0.03669 -3.28227 -1.25727
0.54114 -2.76472 -1.63156
0.13885 -1.53118 -2.76817
0.29311 -1.4777 -2.80723
-0.52435 -2.24082 -2.08822
-0.74279 -3.04939 -1.27243
0.16454 -2.83694 -1.64969
0.04973 -2.01143 -2.34459
0.04948 -1.43595 -2.86239
-0.25244 -2.51542 -1.90975
0.4935 -3.12877 -1.31213
0.84144 -1.97742 -2.2199
-0.01695 -2.06069 -2.30342
-0.0031 -2.24379 -2.15059
-0.50545 -2.13371 -2.18448
-0.44826 -1.45781 -2.80606
-0.32624 -1.42621 -2.85373
-0.56106 -1.56783 -2.67918
0.04083 -3.41692 -1.12195
-0.51283 -2.37957 -1.97282
-0.13327 -2.76141 -1.71659
-0.5824 -2.89896 -1.49544
-0.79165 -1.49939 -2.6876
-0.11 -2.42965 -1.99406
-0.41333 -2.13394 -2.20358
-0.14888 -2.88471 -1.61021
-0.50096 -1.63253 -2.63027
0.48791 -2.82249 -1.59729
-0.67642 -2.7697 -1.57572
0.57674 -2.65161 -1.71941
-0.67045 -2.7095 -1.63302
-0.03319 -2.09794 -2.27192
0.132 -3.34292 -1.19087
0.67236 -1.82126 -2.41704
0.93181 -1.97504 -2.18572
-0.18161 -3.0976 -1.41858
-0.39078 -1.56149 -2.71524
0.50643 -3.34507 -1.08351
0.65121 -3.1431 -1.22662
0.48099 -2.32558 -2.02663
0.8066 -2.12789 -2.09731
-0.0149 -3.11948 -1.41025
0.4326 -2.13454 -2.19936
-0.61398 -2.26742 -2.04065
0.23172 -2.82853 -1.64882
0.06826 -3.51878 -1.01033
0.37339 -2.6346 -1.78916
0.45751 -1.31398 -2.94899
0.75529 -1.68082 -2.52302
0.81942 -3.22965 -1.01977
-0.02426 -1.62294 -2.68623
0.11451 -2.6082 -1.84607
0.90766 -1.35213 -2.80233
0.94608 -1.92807 -2.22332
-0.48449 -2.80779 -1.61135
0.44403 -1.47415 -2.79079
0.99724 -2.19106 -1.95469
-0.61686 -2.53458 -1.8082
-0.95399 -1.24876 -2.8988
-0.24571 -2.90663 -1.57925
-0.21909 -2.86797 -1.61664
-0.04176 -3.28761 -1.25193
0.2143 -2.39991 -2.01022
-0.57897 -2.76111 -1.62175
0.39728 -3.22964 -1.24642
-0.60463 -3.03918 -1.35354
-0.9247 -2.53012 -1.67606
0.22189 -2.40958 -2.00138
0.88612 -2.30668 -1.90228
-0.96998 -2.78623 -1.39713
0.84287 -2.02228 -2.17856
0.60643 -2.17617 -2.12181
-0.6326 -3.13401 -1.24566
0.0717 -3.00772 -1.50856
0.1022 -1.84222 -2.4884
-0.8653 -2.34947 -1.87299
-0.77781 -3.20572 -1.07976
0.80888 -1.94505 -2.26137
-0.07001 -3.12586 -1.40278
0.29848 -2.61976 -1.81565
0.04148 -1.95278 -2.3947
0.68674 -1.67343 -2.54946
-0.87721 -1.295 -2.87276
-0.44565 -2.52931 -1.8623
-0.57048 -2.59496 -1.77097
-0.2034 -2.42904 -1.98721
0.30661 -2.68088 -1.76272
0.75565 -2.21585 -2.0382
0.16475 -3.35759 -1.17193
-0.7901 -1.51643 -2.67119
-0.1954 -2.81599 -1.66423
0.46141 -2.65426 -1.75161
0.63517 -1.76026 -2.48259
-0.63194 -2.72148 -1.63756
-0.97187 -3.02735 -1.13328
0.60017 -2.5377 -1.8111
-0.6843 -2.63913 -1.69071
0.77222 -3.20191 -1.08814
0.28877 -3.27317 -1.23325
-0.77959 -1.94033 -2.2759
-0.68286 -3.06762 -1.28719
-0.236 -3.41236 -1.10247
0.80182 -2.80837 -1.47872
-0.84099 -2.36641 -1.86871
0.23939 -3.21953 -1.29583
-0.76083 -3.12265 -1.18407
0.87354 -1.60039 -2.56229
-0.18673 -1.49596 -2.79881
0.91479 -1.34464 -2.80794
-0.90672 -1.55091 -2.59951
0.01663 -3.02677 -1.49336
-0.40814 -2.84458 -1.60014
-0.49903 -2.068 -2.24247
-0.64189 -2.34833 -1.96181
0.81666 -2.82423 -1.45517
0.96372 -2.2919 -1.87791
-0.77602 -1.42162 -2.77015
0.08831 -1.62194 -2.68581
-0.37138 -3.41841 -1.05784
0.78598 -2.88279 -1.41511
0.23104 -2.01327 -2.33214
-0.44985 -1.88656 -2.41039
0.97284 -2.82667 -1.3532
0.33162 -2.77981 -1.67372
-0.0467 -2.07128 -2.29409
-0.70636 -2.42561 -1.87156
0.54517 -1.27163 -2.97837
-0.07866 -1.70339 -2.61213
0.51839 -3.36677 -1.05357
-0.95528 -2.33465 -1.84253
-0.71603 -1.23747 -2.97878
-0.06546 -1.63481 -2.67467
-0.52353 -2.68155 -1.71029
-0.09789 -1.49649 -2.80282
0.85661 -2.7615 -1.49345
-0.19619 -1.41828 -2.87338
-0.02062 -1.34008 -2.95772
-0.29734 -3.37859 -1.12351
0.05682 -3.12161 -1.40725
0.63699 -3.01563 -1.36166
0.41634 -2.94787 -1.50611
0.57358 -1.35401 -2.88735
-0.09436 -1.61552 -2.6915
0.25135 -1.60369 -2.69234
-0.18459 -1.54374 -2.75365
-0.90613 -2.56189 -1.65629
0.41027 -2.81636 -1.62434
0.15001 -1.76481 -2.55412
-0.64716 -3.18037 -1.18978
-0.91414 -2.19403 -1.99218
0.73009 -1.56072 -2.64503
-0.45538 -1.36599 -2.8962
0.52209 -1.4717 -2.77964
0.51241 -3.28732 -1.14333
0.18922 -3.11845 -1.39852
-0.40983 -2.02806 -2.29473
-0.97508 -1.31232 -2.82227
0.80691 -2.16577 -2.06326
0.2772 -1.4692 -2.81705
0.753 -1.74355 -2.46495
-0.93943 -3.02156 -1.1669
0.18758 -2.4756 -1.9502
-0.0699 -3.33674 -1.2023
-0.2648 -2.85159 -1.62395
0.86295 -1.5255 -2.63953
-0.71489 -3.00436 -1.33371
0.69714 -2.95011 -1.39629
-0.52695 -1.89604 -2.38632
-0.7558 -1.3061 -2.8953
-0.96444 -2.2156 -1.94834
0.10025 -1.93753 -2.40603
0.05806 -3.47012 -1.06464
-0.00416 -1.99139 -2.36213
-0.75885 -1.2181 -2.98934
0.21704 -1.5925 -2.7057
0.59107 -2.9441 -1.45003
-0.88728 -2.15375 -2.04093
0.00899 -2.00836 -2.34771
0.47442 -2.57925 -1.81253
-0.02205 -3.13691 -1.39426
0.18587 -1.31274 -2.97974
0.74504 -2.39944 -1.87973
0.54233 -3.31463 -1.09975
-0.5702 -1.821 -2.44339
0.59797 -1.60632 -2.63462
-0.75041 -2.35542 -1.91664
-0.9957 -1.98834 -2.14489
0.71496 -2.26397 -2.01053
-0.76002 -1.79288 -2.41705
-0.48084 -2.69645 -1.70987
-0.78088 -2.03322 -2.19171
0.60556 -3.08783 -1.30534
-0.89597 -1.69841 -2.45968
0.76192 -2.12152 -2.11961
0.38504 -1.34345 -2.92919
0.08452 -3.5007 -1.02932
-0.20697 -2.1855 -2.18924
0.57373 -2.96351 -1.43881
-0.65945 -2.59672 -1.73824
-0.63137 -2.12367 -2.16022
-0.90479 -2.91437 -1.30938
-0.95918 -1.4565 -2.6762
-0.83944 -2.56312 -1.68994
-0.31214 -2.10702 -2.24292
-0.78929 -2.52101 -1.75217
0.52061 -2.18468 -2.13719
-0.9535 -2.28743 -1.88727
-0.11384 -2.87349 -1.62271
-0.574 -1.8113 -2.45122
0.10271 -2.53724 -1.90557
0.52381 -3.06092 -1.36611
-0.45893 -1.45379 -2.80826
-0.95402 -1.85328 -2.2901
0.14797 -2.72934 -1.74241
-0.86982 -2.09741 -2.09956
-0.9726 -1.54748 -2.57902
-0.05721 -2.64446 -1.81861
0.10711 -2.42749 -1.996
-0.65774 -1.69382 -2.53808
0.54822 -1.35687 -2.88935
-0.39451 -2.54316 -1.86211
-0.22801 -1.84141 -2.48075
0.45422 -2.75792 -1.6638
0.76258 -1.72173 -2.48238
-0.17307 -2.84734 -1.63992
0.46694 -1.95351 -2.34847
-0.97157 -2.76985 -1.41281
-0.22685 -1.60433 -2.69393
-0.61103 -3.1266 -1.26389
0.54354 -2.71651 -1.67336
-0.67621 -2.4559 -1.85612
0.15462 -2.77298 -1.70501
-0.74055 -2.93504 -1.38858
-0.96466 -1.59588 -2.53385
-0.95995 -3.11648 -1.03693
0.00483 -1.71928 -2.59906
-0.31458 -1.74867 -2.55353
-0.21173 -3.50923 -1.00118
-0.35129 -2.52172 -1.88877
0.21588 -2.97876 -1.52043
-0.43857 -2.78381 -1.64543
0.56271 -2.69022 -1.69019
0.87179 -3.04784 -1.18949
0.44184 -1.7259 -2.55522
0.09949 -3.48409 -1.04632
-0.45008 -2.05939 -2.2602
-0.01272 -2.5616 -1.88816
-0.79226 -2.05303 -2.16983
-0.24183 -2.89661 -1.58857
-0.28432 -2.68509 -1.7629
0.82439 -1.40244 -2.77579
0.25034 -2.34211 -2.05409
0.43694 -2.21072 -2.13375
-0.16305 -1.86503 -2.46527
0.02252 -1.49721 -2.80375
0.49739 -1.77529 -2.50025
0.42779 -3.32967 -1.1333
0.96957 -2.03015 -2.11788
-0.82013 -1.76464 -2.42367
-0.49338 -2.16478 -2.16065
-0.36197 -3.281 -1.20588
0.64049 -1.54176 -2.6864
0.2367 -1.67662 -2.6268
-0.27477 -3.30465 -1.20508
-0.51954 -2.54202 -1.83214
-0.65362 -3.26728 -1.09155
-0.36763 -2.27324 -2.09417
-0.36163 -2.81223 -1.63944
0.85272 -1.40953 -2.75993
-0.05207 -2.9865 -1.52802
-0.27311 -2.56876 -1.86236
-0.69082 -3.14018 -1.20783
0.19861 -1.55452 -2.74255
-0.0823 -3.14025 -1.38895
0.68548 -3.18375 -1.16447
0.47533 -2.77441 -1.64345
-0.20109 -1.9837 -2.36013
0.90694 -2.54289 -1.67373
-0.82891 -1.79168 -2.39542
-0.91391 -2.93032 -1.28616
-0.69296 -1.93318 -2.31016
-0.29294 -1.84492 -2.47084
-0.81828 -1.81508 -2.37734
0.4492 -2.75268 -1.66972
-0.93064 -1.17144 -2.99306
0.76605 -2.13604 -2.1052
-0.0394 -1.90601 -2.43489
0.63904 -1.68929 -2.54706
0.78409 -2.9055 -1.39382
-0.68433 -2.2929 -1.99587
0.42791 -1.89421 -2.40766
-0.51172 -1.57861 -2.67883
0.10103 -3.16791 -1.3622
-0.72481 -1.22938 -2.98545
-0.93197 -2.59323 -1.61201
0.76234 -3.02146 -1.28967
-0.34794 -3.21253 -1.27782
-0.84205 -2.99226 -1.27006
-0.51498 -3.14032 -1.2925
-0.18887 -3.41106 -1.11288
0.25724 -1.67939 -2.62235
-0.4603 -1.95903 -2.34497
0.89854 -1.94442 -2.22784
-0.37369 -1.34689 -2.92717
0.27174 -2.95748 -1.5303
0.3057 -2.54376 -1.87824
0.10366 -1.80487 -2.52105
0.17143 -2.04931 -2.30671
0.49109 -1.39993 -2.85619
-0.37466 -2.08104 -2.25545
0.96787 -1.19707 -2.95204
0.89421 -2.90896 -1.32226
0.68757 -2.11028 -2.15477
-0.02754 -3.36344 -1.17724
-0.16609 -1.39201 -2.90117
-0.17357 -2.0394 -2.31494
-0.81042 -2.88268 -1.40136
0.61066 -2.69249 -1.67144
0.53561 -3.10129 -1.32247
0.52603 -3.04554 -1.37994
0.49278 -2.38911 -1.96981
0.94738 -2.37429 -1.80976
0.23199 -3.45667 -1.0555
-0.50988 -1.68739 -2.57777
-0.81236 -2.71739 -1.55982
0.4068 -3.44312 -1.01678
-0.94323 -1.72933 -2.41222
-0.69397 -2.87776 -1.4672
-0.04641 -1.9786 -2.37257
-0.55404 -1.56855 -2.67996
0.65518 -1.29447 -2.93194
0.49551 -3.22433 -1.21616
-0.30234 -3.06143 -1.43104
-0.75712 -1.79664 -2.41449
-0.42015 -2.89151 -1.55551
0.52477 -2.99176 -1.4311
-0.62553 -2.58994 -1.7567
-0.08256 -2.11038 -2.26022
0.69619 -1.78383 -2.4445
-0.29021 -1.37989 -2.90346
0.07917 -2.18286 -2.19978
0.98988 -2.91732 -1.24305
5e-05 -2.34502 -2.06688
-0.38386 -3.02943 -1.44084
-0.91239 -1.29321 -2.86371
0.03208 -1.32682 -2.97103
0.2617 -1.44871 -2.83839
-0.21561 -1.54253 -2.75254
-0.32836 -2.06603 -2.27541
0.61243 -3.17491 -1.21369
0.16168 -1.35293 -2.94041
-0.80009 -2.17163 -2.06067
-0.54994 -1.52367 -2.72377
-0.15071 -1.60942 -2.69456
0.64258 -1.37834 -2.84788
0.26865 -2.00846 -2.33221
0.7133 -2.26072 -2.01397
-0.89128 -2.10176 -2.08657
0.0232 -2.15033 -2.22819
-0.23955 -2.42658 -1.98522
-0.35599 -2.10419 -2.23879
