ply
format ascii 1.0
comment Created by Open3D
element vertex 200
property double x
property double y
property double z
end_header
-1.70197 -0.580612 2.514
-2.69745 -0.782357 -1.44272
-3.37721 0.718016 -0.525082
-1.4313 -2.79023 0.395349
-1.55425 -2.59741 -1.019
-2.23366 -1.79934 -1.15484
-1.39983 -2.5828 1.10967
-0.759967 -3.09277 1.33168
-2.52109 -1.76182 0.964486
-3.38464 -1.00767 -0.29562
-3.94917 0.0985464 0.371058
-1.65822 -0.532055 2.55224
-1.38065 -2.89356 -0.205209
-1.00395 -3.14255 0.589931
-3.80745 0.00181819 -0.170021
-3.81004 0.0456993 0.971334
-1.37425 -2.86072 -0.70452
-2.13221 -2.24294 -0.114803
-2.27715 -2.11503 0.367869
-0.975398 -3.21863 0.41164
-1.43367 -2.50373 -1.59264
-3.04319 -0.0810192 1.73808
-1.80023 -1.04938 2.28988
-2.56699 -1.8765 -0.157582
-3.74619 0.423002 -0.0768159
-1.8579 -2.37013 0.689847
-2.13522 -1.28507 -1.83448
-3.37458 -0.64392 1.32043
-2.49738 -1.44367 1.47423
-3.02748 -0.644284 1.6244
-3.7335 -0.17584 -0.30648
-2.09264 -1.5163 -1.70492
-2.34831 -2.07534 0.172695
-1.54717 -2.08604 1.69023
-1.89339 -2.27423 0.892367
-3.13501 -0.345338 -1.09072
-3.89907 -0.159695 0.0572852
-3.39106 -0.275198 1.44632
-3.52172 0.134822 -0.621076
-3.10384 0.558267 -1.02463
-1.69529 -2.58337 -0.467083
-2.66532 -1.01694 1.69698
-2.36082 -1.36731 1.67279
-3.10003 -0.171258 1.69259
-1.9199 -2.21389 -1.01646
-0.813199 -3.18727 1.02063
-3.70207 -0.0802355 -0.368644
-1.27114 -2.75146 0.984778
-1.64459 -0.459682 2.57482
-3.57402 0.449453 -0.408324
-2.48981 -0.294817 2.08325
-3.13258 -0.800957 1.45221
-2.9214 -1.51195 -0.326825
-2.78961 -0.636637 -1.39937
-1.76492 -1.82527 -1.9009
-3.03348 0.911424 -0.887497
-2.541 -1.82635 -0.456814
-3.74075 -0.721941 0.625954
-2.58466 -1.10561 -1.38527
-2.74168 -0.920708 -1.31408
-3.69814 -0.688119 -0.0449803
-2.2056 -0.301361 2.25618
-1.72138 -1.85173 1.77579
-3.75395 -0.738793 0.426442
-1.94644 -2.05546 1.25867
-1.77232 -2.37555 0.87578
-1.09315 -3.01589 0.715591
-3.06255 -0.426021 -1.15507
-3.65173 -0.798216 0.00848819
-1.35632 -2.67844 0.979507
-2.84996 -0.610567 -1.33981
-3.8412 -0.496761 0.126011
-3.29406 -0.057926 -0.935377
-2.71544 -1.08792 -1.23132
-2.07083 -2.27711 -0.283925
-3.56477 -0.970409 0.154281
-1.86873 -2.45292 0.20611
-0.765047 -3.32818 0.806176
-2.33734 -1.18789 -1.64068
-3.17895 -0.775176 1.42684
-1.22013 -2.81942 0.931179
-3.32029 0.418877 -0.805602
-3.63061 -0.911363 0.433623
-3.49362 -0.426015 1.30622
-3.94024 -0.173732 0.218147
-3.93342 -0.0949557 0.167937
-3.79809 -0.626659 0.193662
-1.22104 -3.03949 -0.018122
-2.16319 -1.61726 -1.50101
-3.59105 -0.583091 1.11025
-1.60179 -2.63163 -0.700939
-2.20886 -0.941988 2.06532
-0.555779 -3.50679 0.997019
-3.37718 -1.00817 -0.310436
-3.20711 -0.281611 1.59782
-1.66725 -2.63346 -0.0271631
-2.47492 -1.78085 -0.730121
-1.79487 -2.10325 -1.49059
-3.14148 0.608268 -0.950044
-1.63135 -2.53455 -0.959458
-2.49053 -0.292163 2.08316
-2.09353 -2.22545 -0.466082
-1.42654 -2.08892 1.81562
-3.25203 -0.920078 -0.63442
-3.35245 -0.912637 -0.480031
-2.46941 -0.282203 2.09755
-3.46403 -0.998779 -0.125152
-2.12057 -1.77601 -1.37868
-3.82147 -0.60996 0.534785
-1.97101 -2.31659 0.557453
-1.18048 -3.08747 -0.134291
-3.00813 -1.45265 0.763901
-1.23263 -2.79929 0.952966
-2.75364 -1.48988 1.12524
-3.22431 -1.21011 -0.287495
-2.09514 -1.91138 -1.22828
-3.40236 0.0801508 -0.791498
-1.41092 -2.86352 -0.289889
-3.60319 -0.93059 0.547324
-3.57996 -0.433957 -0.477783
-2.48758 -1.60204 1.28819
-2.69883 -0.500775 1.90823
-3.70995 0.2599 -0.277127
-3.91418 0.241805 0.494512
-2.28349 -1.14912 -1.73573
-1.67835 -2.32771 1.15503
-1.97664 -2.32764 -0.475054
-3.08835 -0.0468066 -1.17894
-1.52156 -2.09168 1.71125
-3.29994 -0.519992 -0.832641
-3.11491 -0.0966581 -1.14716
-2.13807 -0.470406 2.26861
-3.14574 -0.401362 1.61912
-2.07905 -2.26755 0.371561
-0.946902 -3.12757 0.814919
-2.54317 -1.86823 -0.301035
-3.08244 -1.05487 1.2939
-2.83188 -1.50043 0.99204
-3.54911 0.0561748 1.30872
-3.08184 -1.47431 0.322096
-1.77372 -2.53556 -0.258218
-3.42321 -0.844021 1.10563
-2.89502 -1.02941 1.49801
-3.231 -1.3377 0.220278
-3.47773 -1.01698 -0.0446321
-2.4658 -1.39677 -1.29275
-2.06867 -0.86354 2.19247
-1.61476 -1.75437 1.96703
-0.547998 -3.34822 1.33414
-3.53065 -0.770046 -0.315984
-3.17777 -1.24968 0.892893
-2.60912 -0.846314 -1.51509
-3.56752 -0.131257 1.29635
-3.965 -0.110225 0.387075
-3.35448 -0.106948 -0.859256
-3.10038 -0.349854 -1.13029
-3.81113 0.251129 -0.0644739
-3.56353 -0.591693 -0.414046
-2.00473 -2.1948 0.874666
-2.67033 -1.51848 -0.829127
-2.2431 -1.36993 1.7684
-3.68615 -0.413045 1.08346
-2.04404 -2.20295 -0.717871
-3.00559 -0.884433 -1.00696
-2.3026 -1.80984 -1.01426
-3.91335 -0.392803 0.326797
-1.72348 -2.11647 1.44803
-3.83892 0.145296 0.881648
-3.4718 -1.09349 0.237355
-2.51963 -0.444817 2.03773
-2.04625 -2.31794 0.0067452
-3.52075 -0.30528 1.31674
-3.58827 -0.529256 -0.413972
-1.7941 -2.50113 -0.412957
-1.70682 -2.56444 -0.521789
-3.52366 -0.475501 1.25338
-3.75486 -0.0561716 -0.276436
-3.18625 0.70417 -0.82943
-1.27152 -2.2931 -2.30905
-3.48545 -1.08358 0.310342
-3.87014 0.289742 0.673333
-1.43433 -2.47768 -1.64077
-3.9169 -0.386086 0.344064
-1.67784 -2.27477 -1.44447
-2.66353 -0.800405 1.82081
-1.16455 -2.50676 1.60325
-3.20937 -1.10551 -0.491682
-2.64977 -1.31769 1.46083
-3.25137 -0.0496223 -0.987231
-2.57605 -1.04923 -1.43557
-3.21733 -0.425722 -0.97058
-3.19208 -0.469689 -0.987067
-3.7249 -0.228442 -0.311391
-2.21717 -1.85688 -1.09302
-1.94805 -2.3639 0.408842
-3.19943 -1.15629 1.0219
-2.73037 -0.686641 -1.44751
-1.92786 -1.52095 1.90093
-3.45715 -0.138934 1.40434
-3.80828 -0.252179 -0.143697
