ply
format ascii 1.0
comment Created by Open3D
element vertex 400
property double x
property double y
property double z
end_header
-3.07623 0.213546 0.445846
-3.01547 0.185867 -0.867773
-3.0395 0.61567 -0.74169
-2.9631 0.936588 0.204768
-3.02148 0.459949 -0.997731
-3.20871 -1.01309 0.943809
-3.02477 0.419012 -0.919418
-3.09098 -0.558809 -0.092309
-3.00849 -0.622914 -0.443884
-3.14658 -0.261775 0.511355
-3.17576 -1.00874 0.584303
-3.07711 0.256446 0.283756
-2.94996 0.265804 -1.54082
-3.0471 0.590889 -0.318341
-3.02098 0.478011 -1.0224
-3.0339 0.677436 -0.978424
-2.96674 0.872381 0.265311
-3.01972 0.213028 0.898318
-3.03203 0.270645 -0.755395
-2.91982 -0.160582 -1.20457
-3.07648 0.195968 0.489628
-3.09301 -1.1617 0.267503
-3.05493 0.455416 -0.378864
-3.08543 -0.847434 0.019016
-3.1078 -0.423212 -0.0295623
-3.07965 0.26101 0.03729
-2.97637 -0.0216222 -1.00344
-3.03462 0.179064 -0.695096
-2.97792 -1.22452 -0.0855796
-3.0422 -0.429294 -0.399534
-3.09522 0.123933 0.0991732
-2.94907 1.30577 -0.10096
-3.07683 -0.77819 -0.0586001
-3.02688 0.601975 0.177045
-2.97386 0.259261 1.04436
-3.1865 -0.629695 0.716655
-2.95668 -0.645021 -0.636341
-3.02513 -0.213585 -0.594525
-3.12953 -0.907317 0.260923
-3.20994 -0.986556 1.03844
-3.10864 -0.949224 0.183936
-3.0401 0.520313 -0.716677
-3.0299 0.457505 -0.872025
-3.06109 0.294471 0.447071
-3.05599 -0.363248 1.41371
-3.17253 -0.709972 0.477278
-3.08017 0.131416 -0.201744
-3.03939 0.678232 -0.748208
-3.12907 -0.124333 0.481337
-3.14019 -1.25728 0.559363
-2.96795 -0.473748 -0.716228
-3.08589 0.13335 -0.10938
-3.1073 -0.044408 0.048792
-3.05342 0.382792 0.332022
-3.01501 0.991093 -0.357157
-3.02637 0.944447 -0.483073
-3.00309 0.952404 -0.158946
-3.20947 -1.17636 1.11861
-3.0776 0.159251 0.566001
-3.16642 -0.428174 0.616646
-3.10731 -0.289941 1.11358
-2.96065 1.15389 -0.0343239
-3.12804 -0.140013 0.295577
-3.06709 0.327088 0.257448
-3.17839 -0.531976 0.742524
-3.01425 0.853102 -0.144638
-3.12526 -0.957604 0.267596
-3.07268 -0.118689 1.07529
-3.09078 -0.873917 0.0582832
-3.07063 -0.0641603 1.01232
-3.08996 0.110459 -0.0635211
-3.20587 -1.16936 0.982687
-2.99693 -0.17754 -0.77332
-2.9421 -0.553549 -0.764229
-3.19342 -0.711092 0.967928
-3.0241 0.853198 -0.300552
-3.13148 -1.48888 0.77268
-3.08986 -1.41872 0.497765
-3.07748 -0.489586 -0.190636
-2.98767 -0.585642 -0.555062
-3.203 -0.844079 0.865151
-3.06453 -0.273484 -0.338304
-3.04627 0.320764 0.547534
-3.16596 -0.753706 0.426004
-3.20256 -1.30249 1.20596
-3.12807 -0.686747 0.158693
-3.01437 0.493997 -1.14101
-2.97256 -0.112971 -0.955171
-3.00479 -1.68436 0.525523
-3.04704 0.548799 -0.514491
-3.14964 -0.462036 0.300094
-2.93765 0.0832875 -1.36691
-2.93548 -0.521355 -0.816605
-3.1248 -0.255634 0.940806
-3.01577 0.344343 -0.972297
-2.93149 -0.82334 -0.58697
-3.07081 0.0729959 0.799376
-2.93277 1.49959 -0.150447
-3.172 -0.489947 0.837433
-3.1711 -0.470745 0.780585
-3.20994 -0.988311 1.04737
-3.11843 -0.346378 0.043312
-3.09915 -0.160286 0.979074
-3.16505 -1.27253 0.710691
-3.10612 -0.415282 1.27036
-2.97422 0.226832 1.08089
-3.11902 -0.361 0.0472001
-2.97618 -0.828781 -0.424381
-2.95808 -0.00867056 1.38043
-2.97044 -0.517859 -0.674139
-3.03913 -0.455991 -0.401631
-3.09689 -0.496859 1.39149
-3.19349 -0.80028 0.69888
-3.06221 0.250824 -0.395356
-2.98573 0.373619 0.850099
-3.03029 -0.512985 1.61297
-2.97439 -0.413805 -0.730125
-3.20223 -0.812035 0.911045
-3.13631 -0.613112 0.190998
-3.07413 0.191629 -0.250291
-2.98603 -0.0475835 -0.923614
-2.94705 1.40916 -0.168599
-3.10534 -0.0183829 0.648627
-3.08718 -0.00860472 0.815385
-3.12276 -0.0770895 0.364741
-3.1421 -0.675886 0.242274
-3.00807 -0.62315 -0.4455
-3.20285 -1.20933 0.976334
-2.96109 1.13607 -0.0186949
-3.16799 -0.437711 0.714049
-3.11542 -0.777591 0.125059
-3.00015 -0.087968 -0.810298
-3.08231 -0.0951109 0.988809
-2.94201 -0.259819 1.63425
-3.07507 -0.787684 -0.0610843
-3.06166 0.00966317 0.958083
-3.03352 -1.60293 0.510843
-3.18652 -1.22415 0.815769
-2.98132 0.719038 0.383468
-3.07932 -0.40736 1.37307
-3.19247 -0.988068 1.32182
-3.03143 -1.2318 0.0978526
-2.99468 0.34582 0.84352
-3.19284 -1.13112 0.792576
-3.04531 -0.431302 1.50728
-2.94346 -0.136736 -1.09864
-3.03686 0.783463 -0.519387
-2.93632 0.0847958 -1.3785
-2.93479 1.16545 0.116848
-3.19621 -0.778464 0.754946
-3.14289 -0.333621 0.910819
-3.04796 0.440102 0.265632
-3.04773 0.260625 0.647145
-3.02599 -1.262 0.107064
-2.9485 -0.888448 -0.474458
-2.96403 1.22299 -0.125536
-3.04604 0.46949 -0.59438
-3.16519 -0.91768 1.44289
-3.03907 -1.28961 0.178068
-3.07267 -0.00393495 -0.322805
-3.0384 0.580007 0.056177
-2.95561 -1.42464 0.0488332
-3.14912 -0.787536 0.318554
-3.08678 0.144427 -0.0783831
-3.03856 0.222447 0.776497
-3.0052 0.467877 -1.23886
-3.05153 0.509991 -0.398749
-3.12565 -1.52316 0.790043
-2.95371 0.429425 0.921545
-2.98134 1.37696 -0.364345
-3.04726 0.566217 -0.473643
-3.1055 -0.115438 0.855822
-3.04007 0.722384 -0.583946
-3.0087 -1.23974 0.0283103
-3.03466 0.866277 -0.588823
-3.039 0.823401 -0.794239
-3.18347 -0.917289 1.33779
-3.20239 -0.897358 0.817002
-3.09521 -1.2774 0.376565
-3.14944 -1.01528 0.426483
-2.99909 0.361088 -1.17225
-3.04552 0.604713 -0.471267
-3.03775 0.366594 -0.722056
-3.03871 0.73548 -0.47443
-2.9827 0.187931 1.09353
-3.14005 -0.886115 0.305905
-3.05394 0.288582 -0.500728
-3.09016 -0.537684 1.45291
-2.9601 0.54547 0.74732
-2.97391 0.0259034 -1.05841
-3.01382 1.08711 -0.443103
-3.00615 0.284797 -1.02314
-3.13294 -1.43432 0.709666
-3.19398 -0.993764 0.726166
-3.05667 0.423129 0.156459
-2.9236 1.44446 -0.0654893
-2.99038 -0.621827 -0.519317
-3.03084 0.477915 -0.869935
-2.97586 -0.171751 -0.893151
-2.96169 -0.263053 1.59161
-3.12951 -0.395339 0.130061
-3.20959 -1.01779 1.11665
-3.16468 -0.426578 0.801062
-2.94512 -0.0531828 -1.16721
-3.06748 -0.329821 1.34083
-3.07337 -1.26986 0.283958
-3.02809 0.61775 0.12747
-2.97084 1.32903 -0.260169
-2.94435 0.548332 0.815592
-3.07136 0.163363 -0.305137
-3.20656 -1.24379 1.16169
-3.0784 0.188312 -0.182428
-2.97511 1.42221 -0.349032
-3.03929 0.40313 -0.71007
-3.10712 -1.16498 0.329085
-2.96609 0.570992 0.683812
-3.08021 0.163318 -0.176032
-3.10546 -0.718826 0.0478944
-3.20402 -0.855733 0.886917
-3.03524 0.70207 -0.96493
-3.02583 -0.786678 -0.266968
-3.12144 -1.49093 0.723955
-3.01538 0.714387 0.0919973
-2.9988 0.0913214 -0.936979
-3.0208 0.31123 0.75001
-2.92263 0.782341 0.625791
-3.02253 -0.632273 -0.378833
-2.97687 0.8495 0.22533
-3.11574 -0.153285 0.833295
-2.98748 0.631411 0.472921
-3.10644 -1.31944 0.463049
-2.94021 1.01418 0.252911
-2.99893 -0.539714 -0.537804
-3.02121 0.520606 -1.06513
-3.20321 -1.29545 1.17593
-3.09341 0.14822 0.14448
-3.11291 -1.16804 0.356662
-3.06528 0.0370616 0.895542
-3.02917 0.464721 0.428171
-2.98664 -0.162712 1.44228
-2.92226 1.28809 0.0683927
-3.00737 0.156984 1.03016
-3.07587 0.288666 0.152766
-3.02159 0.173692 0.942532
-3.05602 -0.391872 -0.344382
-2.95196 0.474146 0.874306
-3.17929 -0.544893 0.705887
-3.01406 0.725839 0.0859193
-3.14154 -0.388462 0.243208
-3.13038 -1.21779 0.477015
-3.01372 1.00175 -0.352722
-2.92981 0.893004 0.456184
-3.162 -0.598096 0.388834
-2.96771 0.616131 0.613981
-2.91788 1.2035 0.171962
-3.15587 -0.372471 0.453379
-3.12788 -0.291483 0.140007
-2.99241 0.887222 0.0429624
-3.00253 0.37859 -1.15389
-3.115 -0.0615643 0.619486
-3.05623 0.480897 -0.158443
-3.12663 -0.868242 0.225878
-2.97275 -0.1589 -0.91955
-3.17297 -0.481331 0.726089
-3.04196 -0.132696 -0.527656
-2.95759 0.00848374 1.36552
-3.03933 0.705207 -0.384393
-3.10455 -0.499292 1.36342
-3.10411 -0.905916 0.137234
-3.04906 0.178263 0.778043
-3.16642 -0.643318 0.424652
-3.05726 -0.249582 1.29688
-2.92016 1.1511 0.213133
-2.9369 -0.360988 1.71856
-3.05353 0.436475 -0.443305
-3.04211 0.624872 -0.179988
-3.18934 -1.10431 1.40374
-3.11869 -0.0680755 0.564875
-3.18141 -0.881815 0.576515
-3.13195 -0.259074 0.879306
-3.09742 -0.897911 0.102119
-2.99624 -1.54562 0.312726
-3.02721 0.102232 -0.727088
-3.20348 -1.28924 1.14853
-3.05441 0.41866 0.21785
-3.14646 -0.327726 0.345714
-2.98601 0.618612 0.501812
-3.1715 -0.48302 0.82502
-3.1452 -0.26005 0.66214
-2.95445 0.103743 -1.26961
-3.10858 -0.321027 -0.0330071
-3.072 -0.347448 -0.270478
-3.06198 0.415414 -0.184826
-3.04124 0.637346 -0.669194
-3.02326 0.0107722 -0.714188
-3.1558 -1.40068 0.795692
-2.9331 -0.641725 -0.729455
-2.96158 0.909434 0.250404
-3.05854 0.346807 0.350937
-3.1727 -0.781609 1.29351
-2.98976 0.119425 -1.02521
-3.04298 0.307718 -0.642462
-3.18886 -0.855493 1.24408
-3.093 0.0124303 0.72231
-3.08216 -0.625686 1.55004
-3.08823 0.170419 0.349489
-3.14781 -0.330684 0.842106
-2.94825 0.0722359 -1.27816
-3.19225 -0.692421 0.766059
-3.13328 -0.160082 0.546318
-3.07451 -0.477691 1.45466
-3.03849 0.453577 -0.734453
-3.20263 -0.817455 0.933845
-3.07466 -1.49435 0.524932
-3.1239 -0.901589 0.229371
-3.07155 0.330407 -0.0460229
-2.9816 -1.07588 -0.206723
-2.96073 0.887998 0.284258
-2.9815 -0.175848 1.46831
-3.00049 0.678487 0.301507
-3.0517 0.5201 -0.10582
-2.96449 0.859741 0.297481
-3.12711 -0.859112 0.223848
-2.94475 1.56887 -0.252748
-2.99901 -0.557099 -0.526259
-3.06948 0.2923 -0.23658
-2.99555 -0.0229845 -0.880755
-3.04008 -1.31028 0.201405
-3.03262 0.335379 0.632409
-3.04188 -0.0458531 -0.559303
-3.01046 0.911951 -0.188269
-3.20327 -0.974294 0.831416
-2.98033 1.39055 -0.365517
-2.97355 0.168392 1.14961
-3.04843 -1.40495 0.326839
-3.17516 -0.721324 1.21339
-3.01392 -0.265681 1.45652
-3.13448 -0.559764 1.28806
-3.19891 -1.01554 1.28264
-3.04179 0.289584 -0.653376
-3.04339 0.518451 0.132511
-2.95023 -0.493654 -0.777074
-3.02222 1.05438 -0.525901
-3.17334 -0.905739 0.521441
-3.12683 -0.548923 0.116597
-3.05889 0.284791 -0.431389
-3.08017 0.00748068 -0.249919
-3.00953 0.380877 -1.07538
-3.06636 0.35213 0.17772
-2.93386 0.193098 -1.56187
-2.99192 -1.42565 0.161048
-3.01585 -0.46394 -0.50843
-3.21075 -1.07363 1.11257
-3.03574 0.872023 -0.637137
-3.07898 0.260503 -0.0150375
-3.02927 -0.167607 1.31371
-3.08576 -0.942327 0.0787232
-3.12807 -1.26814 0.510677
-3.12929 -1.20476 0.460841
-3.08222 -0.558098 -0.138798
-2.95857 -0.952164 -0.387634
-3.19059 -1.36463 1.03654
-3.01592 0.80573 -0.0846504
-3.02444 -0.00435974 1.15321
-3.15363 -1.50082 0.925519
-2.92852 1.00841 0.325519
-3.07235 -0.214569 1.19599
-3.07674 0.229802 -0.164168
-3.00415 0.94747 -0.16394
-2.98852 0.355453 -1.28202
-3.1399 -1.35446 0.653707
-3.17666 -0.601408 1.02898
-2.97772 0.84429 0.22644
-3.14452 -0.370909 0.965091
-3.12743 -1.1514 0.409262
-3.07354 0.0256965 0.858937
-3.09048 0.133299 -0.0165413
-2.98988 -0.161946 -0.822616
-3.02879 0.966994 -0.556576
-3.09899 -0.0475216 -0.0644416
-2.94183 -1.53709 0.137184
-3.11968 -0.139105 0.139035
-3.16096 -0.522865 1.06573
-2.93939 1.43041 -0.140093
-3.03904 0.799421 -0.844789
-3.03144 0.50979 -0.87989
-3.03707 0.757464 -0.452546
-3.06986 0.336876 0.127496
-3.10321 -1.41366 0.547557
-3.03585 0.679415 -0.908065
-2.99269 0.510269 0.621229
-3.00339 0.988916 -0.211184
-3.04337 0.649138 -0.436002
-2.98839 0.280397 -1.18914
-3.06932 -0.0280892 -0.351839
-3.02266 -0.627754 -0.381004
-2.9616 0.622635 0.637825
-3.09608 0.0225251 -0.0553349
-3.11961 -0.0512926 0.390067
-3.07095 0.319023 0.184423
