ply
format ascii 1.0
comment Created by Open3D
element vertex 400
property double x
property double y
property double z
end_header
-0.46626 -2.05907 2.29137
0.48218 -2.65908 1.60544
0.08911 -2.82793 1.47057
-0.80706 -2.46114 1.72932
0.38027 -2.86535 1.40767
0.04899 -1.29045 3.24735
0.35384 -2.80805 1.46962
0.46041 -1.9524 2.4189
0.75434 -2.03781 2.21684
-0.17648 -1.8384 2.61153
0.30012 -1.44908 3.04212
-0.38198 -2.16219 2.1895
0.90157 -2.98925 1.18263
-0.19272 -2.60924 1.70001
0.38494 -2.88636 1.38595
0.21283 -2.97322 1.31736
-0.80447 -2.40134 1.79427
-0.78584 -1.79262 2.47791
0.34277 -2.65699 1.63095
0.96531 -2.58662 1.54263
-0.48479 -2.02857 2.32223
0.63229 -1.47249 2.90169
-0.05413 -2.5773 1.74302
0.58578 -1.7485 2.61495
0.32016 -2.00072 2.39437
-0.21093 -2.2895 2.06578
0.72483 -2.59552 1.6137
0.36489 -2.58288 1.70872
0.92638 -1.53624 2.67518
0.58607 -2.13628 2.16604
-0.15776 -2.20103 2.17627
-0.85193 -2.78867 1.38194
0.5917 -1.81585 2.53544
-0.55085 -2.35279 1.92786
-0.9218 -1.71029 2.49539
-0.06149 -1.58002 2.92637
0.90606 -2.08635 2.09503
0.57142 -2.32956 1.94862
0.45707 -1.62879 2.79703
-0.03669 -1.25727 3.28227
0.54114 -1.63156 2.76472
0.13885 -2.76817 1.53118
0.29311 -2.80723 1.4777
-0.52435 -2.08822 2.24082
-0.74279 -1.27243 3.04939
0.16454 -1.64969 2.83694
0.04973 -2.34459 2.01143
0.04948 -2.86239 1.43595
-0.25244 -1.90975 2.51542
0.4935 -1.31213 3.12877
0.84144 -2.2199 1.97742
-0.01695 -2.30342 2.06069
-0.0031 -2.15059 2.24379
-0.50545 -2.18448 2.13371
-0.44826 -2.80606 1.45781
-0.32624 -2.85373 1.42621
-0.56106 -2.67918 1.56783
0.04083 -1.12195 3.41692
-0.51283 -1.97282 2.37957
-0.13327 -1.71659 2.76141
-0.5824 -1.49544 2.89896
-0.79165 -2.6876 1.49939
-0.11 -1.99406 2.42965
-0.41333 -2.20358 2.13394
-0.14888 -1.61021 2.88471
-0.50096 -2.63027 1.63253
0.48791 -1.59729 2.82249
-0.67642 -1.57572 2.7697
0.57674 -1.71941 2.65161
-0.67045 -1.63302 2.7095
-0.03319 -2.27192 2.09794
0.132 -1.19087 3.34292
0.67236 -2.41704 1.82126
0.93181 -2.18572 1.97504
-0.18161 -1.41858 3.0976
-0.39078 -2.71524 1.56149
0.50643 -1.08351 3.34507
0.65121 -1.22662 3.1431
0.48099 -2.02663 2.32558
0.8066 -2.09731 2.12789
-0.0149 -1.41025 3.11948
0.4326 -2.19936 2.13454
-0.61398 -2.04065 2.26742
0.23172 -1.64882 2.82853
0.06826 -1.01033 3.51878
0.37339 -1.78916 2.6346
0.45751 -2.94899 1.31398
0.75529 -2.52302 1.68082
0.81942 -1.01977 3.22965
-0.02426 -2.68623 1.62294
0.11451 -1.84607 2.6082
0.90766 -2.80233 1.35213
0.94608 -2.22332 1.92807
-0.48449 -1.61135 2.80779
0.44403 -2.79079 1.47415
0.99724 -1.95469 2.19106
-0.61686 -1.8082 2.53458
-0.95399 -2.8988 1.24876
-0.24571 -1.57925 2.90663
-0.21909 -1.61664 2.86797
-0.04176 -1.25193 3.28761
0.2143 -2.01022 2.39991
-0.57897 -1.62175 2.76111
0.39728 -1.24642 3.22964
-0.60463 -1.35354 3.03918
-0.9247 -1.67606 2.53012
0.22189 -2.00138 2.40958
0.88612 -1.90228 2.30668
-0.96998 -1.39713 2.78623
0.84287 -2.17856 2.02228
0.60643 -2.12181 2.17617
-0.6326 -1.24566 3.13401
0.0717 -1.50856 3.00772
0.1022 -2.4884 1.84222
-0.8653 -1.87299 2.34947
-0.77781 -1.07976 3.20572
0.80888 -2.26137 1.94505
-0.07001 -1.40278 3.12586
0.29848 -1.81565 2.61976
0.04148 -2.3947 1.95278
0.68674 -2.54946 1.67343
-0.87721 -2.87276 1.295
-0.44565 -1.8623 2.52931
-0.57048 -1.77097 2.59496
-0.2034 -1.98721 2.42904
0.30661 -1.76272 2.68088
0.75565 -2.0382 2.21585
0.16475 -1.17193 3.35759
-0.7901 -2.67119 1.51643
-0.1954 -1.66423 2.81599
0.46141 -1.75161 2.65426
0.63517 -2.48259 1.76026
-0.63194 -1.63756 2.72148
-0.97187 -1.13328 3.02735
0.60017 -1.8111 2.5377
-0.6843 -1.69071 2.63913
0.77222 -1.08814 3.20191
0.28877 -1.23325 3.27317
-0.77959 -2.2759 1.94033
-0.68286 -1.28719 3.06762
-0.236 -1.10247 3.41236
0.80182 -1.47872 2.80837
-0.84099 -1.86871 2.36641
0.23939 -1.29583 3.21953
-0.76083 -1.18407 3.12265
0.87354 -2.56229 1.60039
-0.18673 -2.79881 1.49596
0.91479 -2.80794 1.34464
-0.90672 -2.59951 1.55091
0.01663 -1.49336 3.02677
-0.40814 -1.60014 2.84458
-0.49903 -2.24247 2.068
-0.64189 -1.96181 2.34833
0.81666 -1.45517 2.82423
0.96372 -1.87791 2.2919
-0.77602 -2.77015 1.42162
0.08831 -2.68581 1.62194
-0.37138 -1.05784 3.41841
0.78598 -1.41511 2.88279
0.23104 -2.33214 2.01327
-0.44985 -2.41039 1.88656
0.97284 -1.3532 2.82667
0.33162 -1.67372 2.77981
-0.0467 -2.29409 2.07128
-0.70636 -1.87156 2.42561
0.54517 -2.97837 1.27163
-0.07866 -2.61213 1.70339
0.51839 -1.05357 3.36677
-0.95528 -1.84253 2.33465
-0.71603 -2.97878 1.23747
-0.06546 -2.67467 1.63481
-0.52353 -1.71029 2.68155
-0.09789 -2.80282 1.49649
0.85661 -1.49345 2.7615
-0.19619 -2.87338 1.41828
-0.02062 -2.95772 1.34008
-0.29734 -1.12351 3.37859
0.05682 -1.40725 3.12161
0.63699 -1.36166 3.01563
0.41634 -1.50611 2.94787
0.57358 -2.88735 1.35401
-0.09436 -2.6915 1.61552
0.25135 -2.69234 1.60369
-0.18459 -2.75365 1.54374
-0.90613 -1.65629 2.56189
0.41027 -1.62434 2.81636
0.15001 -2.55412 1.76481
-0.64716 -1.18978 3.18037
-0.91414 -1.99218 2.19403
0.73009 -2.64503 1.56072
-0.45538 -2.8962 1.36599
0.52209 -2.77964 1.4717
0.51241 -1.14333 3.28732
0.18922 -1.39852 3.11845
-0.40983 -2.29473 2.02806
-0.97508 -2.82227 1.31232
0.80691 -2.06326 2.16577
0.2772 -2.81705 1.4692
0.753 -2.46495 1.74355
-0.93943 -1.1669 3.02156
0.18758 -1.9502 2.4756
-0.0699 -1.2023 3.33674
-0.2648 -1.62395 2.85159
0.86295 -2.63953 1.5255
-0.71489 -1.33371 3.00436
0.69714 -1.39629 2.95011
-0.52695 -2.38632 1.89604
-0.7558 -2.8953 1.3061
-0.96444 -1.94834 2.2156
0.10025 -2.40603 1.93753
0.05806 -1.06464 3.47012
-0.00416 -2.36213 1.99139
-0.75885 -2.98934 1.2181
0.21704 -2.7057 1.5925
0.59107 -1.45003 2.9441
-0.88728 -2.04093 2.15375
0.00899 -2.34771 2.00836
0.47442 -1.81253 2.57925
-0.02205 -1.39426 3.13691
0.18587 -2.97974 1.31274
0.74504 -1.87973 2.39944
0.54233 -1.09975 3.31463
-0.5702 -2.44339 1.821
0.59797 -2.63462 1.60632
-0.75041 -1.91664 2.35542
-0.9957 -2.14489 1.98834
0.71496 -2.01053 2.26397
-0.76002 -2.41705 1.79288
-0.48084 -1.70987 2.69645
-0.78088 -2.19171 2.03322
0.60556 -1.30534 3.08783
-0.89597 -2.45968 1.69841
0.76192 -2.11961 2.12152
0.38504 -2.92919 1.34345
0.08452 -1.02932 3.5007
-0.20697 -2.18924 2.1855
0.57373 -1.43881 2.96351
-0.65945 -1.73824 2.59672
-0.63137 -2.16022 2.12367
-0.90479 -1.30938 2.91437
-0.95918 -2.6762 1.4565
-0.83944 -1.68994 2.56312
-0.31214 -2.24292 2.10702
-0.78929 -1.75217 2.52101
0.52061 -2.13719 2.18468
-0.9535 -1.88727 2.28743
-0.11384 -1.62271 2.87349
-0.574 -2.45122 1.8113
0.10271 -1.90557 2.53724
0.52381 -1.36611 3.06092
-0.45893 -2.80826 1.45379
-0.95402 -2.2901 1.85328
0.14797 -1.74241 2.72934
-0.86982 -2.09956 2.09741
-0.9726 -2.57902 1.54748
-0.05721 -1.81861 2.64446
0.10711 -1.996 2.42749
-0.65774 -2.53808 1.69382
0.54822 -2.88935 1.35687
-0.39451 -1.86211 2.54316
-0.22801 -2.48075 1.84141
0.45422 -1.6638 2.75792
0.76258 -2.48238 1.72173
-0.17307 -1.63992 2.84734
0.46694 -2.34847 1.95351
-0.97157 -1.41281 2.76985
-0.22685 -2.69393 1.60433
-0.61103 -1.26389 3.1266
0.54354 -1.67336 2.71651
-0.67621 -1.85612 2.4559
0.15462 -1.70501 2.77298
-0.74055 -1.38858 2.93504
-0.96466 -2.53385 1.59588
-0.95995 -1.03693 3.11648
0.00483 -2.59906 1.71928
-0.31458 -2.55353 1.74867
-0.21173 -1.00118 3.50923
-0.35129 -1.88877 2.52172
0.21588 -1.52043 2.97876
-0.43857 -1.64543 2.78381
0.56271 -1.69019 2.69022
0.87179 -1.18949 3.04784
0.44184 -2.55522 1.7259
0.09949 -1.04632 3.48409
-0.45008 -2.2602 2.05939
-0.01272 -1.88816 2.5616
-0.79226 -2.16983 2.05303
-0.24183 -1.58857 2.89661
-0.28432 -1.7629 2.68509
0.82439 -2.77579 1.40244
0.25034 -2.05409 2.34211
0.43694 -2.13375 2.21072
-0.16305 -2.46527 1.86503
0.02252 -2.80375 1.49721
0.49739 -2.50025 1.77529
0.42779 -1.1333 3.32967
0.96957 -2.11788 2.03015
-0.82013 -2.42367 1.76464
-0.49338 -2.16065 2.16478
-0.36197 -1.20588 3.281
0.64049 -2.6864 1.54176
0.2367 -2.6268 1.67662
-0.27477 -1.20508 3.30465
-0.51954 -1.83214 2.54202
-0.65362 -1.09155 3.26728
-0.36763 -2.09417 2.27324
-0.36163 -1.63944 2.81223
0.85272 -2.75993 1.40953
-0.05207 -1.52802 2.9865
-0.27311 -1.86236 2.56876
-0.69082 -1.20783 3.14018
0.19861 -2.74255 1.55452
-0.0823 -1.38895 3.14025
0.68548 -1.16447 3.18375
0.47533 -1.64345 2.77441
-0.20109 -2.36013 1.9837
0.90694 -1.67373 2.54289
-0.82891 -2.39542 1.79168
-0.91391 -1.28616 2.93032
-0.69296 -2.31016 1.93318
-0.29294 -2.47084 1.84492
-0.81828 -2.37734 1.81508
0.4492 -1.66972 2.75268
-0.93064 -2.99306 1.17144
0.76605 -2.1052 2.13604
-0.0394 -2.43489 1.90601
0.63904 -2.54706 1.68929
0.78409 -1.39382 2.9055
-0.68433 -1.99587 2.2929
0.42791 -2.40766 1.89421
-0.51172 -2.67883 1.57861
0.10103 -1.3622 3.16791
-0.72481 -2.98545 1.22938
-0.93197 -1.61201 2.59323
0.76234 -1.28967 3.02146
-0.34794 -1.27782 3.21253
-0.84205 -1.27006 2.99226
-0.51498 -1.2925 3.14032
-0.18887 -1.11288 3.41106
0.25724 -2.62235 1.67939
-0.4603 -2.34497 1.95903
0.89854 -2.22784 1.94442
-0.37369 -2.92717 1.34689
0.27174 -1.5303 2.95748
0.3057 -1.87824 2.54376
0.10366 -2.52105 1.80487
0.17143 -2.30671 2.04931
0.49109 -2.85619 1.39993
-0.37466 -2.25545 2.08104
0.96787 -2.95204 1.19707
0.89421 -1.32226 2.90896
0.68757 -2.15477 2.11028
-0.02754 -1.17724 3.36344
-0.16609 -2.90117 1.39201
-0.17357 -2.31494 2.0394
-0.81042 -1.40136 2.88268
0.61066 -1.67144 2.69249
0.53561 -1.32247 3.10129
0.52603 -1.37994 3.04554
0.49278 -1.96981 2.38911
0.94738 -1.80976 2.37429
0.23199 -1.0555 3.45667
-0.50988 -2.57777 1.68739
-0.81236 -1.55982 2.71739
0.4068 -1.01678 3.44312
-0.94323 -2.41222 1.72933
-0.69397 -1.4672 2.87776
-0.04641 -2.37257 1.9786
-0.55404 -2.67996 1.56855
0.65518 -2.93194 1.29447
0.49551 -1.21616 3.22433
-0.30234 -1.43104 3.06143
-0.75712 -2.41449 1.79664
-0.42015 -1.55551 2.89151
0.52477 -1.4311 2.99176
-0.62553 -1.7567 2.58994
-0.08256 -2.26022 2.11038
0.69619 -2.4445 1.78383
-0.29021 -2.90346 1.37989
0.07917 -2.19978 2.18286
0.98988 -1.24305 2.91732
5e-05 -2.06688 2.34502
-0.38386 -1.44084 3.02943
-0.91239 -2.86371 1.29321
0.03208 -2.97103 1.32682
0.2617 -2.83839 1.44871
-0.21561 -2.75254 1.54253
-0.32836 -2.27541 2.06603
0.61243 -1.21369 3.17491
0.16168 -2.94041 1.35293
-0.80009 -2.06067 2.17163
-0.54994 -2.72377 1.52367
-0.15071 -2.69456 1.60942
0.64258 -2.84788 1.37834
0.26865 -2.33221 2.00846
0.7133 -2.01397 2.26072
-0.89128 -2.08657 2.10176
0.0232 -2.22819 2.15033
-0.23955 -1.98522 2.42658
-0.35599 -2.23879 2.10419
