ply
format ascii 1.0
comment Created by Open3D
element vertex 400
property double x
property double y
property double z
end_header
2.42924 -1.66566 -1.51442
2.61273 0.591819 -1.76067
2.72182 -1.40758 -1.2862
3.1222 -0.644195 -0.428705
2.1215 -1.23274 -1.94582
2.3529 -1.42037 -1.67469
3.16185 -1.33206 -0.408786
2.5515 -0.988489 -1.59011
2.56276 0.594231 -1.86048
2.77313 1.08196 -1.49289
2.5075 -1.99272 -1.30286
2.87078 -0.932081 -1.13913
2.95222 -0.0738055 -0.928636
2.6354 0.330277 -1.6686
2.74861 -0.0811482 -1.40846
2.31741 -2.19756 -1.34037
2.54436 -1.8324 -1.34128
2.86616 0.615978 -1.14551
3.04891 -1.91757 -0.633483
2.98323 0.0395714 -0.810585
2.61012 -0.818002 -1.54951
2.61136 -0.509611 -1.5966
2.75234 -0.0132277 -1.40484
2.90043 -1.07398 -1.07516
3.03648 -1.82511 -0.6916
2.47287 -0.82318 -1.72058
3.12483 -0.638971 -0.412045
2.19997 0.0440419 -2.28021
2.96338 -0.45524 -0.940042
2.11626 -0.111216 -2.33365
2.19663 -1.64704 -1.71478
2.83444 -0.218356 -1.22986
3.14718 -1.05503 -0.43533
2.70735 0.210934 -1.51194
3.09178 -0.964874 -0.631015
2.9905 -0.937445 -0.90026
2.4675 0.620405 -2.04608
2.14849 -0.193344 -2.26807
2.78585 -1.76156 -1.1054
3.14411 -1.20401 -0.472206
2.95072 -0.336525 -0.962068
2.1026 -0.695561 -2.15437
2.81584 0.483168 -1.2826
2.72722 -0.25926 -1.43694
2.6138 0.330867 -1.70988
3.17664 -1.49648 -0.341844
2.20882 -0.442478 -2.12193
2.91838 -0.581501 -1.05384
1.98723 0.0851114 -2.56357
2.89613 -0.685363 -1.10134
2.82951 0.950132 -1.29327
3.12295 -1.1939 -0.549641
2.95993 0.0118481 -0.893302
2.72831 0.992784 -1.59036
2.86903 0.548431 -1.13526
2.52001 -0.696889 -1.68929
2.27421 -1.23057 -1.81256
2.13889 -1.59053 -1.78397
2.97112 -1.35658 -0.916128
3.05661 -1.22883 -0.742137
2.93057 0.400587 -0.942842
2.16901 -0.851427 -2.03757
3.08456 -0.968292 -0.654434
2.21291 -1.73036 -1.66445
2.09109 -0.646443 -2.18242
2.85477 0.441136 -1.17574
2.07548 -0.219445 -2.34412
2.6407 -1.18546 -1.43847
2.84066 -0.0386041 -1.21526
2.19671 -0.314961 -2.17368
2.24845 -0.337006 -2.10641
3.16291 -1.41638 -0.406692
2.55524 -1.50672 -1.4491
2.80464 1.01942 -1.38381
2.68368 0.329662 -1.57285
2.23666 -1.20448 -1.85576
2.64997 -1.86374 -1.22349
2.59252 -2.14295 -1.14944
2.50504 -0.242526 -1.79381
2.1466 -0.56145 -2.15332
2.30765 -0.0334225 -2.11471
2.09036 0.0531877 -2.42343
2.40681 0.137802 -2.01759
2.4244 -0.517982 -1.84715
2.64321 0.524028 -1.68492
2.98718 -1.61065 -0.843105
2.62419 -1.39493 -1.40673
2.50489 0.0115362 -1.84058
2.7734 -1.58897 -1.17362
2.30669 -1.48756 -1.69102
2.34085 0.408329 -2.19394
2.72517 -0.157467 -1.44801
3.12818 -1.00264 -0.506147
2.81205 0.130004 -1.2816
2.29934 0.0173092 -2.13985
2.73917 -1.63234 -1.20396
2.59022 0.21485 -1.73423
2.37242 -1.808 -1.50345
1.95074 -0.554282 -2.35404
2.58069 0.130094 -1.73729
2.38682 -0.0360153 -2.00507
2.47009 -0.0527931 -1.88097
3.06095 -0.570874 -0.666929
2.5167 -1.50341 -1.48967
2.70758 -1.99866 -1.10477
2.41205 -0.320451 -1.90626
2.63667 0.352584 -1.66956
2.25674 -0.827941 -1.9572
2.34214 -0.596311 -1.92768
3.04635 -0.462751 -0.694662
3.0062 -1.66602 -0.794873
2.67531 0.266187 -1.58197
2.89133 0.358865 -1.07123
3.07635 -0.807566 -0.659193
2.1865 -0.543996 -2.11617
2.34456 -1.32096 -1.71677
2.7674 0.0228912 -1.37597
2.90233 0.221929 -1.04628
3.15605 -0.802407 -0.29376
2.0137 -0.732842 -2.22709
3.05798 -1.12063 -0.739245
2.43795 -2.19041 -1.25486
2.88446 -0.194791 -1.11726
1.91742 0.203695 -2.70259
2.19703 0.302116 -2.37205
3.19898 -1.27603 -0.161312
2.92705 -0.77471 -1.0374
2.27361 -2.03672 -1.46519
2.31576 0.393175 -2.2281
2.34407 -2.19776 -1.32121
2.21831 0.362368 -2.36343
2.07603 0.0832076 -2.45263
2.5963 -1.402 -1.43625
3.12288 -1.38562 -0.553353
2.75664 -1.81306 -1.12347
2.80227 -0.795407 -1.26763
2.92598 -1.49917 -0.972944
2.72263 0.143454 -1.47512
2.93663 -1.90741 -0.84338
2.90936 0.426833 -1.01176
3.05221 -0.20942 -0.603664
2.88974 -2.04305 -0.858647
3.19189 -1.48975 -0.255181
2.16341 -0.548886 -2.13945
2.54685 0.374238 -1.84096
2.99183 0.0584279 -0.77564
2.81282 0.392935 -1.28637
3.1453 -0.788039 -0.358758
2.62764 0.240174 -1.67001
2.09414 -0.475384 -2.23673
2.21993 -2.19686 -1.40691
2.86528 -1.84665 -0.971261
3.01946 -1.90716 -0.697957
2.441 -0.870567 -1.74656
3.10856 -1.17345 -0.596013
2.8362 0.852258 -1.25694
3.13768 -0.724381 -0.375955
2.5706 -2.18122 -1.14844
3.15869 -0.85062 -0.300655
2.76569 -2.03033 -1.02482
2.89146 -1.55994 -1.01525
3.05861 -0.456535 -0.648778
3.15219 -0.808834 -0.324406
2.15115 -0.550263 -2.15204
2.80016 -0.667093 -1.28103
2.25113 -1.62716 -1.68081
3.16642 -1.02514 -0.325312
1.92962 0.22596 -2.69768
2.67326 -1.4042 -1.34681
3.08016 -0.499734 -0.575295
2.73078 -1.88839 -1.12535
2.27773 -1.54638 -1.69259
2.97422 -1.36652 -0.908986
2.81685 -1.70439 -1.08344
2.30669 -0.807625 -1.91083
2.49829 -1.1102 -1.62272
2.45547 -0.646046 -1.78068
2.4275 0.163019 -1.99219
2.96433 -1.13827 -0.950111
2.85222 -0.230241 -1.19152
2.62076 -0.945636 -1.51244
2.92512 -0.508743 -1.03635
2.97158 -0.816373 -0.941209
2.56845 -0.0094496 -1.73578
2.3068 -0.55305 -1.97964
2.62942 0.102994 -1.64788
2.76022 0.990506 -1.50412
2.8491 0.757151 -1.20653
3.03753 -1.76754 -0.706492
2.84607 0.80775 -1.22095
2.57159 -1.66598 -1.37875
2.92278 -1.96527 -0.842737
3.19139 -1.4583 -0.258299
2.13715 -0.555868 -2.16505
2.17386 -0.084739 -2.27217
2.29606 -0.278775 -2.06445
2.08911 -0.976803 -2.06919
2.67856 -0.836845 -1.45248
2.80612 0.562359 -1.31315
3.00186 -1.87868 -0.741698
2.85959 -1.86735 -0.971833
2.49817 -0.519152 -1.75206
2.25211 -0.272952 -2.11996
2.9535 -0.372643 -0.95813
2.28693 -0.374397 -2.05023
1.95689 -0.69404 -2.29484
2.05627 -0.0541363 -2.42562
3.00702 -0.640081 -0.842772
2.863 -1.1957 -1.12522
2.1382 -1.12509 -1.97176
3.10086 -0.805058 -0.572417
2.09078 -0.013189 -2.39878
2.69562 0.288894 -1.54375
2.91304 0.385355 -1.0024
3.13272 -1.51206 -0.513515
2.16231 -1.42099 -1.8379
2.88347 -0.12213 -1.11652
1.92866 0.138268 -2.65846
2.4487 0.506133 -2.04582
2.84314 -1.75535 -1.0322
2.34304 0.152327 -2.11559
2.65043 -0.241129 -1.57041
3.13096 -0.632302 -0.372801
2.32109 -0.768757 -1.90607
2.77389 -0.256454 -1.35084
2.90666 -0.995509 -1.06977
2.17945 -1.36115 -1.84764
2.10989 -1.13458 -1.99292
2.7914 0.00904398 -1.32491
2.97702 -0.643555 -0.920526
2.41294 -0.484935 -1.86882
2.39788 -0.590427 -1.86329
3.1083 -0.551525 -0.463721
2.27117 -1.60794 -1.67277
2.41672 -0.619615 -1.83384
2.01634 -0.763024 -2.21354
1.96335 0.015188 -2.5633
2.7454 -1.86391 -1.11794
3.08967 -1.16287 -0.653084
2.93979 -0.968436 -1.00756
2.54292 -0.630983 -1.67197
2.75319 0.321404 -1.42387
1.98296 0.265445 -2.6473
2.44413 -1.09741 -1.68511
2.54018 0.59145 -1.90314
2.52923 -0.835808 -1.64972
2.8244 -0.941995 -1.2175
2.89268 -0.244305 -1.09997
2.51975 -2.01983 -1.27879
2.36568 -0.332933 -1.96342
2.85684 -1.99714 -0.924669
1.88918 -0.166884 -2.57166
3.02264 -1.02933 -0.826233
2.72026 -0.365669 -1.44086
2.14825 -0.0376175 -2.31937
3.06584 -0.595753 -0.655028
2.05983 -0.51394 -2.25944
3.02327 -0.114149 -0.695878
2.8565 0.589401 -1.1738
2.7043 -1.43903 -1.30018
2.30634 -1.92759 -1.49872
2.41344 0.139545 -2.00801
2.4269 -2.08425 -1.32357
2.89756 -0.744479 -1.0976
2.77556 0.466613 -1.38302
2.12555 0.0856018 -2.39061
2.3731 -0.902401 -1.81374
2.28445 0.251994 -2.22985
2.31224 -0.554967 -1.97288
2.01149 -0.705428 -2.23921
3.17573 -1.28076 -0.335543
2.92058 -1.487 -0.98425
2.80709 -0.427019 -1.28085
2.07512 0.253857 -2.52084
3.02701 -0.237233 -0.712226
1.95336 0.0712278 -2.59888
3.06325 -1.9097 -0.604555
1.92226 -0.101186 -2.56249
2.73003 0.639962 -1.51225
3.09265 -1.32317 -0.644881
2.59572 -0.441103 -1.6295
2.37673 -1.60303 -1.58552
2.12473 -0.210614 -2.29036
2.50318 -0.987112 -1.64737
2.65201 0.451099 -1.65448
2.6103 -2.02806 -1.19102
2.8518 -1.79146 -1.00869
2.9643 -1.49679 -0.907197
2.24837 -0.132044 -2.16456
2.63694 0.765967 -1.74967
2.08492 0.0888121 -2.44353
2.65162 0.825419 -1.73209
2.15167 -1.00829 -2.0012
2.77709 -0.935519 -1.29359
2.56347 0.577572 -1.85508
2.31305 -1.7138 -1.59359
2.67339 0.249516 -1.58377
2.19988 0.298822 -2.36684
3.11675 -1.25745 -0.573266
2.54163 -2.1154 -1.2104
2.62775 0.180294 -1.66133
2.80932 -1.52521 -1.14261
2.87611 0.119903 -1.12432
2.77931 -2.08073 -0.985169
2.77677 0.276481 -1.36768
2.68696 -0.483895 -1.48466
2.38153 -2.16308 -1.31438
2.8954 -1.42602 -1.03669
2.8675 -0.137338 -1.1551
2.63363 -1.69889 -1.30263
2.87272 0.30977 -1.12673
2.07571 -0.949677 -2.09109
2.46181 -0.763261 -1.74721
3.15417 -1.49515 -0.439325
2.4105 -1.22511 -1.6835
2.59848 -1.10676 -1.50742
1.91746 -0.363018 -2.46165
3.03413 -0.345588 -0.711689
3.03381 -0.2156 -0.681191
1.87473 -0.0138225 -2.65423
2.19167 -1.93842 -1.57622
2.45676 -1.95483 -1.36495
2.76791 0.242831 -1.38583
3.12586 -1.64508 -0.516004
3.0661 -1.17487 -0.718498
2.59814 -1.00961 -1.52857
2.74593 0.583218 -1.46642
2.60509 0.785503 -1.82373
2.89347 0.523717 -1.05925
2.74263 -1.0479 -1.32923
2.45742 -1.01737 -1.69169
2.08089 0.177529 -2.48268
3.01762 -0.336892 -0.766369
2.11897 0.064757 -2.39154
3.1172 -0.733474 -0.485662
2.24852 0.196493 -2.26347
2.6859 -0.588213 -1.47459
2.57992 0.161981 -1.74374
2.59562 0.043125 -1.69849
2.80793 1.0976 -1.39387
3.05113 -0.790088 -0.735179
3.14964 -1.16167 -0.443844
2.49058 -1.68088 -1.45224
2.23674 -1.26544 -1.83415
2.47061 -1.35602 -1.58301
3.03744 -0.904622 -0.784125
2.93778 -0.433749 -1.00246
2.45152 -0.487206 -1.81931
2.59807 -0.192048 -1.66128
2.43537 -0.862039 -1.75503
2.54567 -0.590842 -1.67552
2.77714 0.795132 -1.41759
2.39027 -0.744361 -1.8353
2.79176 -1.97794 -1.01662
2.24661 -0.917082 -1.94042
2.76286 -1.81851 -1.11403
3.15623 -0.899157 -0.339715
2.19157 -1.6083 -1.73583
2.86976 0.143774 -1.14002
3.0295 -1.53901 -0.773723
3.09056 -1.34163 -0.649923
3.11796 -1.08607 -0.557052
2.61019 -1.05056 -1.50511
2.99714 -0.109813 -0.790849
3.1366 -0.777303 -0.404366
2.77985 -1.22278 -1.24705
3.01066 -0.168156 -0.755643
2.26431 -1.65428 -1.65863
2.98669 -0.212683 -0.843628
2.55764 -0.291379 -1.70855
3.07925 -1.86699 -0.582359
2.35131 -1.80479 -1.52217
2.42675 -0.201592 -1.91219
2.06789 -1.00636 -2.07727
2.25235 -2.18895 -1.39045
2.58874 0.727463 -1.84235
2.58892 -0.301168 -1.66005
2.11886 -0.683179 -2.14234
2.93768 -0.60279 -1.01144
2.39928 -1.5284 -1.59352
2.68678 0.115735 -1.54318
2.49052 -1.71295 -1.43992
2.83861 -1.90471 -0.9864
2.57219 0.540132 -1.82955
2.55669 -0.9578 -1.59046
2.9131 0.152921 -1.01999
2.63448 0.203672 -1.65215
2.54402 -1.92345 -1.30223
2.8469 0.170753 -1.19783
2.68308 -1.51284 -1.30588
2.20732 -1.23913 -1.86963
2.77775 0.580207 -1.38791
3.00818 -0.561608 -0.830688
2.46415 0.402903 -1.9916
2.70471 -2.12994 -1.04466
2.99142 -0.715788 -0.889646
2.55921 -1.31348 -1.5018
2.39105 -0.0946945 -1.98537
2.83047 0.450391 -1.24251
3.06283 -0.571525 -0.660431
