ply
format ascii 1.0
comment Created by Open3D
element vertex 400
property double x
property double y
property double z
end_header
1.65509 1.88739 -1.84552
1.79347 0.739826 -2.47321
2.15387 0.796514 -2.21226
2.25099 1.51917 -1.52455
2.04945 0.591766 -2.4054
0.60141 2.55831 -2.30354
2.00468 0.66625 -2.38904
1.08203 1.54853 -2.51121
1.03756 1.21659 -2.66072
1.27496 2.04809 -2.10017
0.641299 2.23434 -2.45782
1.71589 1.7432 -1.90574
1.92751 0.120887 -2.72345
2.07452 1.16529 -2.01835
2.06822 0.567815 -2.40835
2.23846 0.582604 -2.29578
2.18914 1.58207 -1.52896
1.56014 2.24543 -1.57959
1.85765 0.831611 -2.38634
1.49925 0.45526 -2.7472
1.63381 1.92747 -1.8326
0.515761 1.94496 -2.63419
1.97167 1.13739 -2.12188
0.816598 1.68305 -2.59593
1.19699 1.59064 -2.42393
1.75715 1.53343 -2.02849
1.61668 0.634859 -2.61714
1.77194 0.897785 -2.40382
0.456302 1.59524 -2.76076
1.21318 1.24294 -2.56557
1.63887 1.61411 -2.0771
2.60386 1.19713 -1.4829
0.882768 1.60236 -2.59404
2.00133 1.5764 -1.75082
1.55528 2.34038 -1.45103
0.950819 2.29717 -2.20972
1.02097 1.02965 -2.73137
1.41733 1.03639 -2.54314
0.752109 1.92035 -2.53611
0.610815 2.63581 -2.24383
0.71717 1.85033 -2.58078
2.06912 0.83213 -2.24786
2.03316 0.703632 -2.34973
1.71642 1.86902 -1.79375
1.01091 2.78787 -1.63568
0.910368 2.09762 -2.35966
1.6818 1.34864 -2.21317
2.20817 0.781733 -2.18416
1.38792 1.99359 -2.03408
0.415025 2.23167 -2.56941
1.1845 0.942017 -2.69365
1.67279 1.43006 -2.17007
1.5086 1.6018 -2.195
1.80482 1.75405 -1.80169
2.40576 1.05751 -1.81497
2.39007 0.962547 -1.90928
2.33775 1.2264 -1.72678
0.436833 2.7318 -2.29831
1.59184 1.99859 -1.81357
1.12744 2.17226 -2.14476
1.1431 2.54662 -1.78538
2.47025 1.28204 -1.53371
1.40122 1.83681 -2.13407
1.77503 1.70539 -1.87649
1.02638 2.30088 -2.14219
2.25648 1.25874 -1.77717
0.706073 1.93127 -2.55489
1.27756 2.47154 -1.69441
0.790919 1.72312 -2.59333
1.3323 2.40878 -1.69718
1.64856 1.47458 -2.16146
0.460912 2.61296 -2.36023
1.46018 0.864395 -2.59458
1.11049 0.899806 -2.73927
0.848006 2.52703 -2.12967
2.28432 1.13057 -1.86204
0.181744 2.4433 -2.57239
0.261084 2.17756 -2.64534
1.14877 1.44772 -2.51622
1.07524 1.10582 -2.68295
0.754336 2.46357 -2.25433
1.34838 1.28356 -2.47284
1.71674 1.94351 -1.71989
0.877267 2.05698 -2.40253
0.312927 2.82138 -2.31282
0.95462 1.80006 -2.47591
2.09594 0.460927 -2.45499
1.52974 0.687537 -2.63599
-0.0122532 2.19763 -2.70413
2.0673 1.00401 -2.13743
1.1365 1.89863 -2.30811
1.74009 0.289893 -2.71904
1.14232 0.847073 -2.74467
1.20643 2.40287 -1.86698
1.94419 0.627549 -2.44645
0.848939 1.08531 -2.77803
1.48064 2.20702 -1.7352
2.7684 1.11836 -1.39921
1.04516 2.37254 -2.0692
1.06943 2.32076 -2.08738
0.60801 2.64369 -2.24024
1.25722 1.64691 -2.3566
1.26938 2.40874 -1.78204
0.392276 2.3755 -2.51895
1.01256 2.6982 -1.76882
1.52243 2.37649 -1.44923
1.24446 1.65266 -2.36238
0.842832 1.24723 -2.73106
1.26948 2.65858 -1.4058
1.14193 0.985646 -2.69642
1.18917 1.24353 -2.5778
0.920572 2.80892 -1.74252
0.811316 2.31048 -2.30884
1.8031 1.15692 -2.23758
1.68728 2.16376 -1.49937
0.841071 2.96703 -1.59275
1.24091 0.924594 -2.67517
0.774581 2.49766 -2.21482
1.01686 1.82097 -2.42876
1.73729 1.29537 -2.20307
1.58766 0.711632 -2.59704
2.70101 1.12325 -1.4636
1.44199 2.109 -1.88068
1.41683 2.24082 -1.77957
1.44217 1.884 -2.0643
0.958665 1.87682 -2.43861
1.03738 1.21503 -2.66135
0.426222 2.61188 -2.38126
2.45298 1.29822 -1.53512
1.10582 2.25758 -2.10194
0.87568 1.77833 -2.5292
1.54365 0.821324 -2.57056
1.31516 2.39908 -1.73267
1.0099 2.90397 -1.3931
0.874148 1.60075 -2.59878
1.39877 2.34719 -1.68105
0.0737667 2.18754 -2.69107
0.428915 2.46884 -2.4574
2.04824 1.71267 -1.55686
0.990873 2.7713 -1.69455
0.559288 2.86918 -2.09054
0.44998 1.77963 -2.71052
1.66899 2.16669 -1.52289
0.514876 2.43858 -2.42695
0.93378 2.87236 -1.61537
1.51591 0.55401 -2.69903
2.26322 0.96037 -2.01535
1.74241 0.279114 -2.72314
2.44506 1.39646 -1.43406
0.823087 2.3565 -2.27182
1.1533 2.39774 -1.93376
1.86073 1.68626 -1.80237
1.65155 2.03807 -1.70119
0.420136 1.7892 -2.71717
0.785395 1.19939 -2.76636
2.54429 1.19576 -1.54716
2.0108 0.94693 -2.21632
0.587998 2.94857 -1.97552
0.392707 1.86039 -2.70472
1.58025 1.26138 -2.33607
2.00604 1.48221 -1.83038
0.254652 1.72812 -2.77784
0.855706 1.9618 -2.46126
1.67815 1.45534 -2.14966
1.59543 2.14948 -1.64911
2.08339 0.376647 -2.51049
2.01947 1.11073 -2.10214
0.147031 2.46023 -2.57673
1.70844 2.20056 -1.41311
2.71934 0.978029 -1.60182
2.07629 1.03643 -2.10845
1.32888 2.30014 -1.82573
2.22215 0.915816 -2.08044
0.442022 1.71007 -2.73319
2.34298 0.887876 -2.0071
2.33863 0.720992 -2.13432
0.612863 2.86794 -2.0408
0.715604 2.42996 -2.30461
0.402126 2.0561 -2.63906
0.64567 2.08743 -2.52139
1.97943 0.446087 -2.52626
2.10793 1.03195 -2.08679
1.93753 0.848876 -2.32575
2.21661 1.0067 -2.01817
1.49162 2.39722 -1.46836
0.76888 1.9609 -2.51045
1.84662 1.05731 -2.26554
0.873366 2.86396 -1.72746
1.83619 2.03804 -1.44671
1.66407 0.579757 -2.61913
2.49971 0.969497 -1.80909
1.896 0.588061 -2.49484
0.238271 2.38226 -2.57765
0.642415 2.36235 -2.39228
1.86659 1.59992 -1.8716
2.70431 1.19436 -1.37781
1.04048 1.14299 -2.68509
2.05074 0.702893 -2.33913
1.47213 0.750729 -2.6367
1.02323 2.87789 -1.42995
1.20827 1.73367 -2.34554
0.572523 2.70696 -2.22009
1.10092 2.32856 -2.05053
1.5981 0.48407 -2.69271
1.05586 2.72651 -1.66353
0.411204 1.96502 -2.66615
2.02266 1.53238 -1.76857
2.65792 1.06872 -1.56627
1.82077 2.08803 -1.40001
1.71981 1.25131 -2.24267
0.37151 2.77699 -2.30843
1.72665 1.35591 -2.17382
2.7526 0.98136 -1.56713
1.96772 0.854523 -2.30257
0.51099 2.00506 -2.61501
1.87027 1.98309 -1.46994
1.70528 1.36593 -2.18439
0.932159 1.69888 -2.53136
0.741711 2.48436 -2.24999
2.25819 0.591186 -2.27767
0.88054 1.40025 -2.66641
0.182114 2.39699 -2.59068
2.10398 1.48159 -1.729
1.71456 0.686264 -2.5433
1.66622 2.105 -1.60541
2.03744 1.88089 -1.36255
1.02706 1.2805 -2.6428
2.18053 1.55636 -1.56755
1.305 2.29158 -1.86315
1.96342 1.80493 -1.5603
0.359195 2.14169 -2.62478
2.29873 1.53746 -1.4455
1.11755 1.11946 -2.65932
2.11096 0.525216 -2.40858
0.323654 2.79503 -2.32477
1.65206 1.64832 -2.04102
0.50724 2.03194 -2.60685
1.43312 2.2916 -1.70118
1.84854 1.81199 -1.6955
1.14322 2.74821 -1.47209
2.55057 1.33087 -1.38811
1.48681 2.35999 -1.53296
1.76196 1.62606 -1.95425
1.52102 2.28986 -1.57848
1.24396 1.29145 -2.52906
1.75265 2.15281 -1.41312
1.02118 2.27196 -2.1676
2.11399 1.47407 -1.72538
1.20358 1.83525 -2.29403
0.455881 2.15069 -2.5839
2.41356 1.05909 -1.80651
2.16033 1.72351 -1.3971
1.01355 2.00048 -2.34051
1.91984 1.91769 -1.48343
2.46101 1.42947 -1.37552
1.19361 2.01946 -2.19108
1.29464 1.72613 -2.28748
2.2472 1.40294 -1.65086
1.9934 0.460915 -2.51076
1.41423 2.09528 -1.92367
1.96179 1.32245 -1.99985
0.789144 1.88326 -2.53204
1.48541 0.724762 -2.64128
1.06931 2.27673 -2.12125
1.48499 1.09003 -2.48117
1.28606 2.6431 -1.40433
2.17789 1.08829 -1.98872
0.926433 2.78914 -1.76318
0.758708 1.80186 -2.57928
1.56274 2.16252 -1.67786
0.971914 2.03988 -2.34833
1.12568 2.67214 -1.63816
2.4114 1.47343 -1.38275
0.908652 2.9882 -1.39792
1.96424 1.08446 -2.16259
2.08078 1.27592 -1.92866
0.446511 2.95456 -2.10549
1.41851 2.05146 -1.95685
0.753599 2.21193 -2.40225
1.21607 2.35445 -1.9045
0.767339 1.76737 -2.5881
0.133052 1.9914 -2.73511
1.70734 0.878024 -2.45299
0.333112 2.77088 -2.33556
1.85265 1.65184 -1.84154
1.24287 1.91631 -2.21589
1.94754 1.83074 -1.55122
1.05265 2.36069 -2.07159
1.25367 2.17586 -2.02295
1.75171 0.378357 -2.67205
1.28511 1.57313 -2.37512
1.27905 1.35602 -2.4812
1.91264 1.3124 -2.04986
2.16263 0.856089 -2.1664
1.62542 0.900457 -2.48948
0.265818 2.46219 -2.53398
1.02563 0.9379 -2.7596
2.22037 1.56134 -1.51424
1.7739 1.77803 -1.81384
0.729777 2.8049 -1.98749
1.74696 0.602315 -2.56697
1.87823 0.928049 -2.31908
0.68203 2.7816 -2.06057
1.45133 2.16121 -1.81971
0.780024 2.95575 -1.71724
1.63839 1.81746 -1.92375
1.16832 2.34111 -1.97012
1.72297 0.372567 -2.68769
0.892919 2.3514 -2.22044
1.34999 2.05639 -2.02244
0.916489 2.84884 -1.68552
2.01395 0.825924 -2.28897
0.766814 2.51811 -2.20641
0.184948 2.20423 -2.65882
0.758804 1.88976 -2.54504
1.82454 1.44811 -2.02972
0.60275 1.47191 -2.74961
2.19669 1.59295 -1.50742
1.12563 2.76979 -1.46201
2.03522 1.65824 -1.63167
1.98528 1.35936 -1.95074
2.17251 1.61025 -1.5176
0.797475 1.88043 -2.52883
2.8485 1.02688 -1.42419
1.10106 1.1319 -2.6623
1.81888 1.29 -2.14259
1.60714 0.749371 -2.57004
0.372154 1.88383 -2.7041
1.70996 2.00699 -1.66049
1.56371 1.05026 -2.45351
2.3112 1.21098 -1.76688
0.648266 2.45398 -2.33649
2.73061 0.974537 -1.5949
1.46215 2.44337 -1.44362
0.27715 2.00894 -2.69462
0.794193 2.7289 -1.99914
1.06688 2.78908 -1.53574
0.900819 2.74864 -1.85226
0.544799 2.84298 -2.12842
1.86375 0.920795 -2.33277
1.94481 1.55887 -1.82652
1.16756 0.884137 -2.72149
2.48809 0.907813 -1.87279
0.73721 2.16439 -2.43604
1.0778 1.74332 -2.42716
1.8357 1.11952 -2.23626
1.58307 1.32567 -2.29923
1.98735 0.531091 -2.47531
1.80772 1.63331 -1.90332
1.86048 0.105512 -2.75894
0.255507 1.84221 -2.74791
1.18638 1.14189 -2.61871
0.526043 2.71224 -2.25087
2.35549 0.846333 -2.02915
1.76405 1.48851 -2.05444
1.17919 2.66051 -1.56897
0.727027 1.74808 -2.61377
0.40682 2.18564 -2.59061
0.468828 2.13443 -2.5847
1.08507 1.50437 -2.52791
0.72333 1.28786 -2.76192
0.278713 2.67988 -2.42013
2.20809 1.31771 -1.77204
1.33962 2.49719 -1.56418
0.160243 2.58658 -2.5176
2.27732 1.59443 -1.40381
1.17788 2.58844 -1.68177
1.75856 1.36459 -2.14277
2.3348 1.22339 -1.73249
1.98541 0.347937 -2.57649
0.31811 2.32628 -2.57062
0.924303 2.55469 -2.03245
2.17634 1.55849 -1.5702
1.11433 2.45033 -1.92642
0.521002 2.08166 -2.5825
1.43291 2.26615 -1.731
1.66144 1.5116 -2.12692
1.47718 0.81651 -2.60645
2.42128 0.897713 -1.93647
1.51837 1.50145 -2.2473
0.138838 1.81311 -2.78014
1.42075 1.69889 -2.20599
0.978114 2.5667 -1.9637
2.71114 1.14064 -1.4333
2.32558 0.681374 -2.17161
2.07971 0.690029 -2.3286
2.23135 1.02134 -1.99508
1.8038 1.59442 -1.93853
0.264779 2.226 -2.62735
2.23082 0.643345 -2.261
1.84091 1.95187 -1.5504
2.37672 1.17662 -1.73485
2.13961 1.05447 -2.04542
1.90767 0.438134 -2.56748
1.56221 1.23846 -2.3603
1.03131 1.27806 -2.64172
1.91884 1.93403 -1.46393
1.57537 1.49751 -2.20566
1.4589 1.90026 -2.03651
1.78077 1.64617 -1.91977
