ply
format ascii 1.0
comment Created by Open3D
element vertex 200
property double x
property double y
property double z
end_header
2.75108 1.35188 0.39747
1.45325 -1.15771 -2.55294
2.60018 -1.94756 -1.28174
1.26485 1.8233 -2.25078
0.619357 0.807053 -3.02749
1.16191 -0.0850841 -2.86413
1.63328 2.10148 -1.6667
1.18603 2.81875 -1.60131
2.54403 1.04195 -1.68298
2.63545 -0.540773 -2.30664
3.52907 -1.14975 -1.40251
2.73744 1.35292 0.471949
0.894068 1.56226 -2.66101
0.99037 2.33829 -2.18704
3.11393 -1.35073 -1.73337
3.73143 -0.711311 -1.01611
0.622341 1.24584 -2.93755
1.6108 0.88864 -2.49116
1.999 1.03112 -2.17597
0.866434 2.29875 -2.33356
0.214913 0.439381 -3.25903
3.49072 0.0857258 -0.309834
2.68785 1.53363 -0.0950684
1.97384 0.450259 -2.45698
3.13541 -1.58664 -1.36769
1.80505 1.54676 -1.97345
0.742146 -0.832995 -2.88639
3.51467 0.146415 -1.0824
2.81517 1.11527 -1.15126
3.3857 0.439707 -0.750408
2.9687 -1.27573 -1.90347
0.763251 -0.571968 -2.9454
1.95626 0.863446 -2.29759
2.0962 2.02857 -1.04548
1.94892 1.58368 -1.80195
2.03448 -1.41644 -2.23423
3.3043 -1.12759 -1.74403
3.61628 -0.0570089 -0.765586
2.63844 -1.62101 -1.79371
2.09307 -2.03435 -1.57348
1.03524 1.07569 -2.74538
3.09946 0.876419 -0.801904
2.81101 1.22073 -0.92155
3.50922 0.106883 -0.422326
0.949464 0.405455 -2.92483
1.05864 2.68772 -1.87539
2.91407 -1.37264 -1.86324
1.44868 2.19461 -1.80032
2.74204 1.31728 0.540077
2.81389 -1.74505 -1.47619
3.19857 0.628546 -0.00805395
3.37315 0.419409 -1.00472
2.2012 -0.0348931 -2.46595
1.56207 -1.26997 -2.46831
0.365264 -0.351848 -3.13094
2.12676 -2.19116 -1.22312
1.79401 0.245405 -2.59273
3.44572 -0.325416 -1.71096
1.37151 -0.848202 -2.68725
1.55202 -0.99426 -2.58727
3.0514 -0.731825 -2.0749
3.05183 0.828539 0.213738
2.30159 1.84885 -0.910985
3.34877 -0.43489 -1.84836
2.20223 1.62064 -1.45653
1.83256 1.68843 -1.8282
1.13986 2.28957 -2.06428
1.93453 -1.37102 -2.29625
3.03503 -0.603807 -2.09675
1.52154 2.10965 -1.79092
1.64628 -1.27391 -2.4407
3.27409 -0.819256 -1.90436
2.26749 -1.58925 -2.01542
1.56525 -0.813435 -2.6385
1.46645 0.834328 -2.5899
3.03071 -0.362229 -2.08725
1.54988 1.31924 -2.32572
0.895248 2.68116 -2.07892
1.02167 -0.856836 -2.79071
3.39997 0.370215 -1.02257
1.37324 2.22993 -1.85649
2.38529 -1.87338 -1.62777
3.23938 -0.262791 -1.90718
3.61915 -0.0618836 -0.995498
3.42458 -1.03593 -1.67403
3.39618 -1.12144 -1.64845
3.26704 -0.669345 -1.93239
0.852213 1.83262 -2.57779
0.926627 -0.400404 -2.92045
3.58735 -0.0933857 -1.26114
0.828313 1.00417 -2.8789
2.91711 1.18793 -0.333555
0.811819 2.99415 -1.99412
2.62118 -0.54669 -2.31272
3.54244 0.097369 -0.599609
1.24514 1.38114 -2.50153
1.59409 0.0724248 -2.69877
0.595638 0.0853597 -3.08302
2.16754 -2.03966 -1.51098
0.71967 0.770448 -2.98233
3.19927 0.626294 -0.00663499
1.39056 0.681388 -2.67484
2.06184 2.14417 -0.920034
2.34665 -0.761606 -2.39539
2.5145 -0.709056 -2.34025
3.18977 0.634353 0.0177995
2.79431 -0.472921 -2.2318
0.947786 -0.19713 -2.93507
3.47082 -0.488299 -1.72529
1.83209 1.3921 -2.06584
0.753064 1.81288 -2.66278
2.86318 0.535694 -1.80494
1.39656 2.22381 -1.83516
2.84096 0.859635 -1.5028
2.49379 -0.333928 -2.36912
0.999753 -0.000204124 -2.92441
2.44346 -1.64192 -1.88216
0.875713 1.48024 -2.7049
3.2763 -0.172588 -1.83973
2.73336 -1.13576 -2.11459
2.69838 1.12576 -1.36582
3.2693 0.608867 -0.34175
2.98842 -1.57239 -1.58271
3.57374 -1.17127 -1.21669
0.927411 -0.92381 -2.79894
1.90603 1.84851 -1.58721
1.28176 0.789895 -2.69886
1.96413 -1.67352 -2.06677
2.08563 2.05351 -1.02561
2.30238 -1.18951 -2.26658
2.00083 -1.6267 -2.09249
2.99243 0.982817 0.136531
3.49568 0.21846 -0.640963
1.82589 1.2109 -2.19138
1.06398 2.47855 -2.01672
1.8772 0.367421 -2.52779
3.23207 0.530015 -1.24948
2.83471 0.763255 -1.62383
3.69352 -0.434596 -0.693594
2.68679 0.267123 -2.11775
1.21603 1.13777 -2.6208
3.42934 0.151593 -1.36741
3.1853 0.693003 -1.02883
2.76513 0.0573263 -2.15129
2.84809 -0.416523 -2.20131
1.30524 -0.53972 -2.77622
2.87166 1.25095 -0.143979
2.31986 1.92467 -0.684402
0.994968 3.07832 -1.6807
2.76039 -0.776107 -2.22175
3.08634 0.406217 -1.66334
1.33655 -1.12416 -2.60176
3.69215 -0.30955 -0.834959
3.5396 -0.991375 -1.53999
2.35655 -1.52802 -2.02833
1.98384 -1.42507 -2.24631
3.18731 -1.47378 -1.50362
2.74515 -0.976357 -2.17512
2.03748 1.47808 -1.80696
1.71975 -0.243735 -2.66589
2.76312 1.31764 -0.81515
3.6623 -0.265907 -1.20375
1.21491 0.532621 -2.79047
1.94109 -0.926622 -2.49064
1.29486 -0.0171036 -2.81589
3.44833 -0.801343 -1.74421
2.1129 1.85043 -1.28769
3.71301 -0.847169 -1.01566
2.99035 -0.191904 -2.08002
3.19104 0.702671 -0.149157
1.59962 1.04385 -2.43138
3.65423 -0.153718 -0.919606
2.76943 -1.03053 -2.14371
1.15198 1.01446 -2.69978
1.0166 1.0257 -2.77062
3.61336 -0.0663476 -1.07354
3.00935 -1.35338 -1.81404
2.27523 -2.05406 -1.39289
-0.294802 -0.0851404 -3.48032
3.04158 -0.16068 -2.03515
3.63532 -1.08682 -1.05766
0.191051 0.39157 -3.27086
3.46095 -0.797286 -1.73079
0.512527 0.277566 -3.12034
3.17627 0.790131 -0.580825
1.70444 2.41343 -1.21683
2.37727 -0.526591 -2.41562
2.94314 0.964381 -1.13997
2.20415 -1.61194 -2.02283
1.34034 -0.916641 -2.67602
2.16391 -1.3133 -2.25104
2.1314 -1.28227 -2.27973
2.95595 -1.23697 -1.93811
1.17809 -0.000764446 -2.85843
1.73038 1.34697 -2.17751
3.17895 0.406199 -1.53197
1.48363 -1.24199 -2.50559
2.56068 1.61066 -0.701569
3.65681 -0.204031 -0.72764
3.1149 -1.14797 -1.8886
