ply
format ascii 1.0
comment Created by Open3D
element vertex 400
property double x
property double y
property double z
end_header
-1.02027 -3.07463 -0.68907
1.00286 -3.02377 0.35729
-0.956942 -3.17245 -0.25236
-0.792737 -2.97365 0.93586
-0.389984 -2.96425 -0.93152
-0.719587 -3.05368 -0.71792
-1.39563 -3.09827 0.62584
-0.422334 -3.11766 -0.34287
1.06214 -3.03067 0.26294
1.26384 -2.95501 0.87191
-1.41667 -3.08354 -0.66387
-0.64643 -3.15643 0.16386
-0.0310208 -2.995 0.78256
0.730265 -3.03539 0.30296
0.23244 -3.0622 0.3378
-1.54492 -2.97004 -0.88786
-1.26602 -3.11073 -0.59245
0.678787 -2.92897 0.93107
-1.76651 -3.19997 0.11773
0.00218496 -2.94584 0.93823
-0.305696 -3.12243 -0.19961
-0.019106 -3.10187 -0.07809
0.288061 -3.05363 0.37618
-0.803874 -3.17053 0.15297
-1.65672 -3.20488 0.11665
-0.204481 -3.09157 -0.39179
-0.796994 -2.96681 0.95157
0.855521 -3.01145 -0.49035
-0.352528 -3.06609 0.58936
0.761978 -2.98945 -0.64762
-0.870137 -2.97354 -0.93774
0.0134562 -3.06625 0.4384
-1.14375 -3.05846 0.73825
0.53953 -3.03594 0.39004
-0.960845 -3.09581 0.61726
-0.787979 -3.13997 0.38995
1.19123 -3.03832 0.09715
0.654364 -2.9962 -0.62619
-1.35886 -3.18854 -0.26949
-1.25203 -3.0961 0.63615
-0.23833 -3.04891 0.62681
0.175568 -2.97373 -0.81985
0.641339 -2.97401 0.74257
0.0977858 -3.08427 0.21791
0.754568 -3.0375 0.26327
-1.57161 -3.1015 0.59836
0.359811 -3.01111 -0.61726
-0.396807 -3.10307 0.42326
1.06341 -2.96553 -0.77655
-0.458453 -3.12304 0.32662
1.04325 -2.92263 0.97534
-1.20159 -3.11527 0.57587
0.0232921 -2.97138 0.85423
1.24302 -2.97855 0.73599
0.615586 -2.93618 0.90598
-0.119232 -3.09767 -0.28295
-0.477127 -3.02765 -0.75985
-0.77885 -2.95057 -0.98728
-1.13496 -3.19274 0.15947
-1.12544 -3.16001 0.38912
0.384171 -2.91416 0.99889
-0.0255973 -2.99484 -0.78199
-0.950995 -3.10186 0.59538
-0.968807 -2.97447 -0.93567
0.233204 -2.97074 -0.82088
0.546332 -2.95997 0.81658
0.680802 -2.97573 -0.72952
-0.679339 -3.14682 -0.28953
0.158675 -3.03794 0.54171
0.496304 -3.00798 -0.59615
0.436278 -3.02173 -0.53374
-1.46881 -3.11048 0.58569
-0.935721 -3.12624 -0.50041
1.1513 -2.93652 0.93353
0.674792 -3.02881 0.3945
-0.427757 -3.01338 -0.79613
-1.36713 -3.14657 -0.47202
-1.63407 -3.10141 -0.58799
0.323042 -3.0706 -0.13716
0.283069 -2.99112 -0.73005
0.690879 -3.03195 -0.35821
0.950988 -2.98816 -0.64185
0.77395 -3.04296 -0.15435
0.126402 -3.06879 -0.35292
0.902657 -3.02184 0.3922
-1.39069 -3.20715 0.0921
-0.87158 -3.14753 -0.38008
0.563302 -3.05666 -0.04327
-1.17561 -3.18675 -0.23766
-0.762007 -3.03224 -0.78617
1.10269 -3.03521 -0.17676
0.190509 -3.07314 0.25995
-1.06084 -3.06997 0.70487
0.339949 -3.02199 0.5648
0.74797 -3.03 -0.35478
-1.19246 -3.17906 -0.29791
0.671172 -3.04654 0.17625
-1.13893 -3.04149 -0.78089
0.418232 -2.92326 -0.96633
0.601755 -3.05235 0.12694
0.622254 -3.04508 -0.2424
0.533689 -3.05658 -0.1214
-0.602073 -3.02975 0.77345
-0.906971 -3.11314 -0.54671
-1.5501 -3.15615 -0.42673
0.326372 -3.05887 -0.30213
0.749597 -3.03368 0.31407
-0.0585838 -3.0261 -0.66955
0.111857 -3.05031 -0.49016
-0.49378 -3.01532 0.8006
-1.46485 -3.20737 0.10803
0.626398 -3.03552 0.35213
0.418501 -2.95096 0.86762
-0.810224 -3.07369 0.66827
0.273551 -3.00404 -0.67511
-0.612475 -3.05304 -0.70214
0.302246 -3.04675 0.42219
0.287531 -2.96793 0.8223
-1.00021 -2.95824 0.9691
0.193125 -2.93967 -0.93436
-1.03472 -3.14388 0.44595
-1.59924 -3.02913 -0.76355
-0.030052 -3.0492 0.55481
1.24436 -2.95809 -0.85046
1.12215 -3.01707 -0.42772
-1.47698 -2.99803 0.84741
-0.571215 -3.13055 0.34262
-1.33881 -2.97151 -0.9176
1.11051 -3.03309 -0.22104
-1.55858 -2.98325 -0.86108
1.16615 -3.0221 -0.38086
0.993308 -2.98613 -0.65465
-0.858781 -3.13953 -0.41843
-1.36336 -3.14514 0.47735
-1.38951 -3.18019 -0.32262
-0.45549 -3.14218 0.10708
-1.22165 -3.2035 0.02543
0.461288 -3.04046 0.38997
-1.63645 -3.2076 -0.08175
0.444141 -2.92667 0.95267
-0.323904 -2.93772 0.99454
-1.73772 -3.19507 -0.18381
-1.61143 -3.07021 0.67063
0.284398 -2.99669 -0.70556
0.866934 -3.03955 0.15879
-0.000452548 -2.93295 0.97667
0.566647 -2.98654 0.69328
-0.953873 -2.97947 0.92495
0.655198 -3.04266 0.25303
0.405922 -2.97545 -0.77223
-1.49678 -2.92 -0.9833
-1.5102 -3.20174 -0.17747
-1.72107 -3.20554 0.06262
-0.227271 -3.08429 -0.44979
-1.15883 -3.12318 0.54611
0.940565 -2.92451 0.95544
-0.889823 -2.97224 0.94081
-1.66402 -3.08779 -0.61738
-1.0383 -2.97101 0.94144
-1.62561 -3.17041 -0.35698
-1.24731 -3.20408 -0.05213
-0.513211 -3.00193 0.84228
-0.989808 -2.97122 0.94229
0.291314 -2.99273 -0.72128
-0.338959 -3.1283 0.16071
-0.878128 -3.00016 -0.87653
-1.17607 -3.01549 0.84061
1.25912 -2.96278 -0.82976
-0.916644 -3.16082 -0.31781
-0.589982 -2.98992 0.88342
-1.44907 -3.17009 -0.37455
-0.807191 -3.01693 -0.83117
-1.14746 -3.19327 0.1611
-1.32558 -3.19566 -0.20988
-0.0717431 -3.04257 -0.60163
-0.502124 -3.10637 -0.45339
-0.0206899 -3.08082 -0.35442
0.779741 -3.04422 -0.11343
-0.930637 -3.17197 0.2412
-0.0184626 -3.064 0.46846
-0.434729 -3.13166 -0.2319
-0.344439 -3.08943 0.47538
-0.661392 -3.12656 0.41207
0.483682 -3.06158 0.05212
0.179937 -3.03979 -0.52294
0.52678 -3.0532 0.20098
1.19329 -2.963 0.81179
0.832293 -2.92424 0.94998
-1.60028 -3.20479 0.13543
0.883134 -2.92145 0.96357
-1.10923 -3.12835 -0.52212
-1.68412 -3.20392 -0.11715
-1.58296 -3.06674 0.6839
0.295083 -2.9881 -0.74028
0.745404 -3.004 -0.56211
0.458028 -3.03286 -0.45115
-0.105104 -2.96081 -0.90698
-0.380317 -3.13509 -0.1062
0.725633 -2.9694 0.7557
-1.67232 -3.20823 0.03713
-1.52674 -3.2002 -0.19107
0.0670549 -3.08438 -0.24938
0.497188 -3.02225 -0.50946
-0.271536 -3.05461 0.61293
0.370637 -3.03196 -0.49347
0.268439 -2.91937 -0.99127
0.86547 -2.97587 -0.71411
-0.565325 -3.08178 0.58754
-0.877258 -3.18144 0.038
-0.28758 -2.97572 -0.88769
-0.855062 -3.05085 0.74314
0.881946 -2.98591 -0.6574
0.623696 -3.03042 0.40066
0.403518 -2.9312 0.94039
-1.49265 -3.15214 0.44722
-0.610608 -2.9727 -0.92893
0.031742 -3.03734 0.59117
1.1648 -2.9552 -0.84635
1.09632 -3.03888 0.0308
-1.39856 -3.19994 -0.18598
0.844681 -3.0354 -0.24826
0.191244 -3.0828 0.0942
-0.811822 -2.95144 0.98572
-0.0430557 -3.04679 -0.57163
0.0502965 -3.08065 0.30353
-0.740503 -3.16167 0.19913
-0.557165 -2.98343 -0.89733
-0.280948 -2.96351 -0.92155
0.261382 -3.04373 0.46337
-0.52502 -3.09555 0.51582
0.167125 -3.065 -0.35745
0.0765231 -3.06483 -0.41382
-0.694096 -2.96573 0.95049
-0.868688 -3.01043 -0.85121
0.034125 -3.07046 -0.39817
0.160202 -2.93957 -0.93855
1.00709 -2.95525 -0.82326
-1.43403 -3.17528 -0.34976
-1.1185 -3.13404 0.5016
-0.753352 -3.15487 0.27322
-0.0749957 -3.09891 -0.22629
0.583073 -3.01486 0.53047
1.25982 -2.97734 -0.74772
-0.452082 -3.08946 -0.51819
1.0844 -3.03313 0.22009
-0.258943 -3.10609 -0.31982
-0.608918 -3.15747 0.0803
-0.0821658 -3.05481 0.54639
-1.45365 -3.08593 -0.65428
0.351086 -3.0497 -0.37197
-1.6607 -3.19327 -0.22399
0.866722 -2.92279 -0.95729
-0.90813 -3.14385 0.41242
0.00994192 -3.09587 0.15845
0.812975 -2.99884 -0.58473
-0.629976 -3.03162 0.77187
0.38939 -2.96316 -0.82472
-0.192241 -2.94518 0.9625
0.67166 -2.93876 0.89295
-0.974238 -3.1691 -0.28673
-1.2337 -3.00023 -0.87038
0.769672 -3.04357 -0.14338
-1.47264 -3.0385 -0.76458
-0.510991 -3.13105 0.30042
0.68332 -2.99226 0.64314
0.95709 -2.99704 -0.58484
-0.210909 -3.06459 -0.54716
0.995465 -3.02792 -0.30852
0.174125 -3.04133 -0.5164
0.222908 -2.93982 -0.93033
-1.3905 -3.06599 0.71022
-1.20482 -3.20276 0.02082
-0.135149 -3.09896 0.28434
1.1732 -2.99447 -0.61801
-0.289673 -2.97457 0.89127
1.07417 -2.95631 -0.82539
-1.77636 -3.1966 0.14929
0.91337 -2.93681 -0.90142
0.902565 -2.99263 0.61567
-1.25986 -3.15595 0.42874
0.05811 -3.09494 -0.07492
-0.923573 -3.05618 -0.73428
0.654251 -2.9896 -0.66247
-0.385451 -3.10484 -0.40683
0.8239 -3.02481 0.38166
-1.51782 -3.12055 -0.55106
-1.4424 -3.20086 -0.18308
-1.25811 -3.20299 0.09227
0.640306 -3.02072 -0.47241
1.14246 -3.01343 0.46425
0.992241 -2.98835 -0.64097
1.18226 -3.00846 0.51375
-0.175136 -2.98483 -0.84337
-0.558416 -3.15419 0.00608
1.04512 -3.03101 0.25878
-1.00477 -3.02209 -0.82721
0.613351 -3.03723 0.34156
1.11632 -3.01737 -0.42426
-1.24311 -3.1311 0.52429
-1.57262 -3.08441 -0.64277
0.599733 -3.04718 0.22928
-1.14196 -3.19257 -0.16589
0.243308 -2.99951 0.70299
-1.69045 -3.16959 -0.34733
0.513183 -3.01347 0.55953
-0.0641982 -3.10665 0.05172
-1.53788 -3.00672 -0.82018
-1.12286 -3.19856 0.00164
0.0403899 -3.04523 0.5483
-1.18447 -3.14806 -0.45373
0.407067 -2.97002 0.79453
-0.0690348 -2.95635 -0.91561
-0.138402 -3.08667 -0.38619
-1.51845 -3.13088 0.51886
-0.556953 -3.07865 -0.59772
-0.571505 -3.13373 -0.32005
0.640165 -2.92064 -0.96343
-0.383471 -2.99624 0.84103
-0.287722 -2.96169 0.92743
1.04077 -2.92932 -0.94637
-1.1874 -2.9427 -0.98793
-1.34586 -3.06573 -0.7142
0.494833 -3.01991 0.52544
-1.60393 -3.167 0.37552
-1.09259 -3.14839 0.43756
-0.477955 -3.12979 -0.2866
0.828885 -2.9916 0.62766
1.20083 -3.02041 0.40572
0.552908 -2.92266 0.95959
-0.631475 -3.15906 -0.09254
-0.382417 -3.09238 -0.47618
1.08813 -2.99149 -0.62631
-0.346291 -3.00822 0.79846
0.940728 -2.99494 -0.59921
-0.839732 -3.01095 0.84845
0.970165 -3.02219 -0.37801
-0.158116 -3.116 0.00615
0.632309 -3.05025 0.13794
0.505935 -3.05843 0.11836
1.22259 -2.93291 0.96715
-0.75362 -3.0876 0.61067
-1.23088 -3.08043 0.68014
-1.07334 -3.09812 -0.62204
-0.490612 -3.01157 -0.81129
-0.72774 -3.09888 -0.56206
-0.824904 -3.11716 0.51195
-0.299226 -3.0723 0.54317
0.134782 -3.0735 -0.30429
0.286237 -3.07635 0.02831
-0.214932 -3.08248 -0.45433
-0.0393576 -3.09716 -0.20736
0.980778 -2.96278 0.78375
-0.0677479 -3.06688 -0.4748
-1.58881 -3.18089 -0.31195
-0.141577 -3.02212 -0.70732
-1.3998 -3.18158 -0.31556
-1.05984 -2.99554 0.88832
-0.825809 -2.97407 -0.93578
0.272462 -2.99844 0.70065
-1.37043 -3.19809 0.19814
-1.27279 -3.1594 0.4149
-1.10511 -3.09892 0.62205
-0.526406 -3.13434 -0.28446
-0.137228 -2.96973 0.88445
-0.920632 -2.99327 0.89372
-0.82728 -3.17534 -0.10326
-0.20661 -2.9722 0.88693
-0.914303 -3.00428 -0.86781
-0.197113 -3.00226 0.79047
0.231012 -3.08003 -0.075
-1.75334 -3.1929 0.19434
-1.12373 -3.03236 -0.80308
0.428634 -3.05698 -0.23954
-0.123178 -2.95107 -0.93809
-1.503 -2.93829 -0.9515
1.16299 -3.02427 0.35536
0.193825 -3.08391 -0.02996
0.177738 -2.97978 -0.79702
-0.439007 -3.10146 0.45225
-0.859177 -3.0685 -0.69135
0.476908 -3.04795 0.31006
-1.10686 -3.0966 -0.62939
-1.54827 -3.19504 -0.23054
0.999121 -3.03118 0.26247
-0.396722 -3.11777 -0.32518
0.213907 -2.97408 0.81177
0.614108 -3.04491 0.25083
-1.36322 -3.10426 -0.61053
0.327744 -3.00389 0.66183
-1.03127 -3.16464 -0.33828
-0.446107 -3.00035 -0.83793
0.7824 -2.97995 0.69758
-0.504556 -3.06523 0.6359
0.978834 -3.04008 0.02525
-1.69178 -3.14286 -0.4513
-0.604223 -3.10298 0.50874
-0.745015 -3.12768 -0.43907
0.561697 -3.04745 -0.25569
0.591177 -2.97126 0.76184
-0.606153 -3.02821 0.77866
