ply
format ascii 1.0
comment Created by Open3D
element vertex 250
property double x
property double y
property double z
end_header
0.979234 -0.139554 -3.23412
0.287812 -2.27456 -3.03579
1.9656 -2.2827 -0.702967
2.03325 -1.78415 -1.97204
0.919398 -0.667138 -3.43101
2.43166 -0.80788 -1.85345
3.35583 0.194401 -0.528936
2.51433 -1.25 -1.35103
1.03065 -0.00821273 -3.1641
1.91351 -1.46838 -2.59001
1.15429 -2.26799 -2.8686
2.34102 -1.31041 -1.74962
1.4666 -1.55293 -3.18384
2.29333 -0.497241 -2.15653
1.36568 -1.27209 -3.31324
0.937516 -1.29726 -3.53057
2.51524 -0.453086 -1.77925
3.0493 -0.905672 -0.393795
2.73062 -0.271192 -1.42234
1.8584 -2.30153 -1.02711
0.902932 -2.26536 -3.05288
2.91056 -0.963382 -0.646665
2.09922 -0.928668 -2.44633
2.77377 -0.880657 -1.0445
2.06895 -2.04621 -1.20652
1.53008 -0.813589 -3.13721
2.44982 -0.368108 -1.90214
0.557863 -1.87201 -3.44871
2.26918 -1.85528 -1.04229
1.84183 -1.70962 -2.53983
0.905989 -0.0183026 -3.21037
0.299395 -2.07952 -3.25108
0.661003 -0.559097 -3.45136
0.613051 -2.5401 -2.59269
0.268991 -2.29037 -3.00709
3.34924 0.11441 -0.50736
2.02341 -2.20834 -0.790404
0.432553 -2.44091 -2.81145
1.77645 -0.68753 -2.87646
2.31209 -1.79995 -1.03421
2.25883 -1.84897 -1.09475
2.54578 -0.832826 -1.60002
1.14702 -2.06972 -3.14679
0.982386 -1.44564 -3.51223
1.73567 -2.34016 -1.32248
0.82697 -1.92934 -3.40338
2.42776 -2.0181 -0.084065
0.842181 -1.81931 -3.4578
2.93335 -0.31733 -1.03342
1.46269 -1.04209 -3.22675
0.851385 -2.49115 -2.6312
2.02225 -2.02216 -1.45295
2.62253 -1.80095 -0.073813
0.610813 -1.10082 -3.56648
2.1894 -1.56356 -1.86717
2.80212 -1.68469 0.136088
2.25952 -1.65866 -1.5105
1.07547 -0.103923 -3.18443
1.63191 -2.1598 -2.28415
2.44542 -0.915294 -1.77953
2.46148 -1.01452 -1.68791
2.84148 -0.943407 -0.829076
2.01621 -2.08978 -1.25763
1.0416 -0.896165 -3.44727
0.520117 -1.43661 -3.56781
0.686131 -2.46121 -2.77022
1.7003 -1.87854 -2.63278
3.1398 -0.737528 -0.362238
1.27707 -0.375873 -3.18905
2.23158 -0.915738 -2.21438
1.66965 -1.84346 -2.72978
2.09813 -2.13239 -0.799665
1.00807 -0.305491 -3.28584
2.49793 -1.49877 -1.05058
2.39691 -1.7458 -0.878281
3.30581 0.0563156 -0.54897
2.67313 -1.79119 0.0347261
1.36245 -1.63957 -3.25283
1.56197 -1.68925 -3.01583
2.31724 -1.13565 -1.94486
2.346 -0.407719 -2.07211
1.05833 -2.47346 -2.49661
1.26485 -1.10608 -3.37326
2.72854 -0.424252 -1.38605
2.39518 -1.25057 -1.6668
0.682497 -1.43689 -3.56977
2.99599 -0.517277 -0.81282
1.11201 -0.217971 -3.21285
2.37856 -1.73797 -0.957031
1.83779 -1.56261 -2.66905
2.00495 -2.26032 -0.651223
2.96195 -0.999754 -0.489954
1.46286 -0.960269 -3.21669
1.62858 -1.60241 -2.97435
1.25462 -2.18605 -2.89667
2.40598 -1.7543 -0.82858
1.5743 -0.258129 -2.94998
0.879113 -0.545643 -3.40629
1.30485 -2.43959 -2.20636
2.18861 -0.267617 -2.29557
1.43053 -1.74084 -3.14112
1.05427 -1.07005 -3.47269
1.3418 -1.17233 -3.32852
1.41474 -0.203126 -3.04495
1.03255 -2.17235 -3.10927
2.19869 -0.578166 -2.30671
2.36443 -0.65608 -2.02167
2.80562 -1.69891 0.169728
3.09925 -0.758133 -0.426245
2.53382 -1.21895 -1.33269
1.98848 -2.13922 -1.18705
1.37203 -2.41485 -2.14657
2.48487 -1.44675 -1.17418
1.29102 -0.0396999 -3.05678
2.92984 -1.39827 -0.0469048
1.7092 -1.8204 -2.68303
2.8876 -1.22881 -0.389247
0.854578 -0.569793 -3.41982
1.21871 -1.41126 -3.40557
1.00424 -2.1353 -3.16936
3.28836 0.0968075 -0.591586
1.04246 -2.36315 -2.79028
2.34922 -1.23879 -1.79378
1.13762 -1.91272 -3.28564
3.18853 -0.200308 -0.62503
3.03631 -1.17381 -0.119628
1.75311 -2.33631 -1.27406
1.83599 -2.19689 -1.54347
2.42544 -0.887769 -1.83522
2.53652 -1.80565 -0.300711
2.60361 -1.32919 -1.0026
3.12591 -0.914196 -0.224932
1.35195 -1.93132 -3.09089
2.49822 -2.04199 0.160946
1.86488 -2.26557 -1.1595
2.48567 -1.53457 -1.02579
2.85065 -1.43238 -0.180402
2.46656 -1.38902 -1.31201
0.678387 -2.36567 -2.95827
3.19874 -0.275689 -0.568959
0.47773 -2.38574 -2.92052
0.521712 -1.45353 -3.56621
2.30359 -2.07983 -0.275353
1.45971 -1.46398 -3.21356
1.43239 -1.13996 -3.25879
0.412573 -2.41245 -2.86073
1.96906 -0.565827 -2.62986
2.87932 -0.572179 -1.0191
0.818454 -2.42404 -2.80787
1.61745 -0.740966 -3.04609
2.57697 -1.84625 -0.094717
1.62306 -0.587345 -3.00659
2.56983 -1.74293 -0.345888
0.708061 -1.51662 -3.55954
1.11476 -0.192259 -3.20198
0.988242 -1.54804 -3.49754
2.97615 -0.959403 -0.500238
2.29166 -0.166253 -2.13856
2.02669 -0.659274 -2.56364
2.77598 -1.48474 -0.281502
1.04307 -2.49872 -2.43715
1.77391 -2.17547 -1.83192
0.459584 -2.41336 -2.86851
1.3649 -1.48517 -3.29293
2.23505 -1.88539 -1.08197
3.17915 -0.402617 -0.531394
3.21079 -0.151244 -0.610553
1.23541 -2.09762 -3.03895
1.42301 -0.438126 -3.12
2.22781 -1.96814 -0.871192
1.14266 -2.22381 -2.95351
2.97396 -0.407152 -0.916008
2.27778 -1.68831 -1.39611
0.50925 -2.42595 -2.85158
0.146224 -2.16326 -3.10557
1.06372 -1.96997 -3.28901
0.817523 -2.01554 -3.34686
1.72397 -1.49856 -2.88819
2.28231 -2.09229 -0.303778
2.09404 -1.04516 -2.43284
2.4412 -1.89732 -0.360364
2.44933 -0.0473073 -1.8987
1.32511 -0.484346 -3.19728
1.69269 -2.04938 -2.38024
1.57577 -2.04572 -2.63385
0.302646 -2.41299 -2.82699
2.30512 -1.70276 -1.2777
2.47058 -1.00332 -1.67381
1.30805 -1.74875 -3.25341
1.94787 -1.31973 -2.60223
1.27058 -2.10169 -2.99791
0.672561 -2.48261 -2.72454
2.03828 -1.31188 -2.43854
0.707723 -1.58146 -3.54895
2.62176 -1.36762 -0.895354
0.300727 -2.43215 -2.79103
2.49672 -2.06325 0.208266
0.799153 -2.01042 -3.35429
2.09784 -1.47675 -2.19715
1.94332 -1.90224 -2.01092
2.25909 -2.4472 0.63563
2.21438 -2.56475 0.832363
1.98065 -2.60613 0.521175
1.85668 -2.96218 1.19911
2.15716 -2.27232 -0.106184
2.40606 -2.25541 0.465031
1.6116 -2.75206 0.243011
2.30546 -2.32383 0.420293
1.74337 -2.8778 0.86518
2.01734 -2.4649 0.160795
1.61534 -2.66399 -0.116428
2.08435 -2.53009 0.511499
1.58582 -2.95318 0.841688
1.71285 -2.95261 1.00722
1.4926 -2.98364 0.797346
1.99873 -2.75661 0.938731
1.80562 -2.63408 0.238386
2.13671 -2.54666 0.65594
1.81362 -2.54956 -0.0660689
1.911 -2.35043 -0.611466
1.94305 -2.77192 0.893499
1.87855 -2.38029 -0.595219
1.71496 -2.62513 -0.0203241
2.05084 -2.75406 1.00633
1.31003 -3.00259 0.598156
1.81329 -2.85325 0.902971
1.66998 -2.66781 0.042395
2.09023 -2.30705 -0.186644
1.36369 -2.96936 0.568611
2.01364 -2.81313 1.08233
1.57925 -2.90983 0.711359
1.96821 -2.31199 -0.571197
1.78866 -2.86627 0.900314
2.02223 -2.70097 0.843747
2.04746 -2.32335 -0.259813
1.73025 -2.7307 0.412517
2.41228 -2.30124 0.584522
1.72339 -2.85644 0.779732
2.31817 -2.20297 0.124839
1.93815 -2.45282 -0.0970188
1.57042 -2.82897 0.44045
2.17596 -2.45116 0.482025
1.5904 -2.84246 0.52166
1.61326 -2.99109 0.974252
2.37291 -2.23709 0.347824
2.02779 -2.53012 0.393417
2.35479 -2.46676 0.84588
1.64975 -3.00311 1.04727
1.94514 -2.60061 0.432824
2.0565 -2.35832 -0.103917
