ply
format ascii 1.0
comment Created by Open3D
element vertex 400
property double x
property double y
property double z
end_header
-1.22257 -2.29422 1.79676
-0.378253 -1.74611 2.62672
-1.46859 -2.03504 1.91627
-1.68579 -0.451141 2.65062
-1.23121 -2.29541 1.79275
-2.88495 -1.49698 1.03913
-2.23265 -2.19597 1.39913
-1.59545 -1.45117 2.22268
-1.50218 -1.48574 2.25968
-1.52652 -0.865598 2.58208
-0.566449 -1.35914 2.88217
-1.18138 -0.990989 2.76374
-0.669595 -1.254 2.90837
-2.408 -2.46361 1.0927
-1.45668 -2.48371 1.53796
-2.34972 -2.20804 1.31083
-2.54162 -1.61069 1.42839
-2.09839 -2.1069 1.54018
-0.702935 -1.22477 2.91139
-0.292488 -1.49125 2.91801
-0.80514 -1.85494 2.34202
-2.44042 -1.66539 1.50445
-1.13859 -1.14659 2.69283
-1.43966 -2.77065 1.21527
-1.42805 -2.55901 1.46934
-1.07833 -1.75718 2.30103
-0.748246 -1.18207 2.91674
-1.46942 -2.47856 1.53888
-2.05253 -1.1421 2.03881
-1.95678 -1.87554 1.76405
-1.50957 -0.444318 2.81726
-1.15178 -0.987941 2.78642
-2.36342 -2.23292 1.28544
-1.93213 -0.591304 2.35777
-2.05457 -2.04242 1.6065
-1.19234 -1.12986 2.6685
-0.602469 -1.99901 2.28892
-1.46128 -0.818688 2.65766
-1.26471 -1.27597 2.5305
-1.83327 -1.81514 1.87309
-1.73127 -0.634791 2.52428
-1.76539 -2.45386 1.45213
-2.3777 -1.02024 1.77658
-1.37341 -2.151 1.86626
-2.3156 -1.09438 1.81758
-2.8143 -1.87819 1.02815
-1.17149 -1.7421 2.26827
-1.03702 -2.21184 1.93557
-1.51873 -0.406933 2.82892
-0.764927 -1.67162 2.5154
-2.496 -2.22512 1.1874
-0.763605 -2.06313 2.16924
-2.08384 -2.70248 1.07028
-1.71736 -2.44886 1.47625
-0.524935 -1.32801 2.93364
-1.45574 -1.06596 2.52736
-1.52242 -0.744534 2.64819
-1.44414 -1.38026 2.35681
-1.2612 -2.09876 1.95365
-1.71761 -2.55187 1.37949
-1.51491 -0.42 2.82543
-1.04659 -1.2817 2.65974
-0.855847 -1.07499 2.92836
-2.63907 -2.22698 1.05819
-2.26953 -2.33539 1.2821
-2.75808 -1.34487 1.25327
-2.45867 -2.43272 1.07834
-1.97479 -1.97766 1.69359
-0.590477 -1.3184 2.90273
-1.03971 -1.27213 2.6705
-1.42662 -0.376874 2.93159
-2.23596 -2.01116 1.5059
-1.03474 -1.08981 2.79874
-1.74824 -0.890615 2.39425
-1.69185 -2.37611 1.55039
-2.11652 -1.93741 1.6277
-1.37001 -1.26788 2.46939
-0.901427 -1.90917 2.25566
-1.72125 -0.567064 2.56406
-2.77964 -2.01905 1.01337
-1.52792 -2.78248 1.17802
-2.18568 -2.69416 1.02604
-1.84793 -1.9274 1.79774
-1.90854 -2.80861 1.02384
-2.35935 -1.12724 1.76423
-2.20427 -2.3417 1.31893
-1.77719 -0.713782 2.4487
-1.99382 -0.850586 2.2015
-1.37313 -1.03956 2.60026
-1.92752 -1.74481 1.85462
-1.58726 -2.39919 1.57167
-1.81977 -1.1059 2.24053
-1.29665 -2.69777 1.34246
-2.36056 -1.85531 1.49146
-1.27556 -1.14934 2.60166
-1.4838 -1.42961 2.30367
-2.12046 -2.27758 1.41469
-2.03853 -1.71961 1.79464
-1.50548 -2.79101 1.17228
-0.841422 -1.08823 2.9281
-2.02411 -0.647922 2.24796
-2.50599 -1.22579 1.58379
-0.801873 -2.03002 2.1866
-2.44267 -1.30465 1.62699
-0.945183 -1.24505 2.74698
-1.89777 -0.991781 2.22795
-2.02373 -1.21786 2.03217
-1.63915 -2.60404 1.35459
-1.19089 -0.978148 2.76515
-1.49858 -0.153195 2.99051
-1.08699 -2.0212 2.08668
-0.52019 -1.4224 2.85373
-1.98157 -1.54012 1.92197
-1.26397 -2.50151 1.57803
-2.09828 -2.43361 1.31057
-2.03031 -2.31738 1.43687
-1.31211 -1.5909 2.30176
-1.32112 -1.98066 2.02231
-1.62106 -1.30979 2.28302
-1.47369 -1.19001 2.44642
-2.16077 -2.4982 1.22297
-0.752234 -1.10733 2.97274
-1.75307 -2.61792 1.29963
-0.949581 -2.24757 1.92937
-1.21045 -1.35552 2.51272
-0.755522 -1.28984 2.82764
-1.95243 -1.3711 2.02132
-1.03929 -2.16027 1.98256
-2.05135 -1.30167 1.97562
-1.48811 -1.73782 2.11234
-0.68315 -1.36448 2.81023
-2.64737 -1.74725 1.27074
-0.897792 -1.66598 2.45684
-1.71405 -1.15555 2.29643
-1.75728 -1.57554 2.05326
-0.8886 -2.14461 2.04871
-2.3597 -1.04181 1.78907
-1.51845 -1.36856 2.31732
-2.44377 -1.18829 1.66025
-2.40697 -2.29926 1.2108
-1.53463 -0.71591 2.653
-1.68936 -2.72742 1.20036
-0.525868 -1.34863 2.91509
-0.351991 -1.46741 2.90738
-1.47934 -2.63007 1.37645
-2.19016 -0.948845 1.98526
-1.28947 -1.28355 2.51043
-1.46815 -0.376845 2.89268
-1.44766 -0.993372 2.57302
-1.4461 -2.37723 1.64331
-2.08051 -1.04116 2.05327
-0.972915 -1.62675 2.45074
-1.62355 -2.0008 1.86826
-0.753415 -1.52026 2.64532
-2.24712 -2.65211 1.03359
-1.78511 -1.5115 2.06938
-1.18718 -0.976854 2.76858
-1.73115 -1.19278 2.26597
-2.7661 -1.37528 1.23593
-1.86449 -1.0072 2.24861
-2.19878 -1.34459 1.8378
-1.73343 -1.32701 2.19816
-0.331767 -1.50773 2.8802
-1.12443 -0.831239 2.90759
-1.32278 -2.40689 1.65672
-1.82571 -0.498065 2.49721
-0.920448 -1.24088 2.7651
-2.41551 -1.6911 1.5165
-2.40184 -1.007 1.75475
-1.03894 -1.72468 2.34424
-0.616675 -1.55291 2.68856
-1.11763 -0.801682 2.93212
-2.55733 -1.58762 1.42044
-1.52314 -0.792787 2.62254
-2.24211 -1.01791 1.91305
-1.41265 -0.972816 2.6098
-2.45376 -1.21426 1.64242
-0.991173 -1.62235 2.44503
-1.47291 -1.14785 2.4703
-2.42167 -2.28466 1.20925
-1.4474 -2.2622 1.7446
-0.663104 -1.74499 2.4994
-1.20273 -1.92719 2.11482
-1.41695 -0.813929 2.6948
-1.0023 -2.38125 1.77786
-1.41788 -2.11778 1.87478
-1.61056 -2.30293 1.64554
-2.17717 -1.59869 1.75116
-1.58747 -0.922831 2.50576
-1.97134 -2.63366 1.19434
-0.827874 -1.01538 2.99217
-1.59194 -1.87215 1.97081
-1.90659 -2.44261 1.39977
-2.44546 -2.51697 1.02236
-2.07346 -0.665614 2.19339
-2.0823 -1.86528 1.68955
-1.84469 -2.40022 1.46386
-1.43258 -2.18223 1.81704
-1.75341 -1.31349 2.19109
-1.00239 -2.22292 1.93645
-1.74235 -2.13874 1.71332
-1.8677 -2.5185 1.35035
-1.92525 -0.573117 2.37144
-2.01634 -0.819332 2.19279
-1.24955 -2.49233 1.59184
-2.19796 -0.847609 2.0104
-1.68123 -1.50918 2.13704
-2.45085 -1.71657 1.47479
-0.993365 -2.27685 1.88691
-0.917584 -2.17993 2.00535
-1.67623 -0.970271 2.41409
-1.32041 -0.521916 2.94209
-2.41662 -1.65959 1.52809
-2.01894 -1.81468 1.7583
-1.84143 -1.39801 2.0884
-1.12573 -1.79376 2.25134
-2.21816 -1.1785 1.88153
-1.11315 -1.10208 2.73862
-1.44256 -2.35843 1.66176
-0.956249 -1.9542 2.19511
-2.01852 -2.69792 1.10621
-2.31478 -1.41865 1.70962
-2.17332 -1.43191 1.82456
-1.52167 -0.125115 2.98282
-2.31111 -1.92428 1.49678
-0.861595 -2.0025 2.18954
-2.4652 -1.52759 1.53214
-2.43398 -1.68064 1.50426
-2.16322 -1.2849 1.89066
-1.58059 -2.80172 1.13875
-2.74957 -1.62746 1.19264
-0.506677 -1.82788 2.4915
-0.772097 -1.79095 2.41129
-2.48902 -1.48758 1.52252
-2.23539 -1.8338 1.59836
-2.12783 -2.15267 1.49334
-1.46477 -2.12651 1.84822
-2.5821 -1.99352 1.23442
-1.03569 -1.7938 2.29233
-1.08817 -2.32123 1.81396
-2.09021 -1.14527 2.00576
-1.36474 -1.61363 2.25853
-1.67176 -0.41609 2.68059
-2.02637 -1.35449 1.97286
-2.16453 -1.42583 1.83414
-2.34577 -2.02323 1.41939
-2.00315 -1.73934 1.80836
-1.22868 -0.627918 2.95509
-1.25574 -2.54964 1.52793
-1.26934 -1.37469 2.46556
-1.65063 -1.8867 1.93083
-0.485358 -1.35486 2.93357
-1.92462 -0.637591 2.34686
-2.08029 -1.17115 2.00422
-1.3353 -1.29375 2.4757
-1.56682 -0.910145 2.52805
-2.11046 -2.60597 1.15402
-0.85043 -1.50308 2.6082
-1.37481 -2.0841 1.91931
-1.48107 -1.03547 2.52598
-2.43446 -2.07569 1.3221
-2.3987 -1.77021 1.49807
-0.904969 -1.6211 2.48862
-2.75156 -1.3864 1.25279
-0.812246 -1.95108 2.25455
-0.985891 -1.0382 2.86716
-0.511556 -1.53371 2.75977
-2.76124 -1.8317 1.11119
-0.904291 -1.76282 2.37623
-1.3035 -2.66139 1.38607
-0.913144 -1.04467 2.91199
-1.66058 -1.59238 2.10336
-0.938055 -2.35211 1.82638
-1.54203 -2.79956 1.15166
-0.445795 -1.6797 2.65889
-1.33757 -1.54926 2.31501
-2.51862 -2.26134 1.14648
-1.61105 -2.20887 1.72117
-1.27708 -1.28556 2.51687
-2.58234 -1.95307 1.25284
-0.747518 -1.45123 2.70412
-2.27966 -1.91813 1.52353
-1.18046 -2.33586 1.77093
-2.55703 -1.66652 1.3932
-2.15677 -2.62424 1.11197
-1.5601 -2.19945 1.75047
-1.96215 -0.933749 2.19722
-1.15649 -1.93621 2.12758
-2.10224 -2.57139 1.19055
-1.97042 -1.45132 1.97155
-2.03138 -1.71635 1.80114
-2.44594 -2.15711 1.26787
-1.55119 -1.52368 2.20827
-1.36165 -1.05092 2.60176
-2.55724 -2.39494 1.02525
-2.10944 -0.92194 2.07019
-1.53694 -1.00538 2.50141
-1.44575 -1.05475 2.54059
-0.898669 -1.4596 2.61576
-1.2211 -1.53219 2.39002
-1.99575 -2.20634 1.53497
-1.61158 -1.6268 2.1124
-0.31875 -1.49205 2.9025
-0.647116 -1.46736 2.74519
-0.881607 -2.17 2.02673
-1.91746 -0.555051 2.386
-1.36539 -2.46544 1.58531
-2.08992 -1.66423 1.78591
-2.3895 -1.25774 1.69433
-1.74547 -1.41511 2.1453
-1.2189 -2.20258 1.8811
-2.30654 -1.16813 1.80305
-1.22436 -2.15489 1.92061
-2.42615 -1.05318 1.71631
-0.682068 -1.74298 2.49266
-1.5764 -1.81816 2.01403
-2.00119 -0.737194 2.23722
-0.50457 -1.48274 2.80897
-2.00363 -0.829776 2.20049
-2.72783 -1.69592 1.19775
-1.2372 -1.74333 2.23563
-2.21364 -1.02139 1.93905
-0.585152 -1.44424 2.79857
-0.972915 -2.37061 1.79721
-0.8562 -1.74676 2.41106
-0.459938 -1.30647 2.99216
-1.3358 -2.12261 1.90445
-2.29272 -1.0225 1.86227
-2.63857 -2.07837 1.13875
-1.64047 -1.15296 2.35074
-2.22758 -2.4489 1.22397
-1.82973 -2.61756 1.27053
-1.44282 -2.34935 1.66989
-1.4108 -1.24961 2.454
-1.15567 -0.944334 2.8116
-0.998322 -1.86129 2.25502
-2.46096 -1.11908 1.66121
-0.988578 -1.05365 2.85456
-1.88766 -1.60718 1.95276
-2.60239 -1.96511 1.22807
-2.30057 -1.28626 1.76929
-1.49367 -1.72132 2.12001
-1.94516 -0.796351 2.26605
-1.67243 -2.03788 1.81858
-1.17821 -1.29509 2.57132
-1.68681 -2.10318 1.7656
-2.19613 -0.841556 2.01413
-1.85034 -1.65133 1.95377
-1.37167 -1.78945 2.13735
-2.04958 -1.49588 1.89322
-2.64502 -2.21807 1.05754
-1.90901 -0.995486 2.21712
-1.47189 -1.38471 2.33711
-1.32043 -1.98469 2.01954
-1.83117 -0.57695 2.45879
-2.84812 -1.6965 1.04321
-1.81702 -0.510277 2.50029
-2.0141 -0.743997 2.22261
-1.01353 -2.31472 1.84305
-1.57741 -0.22078 2.87202
-1.94553 -2.67503 1.16307
-1.23034 -1.79074 2.20477
-2.80931 -1.42372 1.16605
-2.07073 -1.79325 1.73518
-2.57239 -1.63171 1.38997
-1.04245 -1.53206 2.48552
-2.60085 -1.34383 1.44705
-2.71003 -1.65815 1.23083
-2.47647 -2.24504 1.19128
-2.5964 -1.55935 1.38898
-2.62001 -1.89307 1.24212
-1.37368 -2.2264 1.80326
-2.9067 -1.51544 1.00107
-1.81234 -0.992926 2.29679
-1.03414 -2.03563 2.09491
-1.42059 -2.70454 1.30457
-0.382022 -1.4778 2.88076
-2.55946 -1.93718 1.28167
-2.77818 -1.7683 1.11274
-1.49016 -2.03592 1.90592
-1.5857 -2.77384 1.17396
-0.677118 -1.3659 2.81253
-2.86312 -1.64069 1.03748
-0.757007 -1.85116 2.36542
-1.86394 -1.02294 2.2423
-1.32762 -2.51966 1.54062
-1.58535 -1.24414 2.34179
-2.37513 -2.07007 1.3718
-2.16913 -0.897007 2.02248
-1.1593 -2.07744 2.0112
-1.2703 -2.45681 1.62295
-2.59403 -2.04316 1.19931
-2.40401 -1.26966 1.67631
-2.36698 -2.44005 1.14003
-1.28126 -2.44532 1.63141
-1.1951 -1.8315 2.1911
-2.81611 -1.88718 1.02244
-2.37254 -2.59357 1.00868
-2.10367 -2.32324 1.39184
-1.11877 -0.81784 2.92064
