ply
format ascii 1.0
comment Created by Open3D
element vertex 200
property double x
property double y
property double z
end_header
-1.57662 -2.46411 0.998226
-1.74593 1.43487 2.20514
-0.834508 0.275456 3.38002
-3.16061 -0.027992 -0.0020945
-2.88146 1.33518 0.339268
-2.46812 1.32208 1.31186
-3.04607 -0.763555 -0.0122177
-3.23272 -0.880511 -0.830919
-2.8116 -0.78855 1.365
-2.38981 0.308149 2.59855
-1.74537 -0.539442 3.52222
-1.51832 -2.50744 0.976809
-3.15918 0.582817 -0.0307779
-3.30102 -0.150082 -0.55887
-1.70374 0.015265 3.4092
-1.79883 -1.11888 3.31275
-3.06919 1.07135 0.02978
-2.93515 0.365534 0.917341
-2.94389 -0.136299 1.05309
-3.33459 0.0386235 -0.599533
-2.67733 1.89255 0.332772
-1.65253 -1.82651 2.49429
-2.0094 -2.17613 0.90132
-2.8033 0.335253 1.47127
-1.31456 -0.137724 3.53154
-3.01684 -0.399184 0.533392
-1.88997 1.91999 1.52235
-2.25164 -1.34252 2.58335
-2.57893 -1.339 1.43201
-2.13004 -1.62883 2.2426
-1.81139 0.179751 3.27878
-2.0901 1.82851 1.3686
-2.91836 0.0476736 1.15426
-2.74128 -1.41767 0.278896
-2.9717 -0.615086 0.586502
-1.59885 1.00389 2.75192
-1.91443 -0.188634 3.39571
-1.94785 -1.52301 2.7483
-1.40428 0.452244 3.26035
-0.793759 0.803893 3.11754
-2.99712 0.78223 0.413935
-2.30375 -1.62996 1.7475
-2.47265 -1.54116 1.32364
-1.75276 -1.77027 2.50966
-2.70845 1.26032 0.8345
-3.30419 -0.561167 -0.793154
-1.70542 0.22803 3.29957
-3.12232 -0.609655 -0.188589
-1.45081 -2.54008 0.994386
-1.17462 0.192653 3.42425
-1.6309 -2.11315 1.87103
-2.29611 -1.43938 2.28464
-2.622 0.433393 1.96588
-1.66393 1.36643 2.34726
-2.19192 2.08171 0.960193
-0.465684 0.61811 3.19709
-2.71241 0.624329 1.50133
-2.40576 -0.659433 2.94681
-1.98721 1.43127 1.95557
-1.90321 1.32684 2.16993
-2.27855 -6.43536e-05 2.99332
-1.52801 -2.27161 1.59712
-2.62306 -1.54442 0.528961
-2.40344 -0.460347 2.97177
-2.84498 -1.01196 0.692714
-3.00448 -0.578608 0.435522
-3.24409 -0.296839 -0.436343
-1.62985 1.08249 2.65832
-2.36105 -0.0344574 2.89769
-3.09576 -0.618844 -0.0798463
-1.67516 1.30126 2.40639
-2.19412 -0.203489 3.18777
-1.43495 0.800827 3.00479
-2.04873 1.2713 2.06394
-2.91788 0.540191 0.865061
-2.49079 -0.149082 2.72888
-3.03868 0.0906764 0.556464
-3.38198 -0.326198 -0.87624
-1.91818 1.70584 1.72532
-2.29139 -1.42006 2.33998
-3.15304 -0.544442 -0.258573
-1.0405 0.599843 3.22589
-2.50092 -0.436537 2.78475
-2.11133 -1.36604 2.78735
-1.9642 -0.34707 3.40951
-1.88564 -0.309053 3.44352
-2.29727 -0.249045 3.08484
-3.23759 0.426357 -0.25692
-2.23501 1.63946 1.3656
-2.27152 -1.15272 2.82484
-2.97022 1.02424 0.333514
-2.07352 -1.98682 1.33605
-3.46722 -0.479461 -1.16148
-2.38514 0.323158 2.59322
-1.88778 -1.66434 2.56595
-3.07984 0.356334 0.321225
-2.61048 0.890103 1.49092
-2.49888 1.71703 0.821255
-0.775293 0.721184 3.16548
-2.86776 1.26382 0.429605
-1.62887 -2.11348 1.87286
-2.86133 0.711445 0.92702
-2.70375 -1.53628 0.157213
-2.21291 0.634946 2.55433
-2.26978 0.477301 2.63107
-1.61217 -2.12836 1.85698
-2.43774 0.135244 2.65554
-2.37024 1.5442 1.24467
-2.33276 -0.589456 3.07773
-3.00538 -0.280989 0.671548
-3.24812 0.549953 -0.302267
-2.73569 -0.656427 1.95644
-3.14344 -0.569493 -0.24078
-2.69531 -0.997574 1.6759
-2.49703 0.337002 2.36526
-2.49585 1.41702 1.14649
-1.3787 0.633592 3.14749
-3.13649 0.660733 0.0182536
-2.51871 -0.544861 2.74003
-1.95004 0.393949 3.04546
-2.69283 -1.13101 1.3724
-1.88729 -1.91764 1.98409
-1.419 0.0861364 3.44776
-1.61725 -0.681546 3.54173
-1.84847 1.79606 1.70438
-2.95209 -0.857889 0.344111
-2.89765 0.740363 0.778589
-1.30359 1.04798 2.85173
-2.7371 -1.43656 0.251421
-1.85795 0.768633 2.79473
-1.36338 1.02302 2.85001
-1.64828 -2.25575 1.46083
-1.9683 -1.6649 2.45606
-2.98937 -0.109067 0.80873
-3.28809 -0.372298 -0.62634
-2.76852 0.476665 1.46857
-2.47941 -1.24279 2.14392
-2.7246 -0.867538 1.75469
-1.71058 -1.44328 3.05007
-2.73687 -0.219701 2.05824
-3.01469 0.565579 0.483328
-2.42556 -1.10218 2.56028
-2.39572 -1.44074 1.96715
-2.67187 -0.14565 2.26213
-2.46939 0.0578964 2.65134
-2.20146 1.38845 1.71118
-1.95545 -2.11861 1.23278
-2.51094 -1.74371 0.45733
-3.36273 -0.836024 -1.13308
-2.24357 0.286666 2.83594
-2.64816 -0.821176 2.18406
-1.75402 1.51951 2.10564
-1.88314 -1.4036 2.98474
-1.93892 -0.524485 3.44219
-1.5145 0.730592 3.029
-1.58255 1.04504 2.72319
-1.49732 -0.126654 3.51196
-2.08942 0.35538 2.95436
-2.94989 -0.614008 0.722669
-2.45561 0.940602 1.79142
-2.43275 -1.6305 1.20775
-2.1612 -1.15566 2.98762
-2.78974 0.95876 0.918984
-2.02643 1.00744 2.38922
-2.52498 1.18204 1.35405
-2.15827 -0.420357 3.27728
-2.81989 -1.18091 0.447525
-1.71346 -1.04643 3.39187
-2.56712 -0.208902 2.58297
-1.77169 -2.04681 1.83587
-2.97663 0.260194 0.794986
-2.01813 -1.39568 2.8639
-2.04546 0.344922 3.00405
-2.9755 0.712434 0.532757
-2.97926 0.83296 0.438248
-2.16253 -1.3076 2.79766
-1.71879 0.131213 3.3477
-0.724837 0.58582 3.23534
-2.3344 2.57502 0.35585
-2.57303 -0.283036 2.59196
-1.57572 -0.863636 3.50522
-2.64901 1.93614 0.349886
-2.15595 -0.438566 3.28162
-2.60283 1.70197 0.636289
-2.12596 -1.78479 1.82899
-2.92965 -1.25314 -0.239182
-2.37407 0.523558 2.41943
-2.53508 -1.35082 1.6249
-1.40223 0.852509 2.97581
-1.92763 1.47282 1.97809
-1.72116 0.894013 2.77719
-1.74666 0.917925 2.73694
-1.85342 0.192862 3.24833
-2.51869 1.27033 1.26529
-3.01951 -0.126153 0.645539
-2.59043 -0.963532 2.23135
-1.67569 1.42387 2.27735
-2.4388 -1.72607 0.846399
-1.85247 -1.50469 2.87186
-1.93167 0.0274469 3.29471
