ply
format ascii 1.0
comment Created by Open3D
element vertex 250
property double x
property double y
property double z
end_header
-2.33082 -0.516119 2.39558
-3.73591 -0.312681 0.646298
-2.26514 2.10228 0.134506
-2.75399 1.45169 1.23061
-2.84942 -0.477787 2.17135
-1.97527 1.51761 1.94836
-0.395301 2.53446 2.23593
-1.9684 1.9476 1.42895
-2.18959 -0.485914 2.45834
-2.9298 0.982413 1.72539
-3.66596 0.486231 1.01457
-2.27151 1.65068 1.54085
-3.36705 0.379414 1.79397
-1.94215 1.16933 2.24007
-3.24121 0.146857 1.98338
-3.38253 -0.298469 1.86979
-1.66802 1.50336 2.15756
-1.09984 2.69527 1.34143
-1.30554 1.77798 2.16501
-2.4911 1.87928 0.261476
-3.77419 0.194787 0.992362
-1.30488 2.48903 1.38553
-2.44489 1.02326 2.05648
-1.50381 2.17621 1.60094
-2.43473 1.89584 0.633303
-2.79335 0.210267 2.23565
-1.68433 1.36774 2.24668
-3.73108 -0.39441 1.27778
-2.1943 2.07216 0.754234
-3.07024 1.02273 1.51444
-2.22134 -0.607379 2.41337
-3.73729 -0.4592 0.897405
-2.76923 -0.739475 2.10854
-3.6518 0.238152 0.397024
-3.72726 -0.311033 0.609546
-0.439489 2.56441 2.17223
-2.27218 2.08907 0.262148
-3.71579 -0.0400992 0.490581
-2.53843 0.488075 2.28487
-2.15035 2.09359 0.805012
-2.22434 2.03889 0.784063
-1.82953 1.73049 1.84198
-3.70622 0.295823 1.29542
-3.48219 -0.204158 1.79538
-2.71151 1.66203 0.351076
-3.75762 -0.129633 1.36114
-1.67892 2.66979 0.165098
-3.71381 -0.176255 1.46701
-1.08919 2.13047 2.01195
-3.01856 0.190131 2.11883
-3.65456 0.406218 0.577102
-2.5801 1.74302 0.771131
-1.52236 2.76689 0.391477
-3.24382 -0.653335 1.8318
-2.52916 1.55572 1.38118
-1.30521 2.9699 0.429756
-2.3634 1.79883 1.14752
-2.27636 -0.425496 2.43827
-3.21923 1.10332 0.982073
-2.00562 1.59611 1.84783
-2.01816 1.68146 1.74267
-1.409 2.34613 1.4703
-2.49838 1.84384 0.610149
-3.0361 -0.306746 2.1118
-3.48766 -0.620085 1.586
-3.7169 0.197695 0.58991
-3.24971 0.919176 1.39497
-0.959433 2.72981 1.47008
-2.49124 -0.16855 2.38904
-2.28663 1.22986 1.99519
-3.28736 0.840288 1.45774
-2.22641 2.12308 0.352625
-2.48967 -0.459571 2.34448
-1.94916 2.14419 1.09219
-2.01017 2.21406 0.788366
-0.507981 2.52907 2.13978
-1.44494 2.85281 0.358897
-3.47172 0.290592 1.72862
-3.35994 0.576436 1.66344
-2.27245 1.48964 1.74891
-1.82218 1.22049 2.27017
-3.56232 0.63231 0.617428
-3.1535 -0.0182178 2.0633
-1.39402 1.84199 2.05178
-2.17461 1.71215 1.55521
-3.49804 -0.484139 1.67422
-1.09191 2.34336 1.7946
-2.38166 -0.3695 2.40783
-2.05634 2.16229 0.830655
-3.04836 0.915711 1.6769
-2.21597 2.15024 0.137602
-1.22918 2.61138 1.2971
-2.9514 0.167738 2.16107
-3.27158 0.621796 1.72535
-3.62982 0.531783 1.13368
-1.98353 2.24579 0.758229
-2.25982 0.145506 2.47376
-2.74091 -0.540965 2.2064
-3.35563 0.953129 0.594586
-1.86039 0.946243 2.40309
-3.47509 0.429017 1.63807
-3.18225 -0.249925 2.03147
-3.17654 0.0874706 2.03858
-2.27435 -0.0475684 2.47781
-3.75051 0.249212 1.15081
-2.0977 1.05184 2.2322
-1.97263 1.3391 2.10325
-1.29329 2.99193 0.402946
-1.01546 2.675 1.47479
-1.93421 1.96169 1.44665
-2.48591 1.86697 0.523523
-3.30084 1.0272 0.609162
-1.99314 2.06315 1.19044
-2.1549 -0.2104 2.51483
-1.22376 2.90501 0.777595
-3.24106 0.886053 1.46435
-1.32652 2.66711 1.0614
-2.76649 -0.559495 2.18715
-3.39801 0.0292228 1.87818
-3.76201 0.18747 1.19371
-0.505787 2.48283 2.18
-3.67745 0.456884 0.851155
-2.24877 1.61516 1.61411
-3.68315 0.176892 1.4667
-0.742168 2.48194 1.97147
-1.11276 2.88982 1.01095
-2.67706 1.6962 0.333482
-2.75979 1.60475 0.622768
-2.02165 1.54639 1.88693
-1.67368 2.59878 0.479464
-1.79747 2.19808 1.21993
-0.996788 2.83494 1.27563
-3.57765 0.446886 1.45329
-1.53568 2.84196 0.0409808
-2.55391 1.81618 0.366053
-1.95825 2.15625 1.04954
-1.33437 2.79232 0.795534
-2.04219 1.96973 1.29781
-3.77238 0.0792298 0.755552
-0.760678 2.53929 1.89868
-3.75086 -0.0669193 0.613185
-3.49915 -0.612504 1.57592
-1.84633 2.50353 0.177488
-3.32099 0.331691 1.86063
-3.1107 0.182998 2.06423
-3.72682 -0.0873807 0.526371
-2.29331 0.715983 2.3112
-1.26476 2.17474 1.82409
-3.722 0.280757 0.705592
-2.68325 0.299048 2.27038
-1.56737 2.73445 0.352934
-2.54358 0.2703 2.34009
-1.65957 2.58688 0.561583
-3.55143 -0.432077 1.63478
-2.35553 -0.370965 2.4179
-3.54824 -0.159334 1.7293
-1.20708 2.6057 1.33472
-1.68562 1.06704 2.4234
-2.32092 0.823542 2.2471
-1.43692 2.70331 0.785599
-3.54015 0.653243 0.558457
-2.93451 1.42183 0.776149
-3.73529 -0.0508415 0.555774
-3.38482 0.224818 1.84513
-2.24133 2.03629 0.742108
-0.828059 2.58055 1.79068
-0.697428 2.49079 2.0036
-3.65914 0.42561 1.26136
-2.49875 0.0043278 2.38905
-2.16032 2.14769 0.562239
-3.68979 0.425553 1.08561
-1.07878 2.24446 1.90996
-2.30938 1.87295 1.07081
-3.73592 0.00235598 0.564805
-3.69293 -0.498295 0.677972
-3.72364 0.132016 1.39531
-3.78274 -0.0850823 1.27116
-3.1422 0.704951 1.78579
-1.87347 2.47751 0.175873
-2.52155 1.0629 1.9769
-1.77625 2.52305 0.410261
-1.44516 1.26354 2.43341
-2.57948 -0.0960406 2.35588
-3.20564 1.07706 1.13779
-3.36705 0.868729 1.23022
-3.69853 -0.165276 0.446653
-2.24192 1.95147 1.00551
-2.0009 1.69149 1.74566
-3.54974 0.280368 1.63541
-2.83014 0.957329 1.83883
-3.63648 0.474145 1.25307
-3.70125 0.212876 0.542435
-2.71923 1.10103 1.79321
-3.59215 -0.406547 1.58999
-1.75474 2.27195 1.1423
-3.6884 -0.145191 0.412624
-1.51948 2.86795 -0.000919721
-3.78296 -0.105406 1.26879
-2.68191 1.30872 1.58233
-2.86239 1.39807 1.13619
-1.50264 2.97706 -0.612748
-1.45471 3.06231 -0.824778
-1.68172 2.74575 -0.786863
-1.48202 3.0488 -1.47244
-1.8667 2.51592 -0.116695
-1.48377 2.96474 -0.317825
-1.95632 2.36374 -0.903165
-1.55887 2.88332 -0.385172
-1.63805 2.78259 -1.28202
-1.82175 2.57584 -0.466415
-2.13316 2.18392 -0.632308
-1.63775 2.80395 -0.68052
-1.7009 2.66463 -1.39688
-1.59611 2.84233 -1.42823
-1.7481 2.57714 -1.43812
-1.51307 2.98932 -1.11785
-1.88292 2.48638 -0.726648
-1.55574 2.91538 -0.749348
-2.02565 2.33488 -0.488784
-2.25063 2.11775 0.0100408
-1.55175 2.92808 -1.12948
-2.25999 2.1072 -0.0347898
-2.0453 2.29623 -0.613915
-1.46859 3.06132 -1.12917
-1.88604 2.3443 -1.42711
-1.59834 2.84959 -1.25281
-2.03218 2.29925 -0.701073
-1.94278 2.43649 -0.124547
-1.88431 2.3659 -1.36088
-1.45907 3.08197 -1.22983
-1.75615 2.58902 -1.29619
-2.19831 2.17056 0.0391172
-1.60839 2.83199 -1.27211
-1.53714 2.95014 -1.01511
-2.00167 2.37447 -0.112956
-1.83307 2.52926 -0.929169
-1.43761 3.03623 -0.413616
-1.67864 2.72214 -1.22858
-1.66897 2.72773 -0.128796
-1.98184 2.3947 -0.346221
-1.87811 2.43893 -1.08977
-1.6043 2.84254 -0.567017
-1.83456 2.49499 -1.136
-1.64125 2.75698 -1.48449
-1.54724 2.88058 -0.254089
-1.71408 2.70574 -0.639647
-1.38095 3.15416 -0.699782
-1.60303 2.82294 -1.51605
-1.7351 2.67618 -0.749352
-1.92317 2.46037 -0.222803
