ply
format ascii 1.0
comment Created by Open3D
element vertex 400
property double x
property double y
property double z
end_header
1.84552 -2.50492 0.164261
2.47321 -1.79131 -0.745036
2.21226 -2.08624 -0.959798
1.52455 -2.66591 -0.517475
2.4054 -1.86762 -1.03074
2.30354 -2.23426 1.38374
2.38904 -1.88863 -0.946413
2.51121 -1.86009 0.329865
2.66072 -1.59393 0.126593
2.10017 -2.34976 0.546685
2.45782 -2.03338 1.12645
1.90574 -2.44595 0.0193111
2.72345 -1.44843 -1.27747
2.01835 -2.2909 -0.642923
2.40835 -1.86396 -1.06095
2.29578 -1.9948 -1.17087
1.52896 -2.66665 -0.429263
1.57959 -2.69094 0.484573
2.38634 -1.9016 -0.72552
2.7472 -1.38205 -0.738212
1.8326 -2.5182 0.207649
2.63419 -1.73999 1.0106
2.12188 -2.19844 -0.589925
2.59593 -1.76752 0.612673
2.42393 -1.97116 0.278353
2.02849 -2.32679 -0.158194
2.61714 -1.59208 -0.694252
2.40382 -1.88778 -0.618124
2.76076 -1.45066 0.805352
2.56557 -1.73675 0.0210435
2.0771 -2.3002 -0.017508
1.4829 -2.68771 -0.994708
2.59404 -1.75725 0.508827
1.75082 -2.52983 -0.300471
1.45103 -2.75465 0.55515
2.20972 -2.29667 0.952013
2.73137 -1.45001 0.00613769
2.54314 -1.73504 -0.269365
2.53611 -1.88971 0.82607
2.24383 -2.29571 1.43189
2.58078 -1.8155 0.801265
2.24786 -2.05149 -0.874684
2.34973 -1.9352 -0.94012
1.79375 -2.53529 0.107904
1.63568 -2.68614 1.2565
2.35966 -2.12697 0.839513
2.21317 -2.14285 -0.23558
2.18416 -2.11418 -1.00865
2.03408 -2.39109 0.428273
2.56941 -1.87149 1.28456
2.69365 -1.50367 -0.171459
2.17007 -2.19404 -0.171636
2.195 -2.19938 0.0659024
1.80169 -2.5165 -0.0358998
1.81497 -2.4489 -0.953357
1.90928 -2.37066 -1.00941
1.72678 -2.52023 -0.785843
2.29831 -2.24056 1.62279
1.81357 -2.53882 0.287616
2.14476 -2.33324 0.738799
1.78538 -2.60902 0.992439
1.53371 -2.65328 -0.840191
2.13407 -2.28964 0.308009
1.87649 -2.46103 -0.0492429
2.14219 -2.35273 0.901208
1.77717 -2.48563 -0.705509
2.55489 -1.86489 0.866347
1.69441 -2.65101 0.844271
2.59333 -1.77769 0.659165
1.69718 -2.64534 0.761186
2.16146 -2.2084 -0.123022
2.36023 -2.17356 1.52173
2.59458 -1.64372 -0.42128
2.73927 -1.42149 -0.148973
2.12967 -2.38651 1.18725
1.86204 -2.41469 -0.815824
2.57239 -1.85619 1.59916
2.64534 -1.72438 1.35516
2.51622 -1.83599 0.21139
2.68295 -1.54225 0.0216233
2.25433 -2.2754 1.20861
2.47284 -1.86106 -0.0458347
1.71989 -2.58818 0.160351
2.40253 -2.07482 0.834181
2.31282 -2.21629 1.77374
2.47591 -1.94785 0.597816
2.45499 -1.80798 -1.15613
2.63599 -1.56785 -0.595525
2.70413 -1.54529 1.56262
2.13743 -2.17174 -0.75186
2.30811 -2.14616 0.538907
2.71904 -1.43542 -1.02545
2.74467 -1.40672 -0.208773
1.86698 -2.55216 0.846011
2.44645 -1.81849 -0.931005
2.77803 -1.36772 0.167139
1.7352 -2.60758 0.513628
1.39921 -2.74835 -1.16675
2.0692 -2.41668 0.938599
2.08738 -2.39723 0.884824
2.24024 -2.2993 1.43944
2.3566 -2.05353 0.275552
1.78204 -2.60082 0.805649
2.51895 -1.95711 1.40235
1.76882 -2.6239 1.19193
1.44923 -2.75695 0.603912
2.36238 -2.04858 0.288641
2.73106 -1.4779 0.285954
1.4058 -2.77756 0.982242
2.69642 -1.50442 -0.110507
2.5778 -1.72018 0.0384383
1.74252 -2.63715 1.33527
2.30884 -2.20744 1.06007
2.23758 -2.09304 -0.456918
1.49937 -2.72309 0.336922
1.59275 -2.69273 1.50328
2.67517 -1.53125 -0.223672
2.21482 -2.31382 1.2184
2.42876 -2.00665 0.568592
2.20307 -2.14441 -0.312485
2.59704 -1.62585 -0.619447
1.4636 -2.70416 -1.11564
1.88068 -2.51093 0.471647
1.77957 -2.58636 0.582649
2.0643 -2.35195 0.312421
2.43861 -2.00499 0.649237
2.66135 -1.5927 0.125618
2.38126 -2.14826 1.5455
1.53512 -2.6525 -0.816539
2.10194 -2.37828 0.814417
2.5292 -1.87667 0.63827
2.57056 -1.67229 -0.510764
1.73267 -2.62637 0.766447
1.3931 -2.76753 1.33931
2.59878 -1.75002 0.513784
1.68105 -2.64879 0.670634
2.69107 -1.59898 1.49466
2.4574 -2.04902 1.44244
1.55686 -2.65937 -0.237284
1.69455 -2.66026 1.25895
2.09054 -2.42429 1.63334
2.71052 -1.57657 0.940205
1.52289 -2.71223 0.351927
2.42695 -2.08841 1.36026
1.61537 -2.69135 1.37078
2.69903 -1.46365 -0.680166
2.01535 -2.27942 -0.921254
2.72314 -1.42944 -1.03471
1.43406 -2.71636 -0.741472
2.27182 -2.24831 1.08428
1.93376 -2.51096 0.879952
1.80237 -2.5081 -0.123369
1.70119 -2.60895 0.273311
2.71717 -1.56223 0.968072
2.76636 -1.40345 0.292735
1.54716 -2.64461 -0.953555
2.21632 -2.09143 -0.75227
1.97552 -2.50073 1.66918
2.70472 -1.59318 1.03781
2.33607 -2.00934 -0.225475
1.83038 -2.46657 -0.370404
2.77784 -1.40203 1.0419
2.46126 -1.99227 0.782124
2.14966 -2.21571 -0.15755
1.64911 -2.64806 0.391773
2.51049 -1.73951 -1.20685
2.10214 -2.21338 -0.642576
2.57673 -1.84361 1.63568
1.41311 -2.76407 0.347981
1.60182 -2.61443 -1.23129
2.10845 -2.20103 -0.735292
1.82573 -2.56611 0.686785
2.08044 -2.21887 -0.923715
2.73319 -1.52176 0.896647
2.0071 -2.28456 -1.02891
2.13432 -2.16348 -1.14384
2.0408 -2.4613 1.59458
2.30461 -2.22425 1.21224
2.63906 -1.73823 1.16953
2.52139 -1.93259 1.01948
2.52626 -1.7151 -1.08424
2.08679 -2.22023 -0.760833
2.32575 -1.97028 -0.769792
2.01817 -2.27922 -0.855536
1.46836 -2.74982 0.640356
2.51045 -1.93025 0.842885
2.26554 -2.05339 -0.558126
1.72746 -2.64269 1.40756
1.44671 -2.7395 0.14273
2.61913 -1.58662 -0.766723
1.80909 -2.4531 -1.08202
2.49484 -1.7565 -0.924853
2.57765 -1.853 1.51603
2.39228 -2.12469 1.21617
1.8716 -2.45119 -0.188564
1.37781 -2.75678 -1.0677
2.68509 -1.54394 0.0724855
2.33913 -1.94712 -0.953074
2.6367 -1.5718 -0.510107
1.42995 -2.75851 1.31144
2.34554 -2.08026 0.371514
2.22009 -2.31895 1.50928
2.05053 -2.42501 0.868073
2.69271 -1.47232 -0.787738
1.66353 -2.67454 1.18133
2.66615 -1.68025 1.09872
1.76857 -2.51379 -0.34668
1.56627 -2.63513 -1.12373
1.40001 -2.76393 0.188981
2.24267 -2.10089 -0.33128
2.30843 -2.22633 1.70093
2.17382 -2.1797 -0.262153
1.56713 -2.64031 -1.25246
2.30257 -1.99563 -0.787151
2.61501 -1.77912 1.05647
1.46994 -2.72474 0.0797758
2.18439 -2.17168 -0.239957
2.53136 -1.86042 0.542153
2.24999 -2.28118 1.23224
2.27767 -2.01481 -1.17875
2.66641 -1.61276 0.36749
2.59068 -1.8237 1.56616
1.729 -2.53539 -0.440096
2.5433 -1.69764 -0.727118
1.60541 -2.66665 0.310264
1.36255 -2.77068 -0.110698
2.6428 -1.6317 0.179209
1.56755 -2.64238 -0.441355
1.86315 -2.54317 0.697617
1.5603 -2.66463 -0.112069
2.62478 -1.76839 1.26041
1.4455 -2.71259 -0.538299
2.65932 -1.58181 0.00135057
2.40858 -1.86406 -1.12129
2.32477 -2.20525 1.74753
2.04102 -2.33372 -0.00264458
2.60685 -1.79547 1.07813
1.70118 -2.63378 0.607037
1.6955 -2.58839 -0.0258448
1.47209 -2.75166 1.1349
1.38811 -2.74459 -0.862458
1.53296 -2.7201 0.617431
1.95425 -2.39569 -0.0960958
1.57848 -2.6947 0.543652
2.52906 -1.79281 0.0335805
1.41312 -2.76158 0.282956
2.1676 -2.3286 0.884435
1.72538 -2.53714 -0.452492
2.29403 -2.14878 0.446658
2.5839 -1.84313 1.19841
1.80651 -2.45554 -0.957755
1.3971 -2.74628 -0.308878
2.34051 -2.13124 0.697865
1.48343 -2.71354 -0.00152028
1.37552 -2.75098 -0.729409
2.19108 -2.27199 0.583964
2.28748 -2.13601 0.30511
1.65086 -2.58104 -0.596982
2.51076 -1.73546 -1.08363
1.92367 -2.4816 0.481575
1.99985 -2.32231 -0.452082
2.53204 -1.88968 0.77366
2.64128 -1.56283 -0.537861
2.12125 -2.36601 0.853775
2.48117 -1.82081 -0.279279
1.40433 -2.77833 0.959572
1.98872 -2.30954 -0.770464
1.76318 -2.62731 1.31713
2.57928 -1.81059 0.737618
1.67786 -2.63416 0.424109
2.34833 -2.12966 0.755169
1.63816 -2.68546 1.09351
1.38275 -2.74698 -0.663245
1.39792 -2.75549 1.47046
2.16259 -2.15575 -0.622098
1.92866 -2.37354 -0.569122
2.10549 -2.40492 1.77346
1.95685 -2.45364 0.447563
2.40225 -2.09694 1.0312
1.9045 -2.52474 0.804956
2.5881 -1.79231 0.707128
2.73511 -1.50222 1.31405
2.45299 -1.82813 -0.586418
2.33556 -2.19485 1.72376
1.84154 -2.47805 -0.141994
2.21589 -2.23387 0.476194
1.55122 -2.67164 -0.0825901
2.07159 -2.41359 0.924924
2.02295 -2.42504 0.652087
2.67205 -1.50618 -0.971105
2.37512 -2.02108 0.203661
2.4812 -1.86327 0.054426
2.04986 -2.28044 -0.424434
2.1664 -2.13456 -0.923863
2.48948 -1.78606 -0.512624
2.53398 -1.92899 1.55307
2.7596 -1.38843 -0.0620345
1.51424 -2.67407 -0.466005
1.81384 -2.51159 0.00292035
1.98749 -2.49939 1.46733
2.56697 -1.66119 -0.809383
2.31908 -1.98434 -0.671879
2.06057 -2.44916 1.48462
1.81971 -2.55445 0.501961
1.71724 -2.64159 1.53847
1.92375 -2.44366 0.126622
1.97012 -2.48155 0.829288
2.68769 -1.48177 -0.954877
2.22044 -2.29408 1.0313
2.02244 -2.40868 0.4995
1.68552 -2.66249 1.36638
2.28897 -2.0081 -0.840064
2.20641 -2.32279 1.23836
2.65882 -1.6894 1.42785
2.54504 -1.87282 0.799709
2.02972 -2.31411 -0.266176
2.74961 -1.46701 0.614589
1.50742 -2.67968 -0.426909
1.46201 -2.75447 1.1626
1.63167 -2.61167 -0.266565
1.95074 -2.36502 -0.442592
1.5176 -2.67482 -0.397578
2.52883 -1.89357 0.765768
1.42419 -2.74031 -1.28808
2.6623 -1.57894 0.0218072
2.14259 -2.19831 -0.373975
2.57004 -1.66631 -0.606535
2.7041 -1.59522 1.06892
1.66049 -2.62828 0.210032
2.45351 -1.84836 -0.363064
1.76688 -2.49056 -0.777973
2.33649 -2.19362 1.27683
1.5949 -2.61993 -1.24173
1.44362 -2.76162 0.693827
2.69462 -1.61651 1.22456
1.99914 -2.49121 1.36805
1.53574 -2.72658 1.21778
1.85226 -2.58056 1.30661
2.12842 -2.39552 1.62506
2.33277 -1.96897 -0.666773
1.82652 -2.47748 -0.272901
2.72149 -1.45077 -0.200408
1.87279 -2.40127 -1.11743
2.43604 -2.05174 1.00917
2.42716 -1.99484 0.470594
2.23626 -2.08966 -0.506416
2.29923 -2.05679 -0.182009
2.47531 -1.78081 -1.02973
1.90332 -2.43317 -0.123326
2.75894 -1.39017 -1.24095
2.74791 -1.48331 1.12197
2.61871 -1.64634 -0.0314592
2.25087 -2.28981 1.54588
2.02915 -2.26403 -1.06714
2.05444 -2.2999 -0.194836
1.56897 -2.71507 1.04745
2.61377 -1.75016 0.721991
2.59061 -1.83315 1.25782
2.5847 -1.84078 1.17776
2.52791 -1.83101 0.29649
2.76192 -1.42213 0.399183
2.42013 -2.09204 1.69788
1.77204 -2.49312 -0.629594
1.56418 -2.71303 0.818526
2.5176 -1.9423 1.71568
1.40381 -2.73774 -0.482876
1.68177 -2.66319 0.997417
2.14277 -2.2084 -0.278579
1.73249 -2.51602 -0.785886
2.57649 -1.64992 -1.15787
2.57062 -1.86987 1.41999
2.03245 -2.46002 1.15286
1.5702 -2.64093 -0.436886
1.92642 -2.5206 0.944695
2.5825 -1.84036 1.10355
1.731 -2.61564 0.58919
2.12692 -2.24368 -0.105953
2.60645 -1.62188 -0.467164
1.93647 -2.34688 -1.07733
2.2473 -2.13534 -0.0119642
2.78014 -1.38023 1.18389
2.20599 -2.20591 0.196675
1.9637 -2.50657 1.1233
1.4333 -2.72362 -1.11051
2.17161 -2.12624 -1.16263
2.3286 -1.9585 -0.982652
1.99508 -2.29999 -0.855606
1.93853 -2.40291 -0.148054
2.62735 -1.76125 1.38679
2.261 -2.03234 -1.12252
1.5504 -2.6819 0.0784606
1.73485 -2.51259 -0.848599
2.04542 -2.25856 -0.76731
2.56748 -1.65874 -1.03912
2.3603 -1.98037 -0.228926
2.64172 -1.63297 0.174479
1.46393 -2.7244 0.010741
2.20566 -2.17286 -0.0550553
2.03651 -2.37529 0.312089
1.91977 -2.42321 -0.0951766
