ply
format ascii 1.0
comment Created by Open3D
element vertex 400
property double x
property double y
property double z
end_header
1.18883 -1.42113 -2.50492
2.27565 -1.22201 -1.79131
2.24298 -0.885624 -2.08624
1.44393 -0.712111 -2.66591
2.42972 -0.972036 -1.86762
0.6504 -2.6073 -2.23426
2.35852 -1.02009 -1.88863
1.54244 -2.00894 -1.86009
1.7919 -1.97093 -1.59393
1.09848 -1.87161 -2.34976
0.941419 -2.53446 -2.03338
1.33391 -1.36122 -2.44595
2.82908 -1.02246 -1.44843
1.8818 -0.972575 -2.2909
2.45316 -0.952755 -1.86396
2.45129 -0.795434 -1.9948
1.38467 -0.777602 -2.66665
0.774295 -1.45959 -2.69094
2.20042 -1.17438 -1.9016
2.46456 -1.42057 -1.38205
1.14902 -1.44268 -2.5182
1.14805 -2.57725 -1.73999
1.91754 -1.08326 -2.19844
1.40238 -2.26883 -1.76752
1.51715 -1.9108 -1.97116
1.54622 -1.3225 -2.32679
2.34151 -1.35969 -1.59208
2.13683 -1.26267 -1.88778
1.38268 -2.52162 -1.45066
1.79925 -1.82901 -1.73675
1.48111 -1.45635 -2.3002
1.75193 -0.345203 -2.68771
1.47447 -2.19406 -1.75725
1.45048 -1.02555 -2.52983
0.633482 -1.41858 -2.75465
0.889329 -2.23568 -2.29667
1.92703 -1.93571 -1.45001
1.98875 -1.60781 -1.73504
1.20918 -2.37742 -1.88971
0.574125 -2.59912 -2.29571
1.25831 -2.39147 -1.8155
2.20797 -0.97098 -2.05149
2.32627 -0.996742 -1.9352
1.19207 -1.34467 -2.53529
0.268119 -2.04508 -2.68614
1.07491 -2.26216 -2.12697
1.73153 -1.39837 -2.14285
2.25765 -0.831213 -2.11418
1.13548 -1.74115 -2.39109
0.908525 -2.72517 -1.87149
2.02594 -1.78346 -1.50367
1.65584 -1.41311 -2.19404
1.5055 -1.5987 -2.19938
1.29937 -1.2486 -2.5165
1.9575 -0.609251 -2.4489
2.06383 -0.636307 -2.37066
1.77669 -0.66534 -2.52023
0.477663 -2.77263 -2.24056
1.07901 -1.48576 -2.53882
0.994167 -2.03899 -2.33324
0.560695 -1.96422 -2.60902
1.6786 -0.490395 -2.65328
1.29122 -1.72681 -2.28964
1.3617 -1.29206 -2.46103
0.877504 -2.152 -2.35273
1.75552 -0.757777 -2.48563
1.19398 -2.41918 -1.86489
0.601138 -1.79512 -2.65101
1.36766 -2.29986 -1.77769
0.661848 -1.73833 -2.64534
1.61537 -1.44139 -2.2084
0.592912 -2.74496 -2.17356
2.13254 -1.53676 -1.64372
2.0423 -1.83162 -1.42149
0.666396 -2.34542 -2.38651
1.89354 -0.739787 -2.41469
0.688174 -2.94973 -1.85619
0.912294 -2.82877 -1.72438
1.62976 -1.92871 -1.83599
1.88184 -1.91242 -1.54225
0.739436 -2.44867 -2.2754
1.78098 -1.71616 -1.86106
1.10276 -1.32953 -2.58818
1.10899 -2.2887 -2.07482
0.381187 -2.88964 -2.21629
1.32801 -2.17345 -1.94785
2.55345 -0.918437 -1.80798
2.28503 -1.44283 -1.56785
0.807167 -3.01705 -1.54529
2.04304 -0.979747 -2.17174
1.25101 -2.01314 -2.14616
2.64775 -1.19755 -1.43542
2.0884 -1.79315 -1.40672
0.721937 -1.91838 -2.55216
2.38822 -1.07158 -1.81849
1.84618 -2.08255 -1.36772
0.863785 -1.59016 -2.60758
1.81441 -0.164369 -2.74835
0.799453 -2.12683 -2.41668
0.850339 -2.10167 -2.39723
0.56625 -2.60193 -2.2993
1.47152 -1.86121 -2.05353
0.69041 -1.82977 -2.60082
0.789556 -2.77278 -1.95711
0.407926 -2.09357 -2.6239
0.597729 -1.45179 -2.75695
1.46635 -1.87455 -2.04858
1.72895 -2.13335 -1.4779
0.299501 -1.6886 -2.77756
1.9848 -1.82852 -1.50442
1.7956 -1.84996 -1.72018
0.287972 -2.17632 -2.63715
0.883016 -2.38218 -2.20744
1.9053 -1.25912 -2.09304
0.821975 -1.29846 -2.72309
0.063261 -2.18922 -2.69273
2.04979 -1.73347 -1.53125
0.704571 -2.42765 -2.31382
1.31534 -2.11945 -2.00665
1.77877 -1.33685 -2.14441
2.2744 -1.39837 -1.62585
1.8238 -0.246041 -2.70416
0.996339 -1.66335 -2.51093
0.846354 -1.67034 -2.58636
1.23877 -1.6806 -2.35195
1.26527 -2.18343 -2.00499
1.79303 -1.97068 -1.5927
0.590972 -2.77663 -2.14826
1.66288 -0.508117 -2.6525
0.910417 -2.06218 -2.37828
1.33709 -2.23974 -1.87667
2.17882 -1.45649 -1.67229
0.683223 -1.76714 -2.62637
0.0380348 -1.9321 -2.76753
1.47432 -2.20092 -1.75002
0.71447 -1.66289 -2.64879
0.845987 -2.95976 -1.59898
0.717685 -2.75761 -2.04902
1.26865 -0.933082 -2.65937
0.308013 -2.08844 -2.66026
0.323288 -2.63318 -2.42429
1.2518 -2.58145 -1.57657
0.827996 -1.3257 -2.71223
0.754266 -2.67797 -2.08841
0.17295 -2.11153 -2.69135
2.38945 -1.42755 -1.46365
2.07649 -0.77364 -2.27942
2.6572 -1.1939 -1.42944
1.53834 -0.489735 -2.71636
0.839717 -2.37313 -2.24831
0.745156 -1.9896 -2.51096
1.3617 -1.18723 -2.5081
1.00966 -1.39618 -2.60895
1.2368 -2.60586 -1.56223
1.74912 -2.16311 -1.40345
1.76827 -0.419739 -2.64461
2.09911 -1.03524 -2.09143
0.216618 -2.57719 -2.50073
1.17869 -2.64637 -1.59318
1.81129 -1.49242 -2.00934
1.55619 -1.03236 -2.46657
1.22749 -2.70096 -1.40203
1.18733 -2.29342 -1.99227
1.63145 -1.40864 -2.21571
0.889074 -1.44312 -2.64806
2.62856 -0.921817 -1.73951
1.94081 -1.03207 -2.21338
0.665421 -2.97862 -1.84361
0.753156 -1.24528 -2.76407
2.00331 -0.261999 -2.61443
2.01083 -0.970971 -2.20103
0.805355 -1.77661 -2.56611
2.12426 -0.817926 -2.21887
1.29863 -2.56668 -1.52176
2.14679 -0.691686 -2.28456
2.31801 -0.700372 -2.16348
0.315523 -2.5706 -2.4613
0.772424 -2.48678 -2.22425
1.03912 -2.69309 -1.73823
1.06201 -2.50377 -1.93259
2.55301 -1.01967 -1.7151
2.01357 -0.937592 -2.22023
2.18888 -1.10023 -1.97028
2.03202 -0.822107 -2.27922
0.585487 -1.49109 -2.74982
1.17915 -2.37117 -1.93025
1.99663 -1.20732 -2.05339
0.226206 -2.2168 -2.64269
0.922054 -1.1239 -2.7395
2.39416 -1.30985 -1.58662
2.04433 -0.514117 -2.4531
2.41809 -1.11015 -1.7565
0.750681 -2.89467 -1.853
0.831635 -2.55157 -2.12469
1.45676 -1.19009 -2.45119
1.72923 -0.219283 -2.75678
1.84739 -1.9499 -1.54394
2.32794 -0.980093 -1.94712
2.22513 -1.50373 -1.5718
0.0837992 -1.93846 -2.75851
1.39585 -1.92125 -2.08026
0.502623 -2.63706 -2.31895
0.836122 -2.06376 -2.42501
2.46105 -1.34702 -1.47232
0.340969 -2.01162 -2.67454
1.10834 -2.66216 -1.68025
1.49571 -1.00543 -2.51379
1.90212 -0.312919 -2.63513
0.856325 -1.12359 -2.76393
1.82006 -1.35156 -2.10089
0.42957 -2.83505 -2.22633
1.72249 -1.35175 -2.1797
1.99375 -0.22251 -2.64031
2.18476 -1.07156 -1.99563
1.10206 -2.59613 -1.77912
0.982993 -1.09581 -2.72474
1.71427 -1.37492 -2.17168
1.40658 -2.1733 -1.86042
0.719661 -2.46231 -2.28118
2.44406 -0.777056 -2.01481
1.62558 -2.14529 -1.61276
0.724444 -2.93932 -1.8237
1.53378 -0.911395 -2.53539
2.31253 -1.28423 -1.69764
0.915806 -1.35459 -2.66665
1.04174 -0.885192 -2.77068
1.74202 -1.99546 -1.6317
1.42051 -0.79634 -2.64238
0.824159 -1.81074 -2.54317
1.18254 -1.02405 -2.66463
0.964755 -2.74725 -1.76839
1.40276 -0.641487 -2.71259
1.87947 -1.88138 -1.58181
2.496 -0.910256 -1.86406
0.408174 -2.87955 -2.20525
1.44509 -1.44135 -2.33372
1.08097 -2.60567 -1.79547
0.773675 -1.63215 -2.63378
1.21717 -1.18062 -2.58839
0.238431 -1.84342 -2.75166
1.59139 -0.37169 -2.74459
0.647374 -1.52055 -2.7201
1.44982 -1.31392 -2.39569
0.731732 -1.50057 -2.6947
1.76457 -1.81206 -1.79281
0.799149 -1.19931 -2.76158
0.907337 -2.15812 -2.3286
1.53999 -0.900068 -2.53714
1.30629 -1.93796 -2.14878
0.979691 -2.6745 -1.84313
1.95463 -0.600162 -2.45554
1.20631 -0.769486 -2.74628
1.16152 -2.14845 -2.13124
1.05002 -1.04787 -2.71354
1.48841 -0.456868 -2.75098
1.1364 -1.96225 -2.27199
1.40175 -1.83324 -2.13601
1.58946 -0.745203 -2.58104
2.54162 -1.00914 -1.73546
1.01972 -1.70077 -2.4816
1.73378 -1.09444 -2.32231
1.24336 -2.33748 -1.88968
2.24799 -1.48734 -1.56283
0.896241 -2.10366 -2.36601
1.95193 -1.55697 -1.82081
0.314489 -1.67153 -2.77833
1.95104 -0.861439 -2.30954
0.315403 -2.17811 -2.62731
1.30225 -2.3454 -1.81059
0.886534 -1.48631 -2.63416
1.12653 -2.1945 -2.12966
0.385126 -1.93159 -2.68546
1.44674 -0.508765 -2.74698
-0.0512978 -2.02825 -2.75549
1.96907 -1.08929 -2.15575
1.7662 -0.961337 -2.37354
0.234781 -2.74283 -2.40492
1.06722 -1.70017 -2.45364
0.969479 -2.42781 -2.09694
0.777498 -1.91588 -2.52474
1.33005 -2.33008 -1.79231
1.00484 -2.86319 -1.50222
2.14918 -1.31986 -1.82813
0.432602 -2.87037 -2.19485
1.40257 -1.20176 -2.47805
1.23015 -1.90359 -2.23387
1.15528 -1.03848 -2.67164
0.810816 -2.11886 -2.41359
0.969347 -1.89154 -2.42504
2.5761 -1.20275 -1.50618
1.53545 -1.82347 -2.02108
1.71599 -1.79296 -1.86327
1.74959 -1.14935 -2.28044
2.18515 -0.878609 -2.13456
2.12281 -1.39785 -1.78606
0.693608 -2.88998 -1.92899
1.9952 -1.90747 -1.38843
1.40024 -0.741211 -2.67407
1.28052 -1.28465 -2.51159
0.367807 -2.44293 -2.49939
2.38745 -1.24281 -1.66119
2.11493 -1.16475 -1.98434
0.40726 -2.50683 -2.44916
0.931789 -1.64167 -2.55445
0.126404 -2.30213 -2.64159
1.27076 -1.44983 -2.44366
0.806693 -1.97948 -2.48155
2.57569 -1.22529 -1.48177
0.840849 -2.29933 -2.29408
1.07688 -1.78328 -2.40868
0.225669 -2.15802 -2.66249
2.21256 -1.02453 -2.0081
0.684514 -2.43581 -2.32279
0.870428 -2.88971 -1.6894
1.23413 -2.36509 -1.87282
1.62345 -1.24702 -2.31411
1.50969 -2.37885 -1.46701
1.36778 -0.764038 -2.67968
0.211716 -1.85588 -2.75447
1.34226 -0.965277 -2.61167
1.69234 -1.06642 -2.36502
1.35423 -0.791974 -2.67482
1.24667 -2.32963 -1.89357
1.91786 -0.0962431 -2.74031
1.86711 -1.89795 -1.57894
1.77948 -1.2506 -2.19831
2.24618 -1.38841 -1.66631
1.15624 -2.66792 -1.59522
1.02563 -1.32266 -2.62828
1.99162 -1.47817 -1.84836
1.79948 -0.699262 -2.49056
0.749296 -2.55501 -2.19362
2.0058 -0.249727 -2.61993
0.530182 -1.5114 -2.76162
1.03949 -2.77128 -1.61651
0.446253 -2.38096 -2.49121
0.224833 -1.94703 -2.72658
0.385839 -2.23366 -2.58056
0.355929 -2.65411 -2.39552
2.12099 -1.17803 -1.96897
1.48451 -1.09857 -2.47748
2.0661 -1.78268 -1.45077
2.1144 -0.534123 -2.40127
1.00895 -2.43613 -2.05174
1.3835 -2.04902 -1.99484
1.93936 -1.22318 -2.08966
1.7545 -1.4971 -2.05679
2.47844 -1.02218 -1.78081
1.43306 -1.25865 -2.43317
2.82835 -1.07338 -1.39017
1.14972 -2.73642 -1.48331
1.87395 -1.82946 -1.64634
0.498503 -2.6847 -2.28981
2.1894 -0.680243 -2.26403
1.59048 -1.31494 -2.2999
0.368767 -1.85009 -2.71507
1.33769 -2.35874 -1.75016
0.94243 -2.72125 -1.83315
0.994858 -2.66046 -1.84078
1.57785 -1.99715 -1.83101
1.67071 -2.23524 -1.42213
0.510703 -2.91187 -2.09204
1.69821 -0.807832 -2.49312
0.527257 -1.68483 -2.71303
0.567043 -2.99338 -1.9423
1.33409 -0.651199 -2.73774
0.48391 -1.89447 -2.66319
1.71215 -1.31818 -2.2084
1.78076 -0.66935 -2.51602
2.64059 -1.00312 -1.64992
0.81362 -2.82179 -1.86987
0.621963 -2.25235 -2.46002
1.41922 -0.801374 -2.64093
0.694184 -2.03018 -2.5206
1.04577 -2.60643 -1.84036
0.807384 -1.64062 -2.61564
1.57888 -1.42904 -2.24368
2.17337 -1.5127 -1.62188
2.13107 -0.607503 -2.34688
1.59754 -1.58062 -2.13534
1.12872 -2.80299 -1.38023
1.4208 -1.69894 -2.20591
0.594254 -2.18284 -2.50657
1.79875 -0.228248 -2.72362
2.35766 -0.713454 -2.12624
2.34141 -0.951729 -1.9585
2.01574 -0.805727 -2.29999
1.47544 -1.26606 -2.40291
0.877209 -2.83843 -1.76125
2.3925 -0.805025 -2.03234
1.04082 -1.15178 -2.6819
1.82678 -0.626677 -2.51259
1.9889 -0.903762 -2.25856
2.55025 -1.08071 -1.65874
1.83086 -1.50711 -1.98037
1.74461 -1.99136 -1.63297
1.02756 -1.04275 -2.7244
1.59857 -1.52071 -2.17286
1.21935 -1.66071 -2.37529
1.42478 -1.29018 -2.42321
