ply
format ascii 1.0
comment Created by Open3D
element vertex 400
property double x
property double y
property double z
end_header
0.0771674 -2.8348 1.29055
1.31862 -2.44188 1.47617
1.30892 -2.69038 1.10286
0.472099 -3.00848 0.652136
1.51241 -2.53981 1.26426
-0.686694 -2.51167 2.33086
1.4277 -2.54348 1.28938
0.40131 -2.3598 2.03598
0.709699 -2.1722 2.10094
-0.0940599 -2.69395 1.72184
-0.346346 -2.39565 2.36332
0.243159 -2.81464 1.27811
1.97319 -2.25425 1.47375
0.898646 -2.79138 1.06581
1.54046 -2.54147 1.25221
1.55012 -2.65465 1.08201
0.398634 -2.99737 0.699894
-0.364301 -2.89945 1.19647
1.23469 -2.52287 1.39563
1.54036 -2.11768 1.77338
0.0309056 -2.83793 1.29927
-0.0934923 -2.17591 2.4989
0.923851 -2.721 1.19423
0.221791 -2.25096 2.26326
0.377618 -2.45183 1.91946
0.480566 -2.75728 1.31158
1.39087 -2.27974 1.65359
1.15446 -2.49829 1.46626
0.211886 -1.96069 2.54669
0.720593 -2.30056 1.94604
0.389348 -2.72338 1.4273
0.854952 -3.08882 0.374774
0.31213 -2.25587 2.21122
0.424319 -2.90303 0.973693
-0.499237 -2.91795 1.1127
-0.376687 -2.61117 2.02578
0.880787 -2.06976 2.12209
0.958648 -2.33585 1.78194
-0.0182515 -2.32171 2.301
-0.770456 -2.5485 2.29497
0.0418971 -2.26548 2.3376
1.26123 -2.65356 1.18089
1.39272 -2.57731 1.25215
0.0940095 -2.85918 1.21373
-0.996346 -2.79583 1.63101
-0.169693 -2.50271 2.12237
0.677025 -2.63873 1.45746
1.33078 -2.71725 1.05036
-0.0335328 -2.73433 1.60017
-0.389819 -2.24545 2.56133
1.00172 -2.1377 1.99324
0.589944 -2.66758 1.44514
0.397252 -2.64414 1.58441
0.225081 -2.86424 1.15135
1.03115 -2.93722 0.71386
1.14167 -2.89412 0.777796
0.830021 -2.95891 0.711894
-0.894707 -2.48138 2.445
-0.0512056 -2.84119 1.31998
-0.233528 -2.66115 1.85838
-0.683244 -2.79812 1.63806
0.7549 -3.04594 0.500448
0.140188 -2.67984 1.64024
0.284531 -2.8318 1.21665
-0.378205 -2.65539 1.93452
0.793137 -2.92663 0.800141
-0.0378354 -2.29674 2.34081
-0.608858 -2.83726 1.48017
0.178371 -2.25324 2.28279
-0.535255 -2.84469 1.44183
0.540925 -2.67206 1.46
-0.763388 -2.44753 2.45714
1.13466 -2.28356 1.76326
1.02392 -2.06715 2.05545
-0.636517 -2.64269 2.06192
0.94383 -2.8961 0.827817
-0.653163 -2.18548 2.72342
-0.378594 -2.1133 2.68298
0.510749 -2.35534 1.98454
0.822377 -2.14367 2.075
-0.569993 -2.56439 2.19527
0.704212 -2.40615 1.81524
0.00225745 -2.88366 1.16916
-0.132513 -2.4643 2.16392
-1.01085 -2.43967 2.53642
0.134522 -2.39573 2.12697
1.65702 -2.51349 1.25263
1.32128 -2.24681 1.72259
-0.484029 -1.9262 2.86312
1.07585 -2.72305 1.13044
0.0585236 -2.55221 1.92525
1.75931 -2.20378 1.59791
1.08113 -2.06312 2.03233
-0.506743 -2.78554 1.64282
1.45833 -2.48845 1.35636
0.785265 -1.97908 2.25447
-0.29713 -2.85431 1.35603
0.948386 -3.15114 0.208434
-0.459472 -2.69287 1.88155
-0.400393 -2.68667 1.87304
-0.779437 -2.54993 2.29516
0.328635 -2.51425 1.84853
-0.52329 -2.81679 1.54301
-0.534828 -2.29753 2.56462
-0.864808 -2.779 1.72149
-0.542257 -2.91256 1.1352
0.321344 -2.50903 1.86073
0.634835 -2.0554 2.25765
-0.890185 -2.86603 1.28428
0.95077 -2.13018 2.02597
0.715476 -2.28522 1.9676
-1.00249 -2.76412 1.76876
-0.401297 -2.53472 2.17748
0.889555 -2.62957 1.37491
-0.282981 -2.93179 1.04947
-1.22826 -2.75527 1.71679
1.03095 -2.16712 1.94732
-0.60602 -2.58985 2.16081
0.123218 -2.4445 2.06351
0.737659 -2.64896 1.41015
1.3094 -2.29609 1.66889
0.945243 -3.11745 0.295422
-0.170635 -2.80432 1.47337
-0.330455 -2.83498 1.43152
0.0889497 -2.72139 1.57377
0.0592963 -2.43357 2.11247
0.711125 -2.17133 2.10117
-0.76774 -2.4251 2.49067
0.735552 -3.04208 0.513593
-0.328907 -2.68248 1.85304
0.14215 -2.335 2.20311
1.19291 -2.318 1.69382
-0.51878 -2.83464 1.47753
-1.19826 -2.80096 1.45344
0.311876 -2.24941 2.21881
-0.466202 -2.85723 1.38227
-0.445414 -1.98428 2.81013
-0.620161 -2.36424 2.51867
0.249344 -2.96926 0.820767
-0.965059 -2.78542 1.68628
-1.04462 -2.60374 2.24603
0.0423379 -2.04889 2.55279
-0.282322 -2.92508 1.07863
-0.57378 -2.40636 2.44583
-1.10448 -2.779 1.67006
1.44839 -2.17524 1.74933
1.13771 -2.8204 0.925765
1.77059 -2.20044 1.59766
0.609316 -3.06695 0.455511
-0.449105 -2.56103 2.15201
-0.49489 -2.75783 1.72282
0.302151 -2.86918 1.10943
-0.107901 -2.88232 1.20664
0.0251756 -2.03275 2.5745
0.663793 -1.99197 2.30207
0.859972 -3.05761 0.456508
1.13234 -2.66597 1.20933
-1.14689 -2.6429 2.15458
-0.0477711 -2.04904 2.59421
0.757957 -2.54019 1.58697
0.536198 -2.87261 1.01591
0.0299419 -1.88377 2.68666
-0.0405962 -2.40759 2.20011
0.563177 -2.68116 1.43159
-0.242592 -2.88938 1.21569
1.7428 -2.46926 1.28467
0.95603 -2.73808 1.14886
-0.679204 -2.16918 2.74722
-0.3421 -2.94783 0.975362
1.12957 -3.08307 0.368714
1.04114 -2.74141 1.1097
-0.393182 -2.8119 1.52595
1.1847 -2.77908 0.98896
0.103584 -2.00847 2.55839
1.22455 -2.83902 0.864148
1.41107 -2.77177 0.932999
-1.04352 -2.63241 2.17877
-0.537319 -2.52747 2.24749
-0.226481 -2.15216 2.58279
-0.200784 -2.33075 2.37886
1.65145 -2.43188 1.36301
1.04824 -2.75812 1.07562
1.2276 -2.57994 1.31171
1.08296 -2.81129 0.961064
-0.562836 -2.90518 1.1708
-0.0544632 -2.35163 2.28157
0.998636 -2.61344 1.35398
-1.07246 -2.75507 1.79125
-0.145401 -2.96277 0.905019
1.455 -2.28563 1.61985
1.13724 -2.95861 0.643899
1.4907 -2.44031 1.40982
-0.578999 -2.19591 2.68681
-0.475712 -2.45352 2.33888
0.403674 -2.84156 1.14426
0.851946 -3.13935 0.238465
0.779515 -2.13838 2.102
1.39596 -2.58796 1.23489
1.24771 -2.23826 1.76533
-1.15537 -2.80562 1.47229
0.23499 -2.52301 1.88315
-0.853166 -2.55347 2.31
-0.409889 -2.7065 1.82914
1.53515 -2.1977 1.68889
-0.91655 -2.8027 1.6189
-0.139159 -2.11381 2.579
0.475888 -2.89888 0.968093
1.01634 -3.07824 0.389121
-0.212336 -2.9677 0.884704
0.78268 -2.61996 1.44093
-0.953216 -2.45884 2.4948
0.672503 -2.66805 1.40518
1.12531 -3.10226 0.324739
1.22549 -2.60095 1.27954
-0.151189 -2.20184 2.49974
-0.0773596 -2.96367 0.89553
0.660397 -2.65977 1.42648
0.229237 -2.33407 2.15927
-0.593589 -2.56537 2.20254
1.54356 -2.67043 1.05968
0.50197 -2.15637 2.22348
-0.608509 -2.16379 2.72728
0.532138 -2.92334 0.884449
1.35878 -2.36713 1.55867
-0.197646 -2.90818 1.13491
0.0246463 -3.00869 0.701902
0.647154 -2.19616 2.10642
0.432662 -2.98556 0.730342
-0.379584 -2.79771 1.56667
0.142723 -2.95682 0.885538
-0.31812 -2.16415 2.61162
0.442066 -3.03645 0.567411
0.818991 -2.17859 2.0389
1.59205 -2.55046 1.22223
-0.980251 -2.43593 2.53513
0.351791 -2.74426 1.39903
-0.177498 -2.21228 2.50121
-0.398964 -2.85721 1.36986
0.149986 -2.90503 1.05522
-0.983709 -2.83545 1.42099
0.684519 -3.1002 0.351658
-0.506312 -2.89625 1.21883
0.376404 -2.79556 1.26917
-0.416179 -2.89412 1.22451
0.679187 -2.34326 1.91293
-0.285964 -2.95497 0.943231
-0.346236 -2.64109 1.95137
0.540624 -2.92592 0.874903
0.130176 -2.56471 1.86673
-0.302569 -2.23454 2.53479
1.02938 -2.9421 0.703472
0.215695 -3.023 0.635873
-0.0586151 -2.52275 2.03457
0.000998114 -2.96823 0.868037
0.563603 -3.08368 0.406502
-0.0648835 -2.63679 1.82946
0.251195 -2.57158 1.79223
0.618914 -2.97047 0.732619
1.63875 -2.4474 1.3471
-0.152124 -2.78555 1.51932
0.719445 -2.78887 1.14085
0.0246343 -2.32833 2.27133
1.27573 -2.23488 1.75667
-0.350606 -2.6698 1.89099
0.917334 -2.4039 1.71152
-0.871702 -2.86972 1.27158
0.989306 -2.82049 0.974025
-0.97511 -2.76252 1.77878
0.0967592 -2.26973 2.3052
-0.25358 -2.87853 1.25843
-0.103556 -2.5148 2.07013
-0.855921 -2.81967 1.55174
0.511433 -3.07197 0.44634
-1.30499 -2.77144 1.5249
0.980588 -2.69504 1.21913
0.773993 -2.83724 1.01405
-1.15254 -2.56842 2.33168
-0.100943 -2.77207 1.53473
-0.306334 -2.45655 2.25895
-0.447695 -2.77468 1.65834
0.13139 -2.2589 2.30017
-0.246929 -1.92912 2.7716
1.16478 -2.44884 1.53282
-0.95244 -2.43216 2.53397
0.343468 -2.85294 1.13795
0.0479707 -2.62229 1.80233
0.111657 -2.95695 0.891499
-0.445931 -2.69251 1.87721
-0.238146 -2.73126 1.6976
1.67375 -2.2518 1.57461
0.406576 -2.49835 1.83314
0.621899 -2.39568 1.87218
0.729169 -2.75725 1.20348
1.24521 -2.7199 1.07461
1.12899 -2.40689 1.60703
-0.649576 -2.2523 2.65693
0.967277 -2.02786 2.12112
0.421408 -3.00618 0.667869
0.19873 -2.85689 1.18186
-0.968799 -2.67417 2.06407
1.44894 -2.35021 1.54308
1.13747 -2.57739 1.35292
-0.93759 -2.64183 2.14245
-0.235261 -2.8263 1.43011
-1.18861 -2.73229 1.84814
0.160367 -2.80124 1.34747
-0.427671 -2.74619 1.73284
1.67316 -2.22997 1.59965
-0.438812 -2.59976 2.07496
-0.104048 -2.73782 1.62327
-1.06144 -2.76956 1.73196
1.26132 -2.61723 1.23965
-0.629139 -2.59341 2.1623
-0.42573 -2.07254 2.73596
0.0125546 -2.31163 2.29791
0.576469 -2.76126 1.2605
0.365531 -2.00148 2.4394
0.383523 -3.00411 0.680781
-1.01266 -2.83157 1.42582
0.32046 -2.9466 0.876968
0.678218 -2.81608 1.09742
0.364353 -2.99771 0.704844
0.0289303 -2.33241 2.26407
1.06537 -3.16745 0.170271
0.803606 -2.1736 2.05209
0.749022 -2.69443 1.31989
1.27592 -2.32617 1.64638
-0.0751254 -2.04628 2.60893
-0.0773218 -2.89991 1.13743
0.969323 -2.43562 1.64199
0.849054 -2.93938 0.754405
-0.570219 -2.49666 2.31149
1.13394 -3.08813 0.356785
-0.622737 -2.90246 1.17469
-0.217626 -2.04149 2.67555
-0.87668 -2.68379 2.02557
-1.01909 -2.81522 1.52043
-0.913714 -2.74159 1.8564
-1.01304 -2.58689 2.27843
1.14321 -2.56536 1.3694
0.448479 -2.86781 1.05976
1.05238 -2.09826 2.01028
1.20953 -2.93011 0.688156
-0.260784 -2.42496 2.2834
0.209086 -2.44715 2.01487
0.932047 -2.63326 1.34953
0.69215 -2.57003 1.5703
1.56521 -2.47405 1.33715
0.366994 -2.82269 1.20659
1.97281 -2.20201 1.53084
-0.072396 -1.94235 2.68925
0.812297 -2.23501 1.97838
-0.863056 -2.52792 2.35884
1.27239 -2.83049 0.866856
0.530425 -2.74339 1.31934
-0.855639 -2.83746 1.46531
0.140972 -2.2228 2.33568
-0.347712 -2.21797 2.57168
-0.28399 -2.23552 2.52548
0.444701 -2.34103 2.0378
0.566239 -1.99315 2.34878
-0.865989 -2.35869 2.60828
0.724124 -2.92139 0.832625
-0.661916 -2.86783 1.34706
-0.799188 -2.23713 2.7223
0.369417 -3.04198 0.555857
-0.748398 -2.82333 1.54417
0.665155 -2.69017 1.36626
0.833723 -2.95631 0.717367
1.75355 -2.39284 1.37861
-0.504455 -2.22436 2.63032
-0.669987 -2.69378 1.95097
0.430422 -2.98418 0.735052
-0.555918 -2.75574 1.74752
-0.221554 -2.24544 2.48656
-0.365561 -2.84991 1.38905
0.501747 -2.69469 1.43389
1.1847 -2.27234 1.75364
1.21801 -2.88811 0.77052
0.503634 -2.60732 1.5995
-0.0847509 -1.84269 2.76281
0.28902 -2.63399 1.65821
-0.687817 -2.72547 1.8707
0.922149 -3.12775 0.26928
1.45347 -2.74821 0.960887
1.41354 -2.60055 1.20944
1.06727 -2.82541 0.938274
0.411763 -2.80615 1.22872
-0.423032 -2.13945 2.67805
1.48356 -2.67481 1.07099
-0.0287463 -2.94297 0.969825
0.889191 -2.9628 0.688531
1.02528 -2.78541 1.03146
1.64588 -2.38164 1.42901
0.779217 -2.51903 1.61016
0.650382 -2.1978 2.10295
-0.0210922 -2.97195 0.855939
0.512003 -2.63913 1.53692
0.0706975 -2.73683 1.54646
0.352974 -2.81315 1.23616
