ply
format ascii 1.0
comment Created by Open3D
element vertex 400
property double x
property double y
property double z
end_header
1.45265 -0.68907 2.89553
2.84726 0.35729 1.429
1.5666 -0.25236 2.91992
1.54214 0.93586 2.66324
1.82028 -0.93152 2.3718
1.65045 -0.71792 2.6681
1.20395 0.62584 3.17767
1.90588 -0.34287 2.50315
2.89405 0.26294 1.39196
2.98318 0.87191 1.19584
1.17865 -0.66387 3.18213
1.77484 0.16386 2.68903
2.09585 0.78256 2.13972
2.66272 0.30296 1.62997
2.32966 0.3378 2.00094
1.00771 -0.88786 3.19256
1.30441 -0.59245 3.09483
2.55107 0.93107 1.59112
1.01361 0.11773 3.51183
2.08457 0.93823 2.08148
1.99173 -0.19961 2.42405
2.17984 -0.07809 2.20686
2.36293 0.37618 1.95555
1.67348 0.15297 2.81033
1.09472 0.11665 3.43767
2.04148 -0.39179 2.33066
1.53429 0.95157 2.66141
2.73436 -0.49035 1.52447
1.91878 0.58936 2.41733
2.65266 -0.64762 1.57506
1.48733 -0.93774 2.71789
2.17768 0.4384 2.15865
1.3539 0.73825 2.97141
2.52824 0.39004 1.76523
1.50965 0.61726 2.86849
1.66311 0.38995 2.77748
2.99075 0.09715 1.30609
2.58134 -0.62619 1.65593
1.29378 -0.26949 3.2155
1.30395 0.63615 3.07459
1.98738 0.62681 2.32443
2.22689 -0.81985 1.9786
2.55644 0.74257 1.64945
2.25005 0.21791 2.11176
2.6814 0.26327 1.61428
1.0818 0.59836 3.30439
2.3836 -0.61726 1.87475
1.91362 0.42326 2.47479
2.84889 -0.77655 1.345
1.88415 0.32662 2.5325
2.8043 0.97534 1.32892
1.35318 0.57587 3.05248
2.11755 0.85423 2.08461
2.9851 0.73599 1.2272
2.51148 0.90598 1.64091
2.10607 -0.28295 2.27469
1.80349 -0.75985 2.47825
1.53564 -0.98728 2.6371
1.45507 0.15947 3.06015
1.43866 0.38912 3.03027
2.33227 0.99889 1.78897
2.09957 -0.78199 2.13577
1.52089 0.59538 2.8658
1.41822 -0.93567 2.78832
2.26553 -0.82088 1.93573
2.47933 0.81658 1.7067
2.58556 -0.72952 1.62276
1.74477 -0.28953 2.7055
2.26035 0.54171 2.03595
2.4779 -0.59615 1.77602
2.44518 -0.53374 1.82819
1.16084 0.58569 3.23805
1.54893 -0.50041 2.87224
2.89053 0.93353 1.26234
2.61884 0.3945 1.66454
1.82831 -0.79613 2.43325
1.25825 -0.47202 3.19167
1.03756 -0.58799 3.34849
2.39967 -0.13716 1.94282
2.3152 -0.73005 1.91488
2.63244 -0.35821 1.65539
2.7854 -0.64185 1.4405
2.69896 -0.15435 1.60443
2.25934 -0.35292 2.08058
2.77504 0.3922 1.49849
1.28443 0.0921 3.25116
1.60934 -0.38008 2.84194
2.5597 -0.04327 1.76307
1.42209 -0.23766 3.08466
1.6053 -0.78617 2.68294
2.92594 -0.17676 1.3665
2.30775 0.25995 2.03833
1.42067 0.70487 2.92093
2.37725 0.5648 1.89649
2.67143 -0.35478 1.61364
1.40474 -0.29791 3.09113
2.62882 0.17625 1.67964
1.34531 -0.78089 2.956
2.36279 -0.96633 1.77132
2.58384 0.12694 1.73283
2.5932 -0.2424 1.7132
2.5387 -0.1214 1.78395
1.71663 0.77345 2.56809
1.56 -0.54671 2.84265
1.13565 -0.42673 3.32782
2.39373 -0.30213 1.93217
2.67518 0.31407 1.61509
2.09835 -0.66955 2.1812
2.23599 -0.49016 2.0778
1.783 0.8006 2.48131
1.23215 0.10803 3.30376
2.58937 0.35213 1.70351
2.38257 0.86762 1.79072
1.60051 0.66827 2.74634
2.31761 -0.67511 1.93075
1.72574 -0.70214 2.59191
2.3681 0.42219 1.94066
2.30196 0.8223 1.89533
1.38454 0.9691 2.79905
2.21522 -0.93436 1.9421
1.4914 0.44595 2.95472
1.01109 -0.76355 3.27275
2.13486 0.55481 2.17736
2.97158 -0.85046 1.21179
2.92687 -0.42772 1.33991
1.07554 0.84741 3.16431
1.80972 0.34262 2.61754
1.15449 -0.9176 3.04786
2.92997 -0.22104 1.35947
1.00739 -0.86108 3.21156
2.96154 -0.38086 1.31235
2.81389 -0.65465 1.40914
1.61273 -0.41843 2.82723
1.25991 0.47735 3.18799
1.2662 -0.32262 3.23127
1.89978 0.10708 2.54394
1.40138 0.02543 3.12906
2.47611 0.38997 1.82375
1.11097 -0.08175 3.42526
2.38352 0.95267 1.75541
1.84825 0.99454 2.30632
1.0305 -0.18381 3.48801
1.03151 0.67063 3.31042
2.32008 -0.70556 1.91788
2.7623 0.15879 1.53627
2.07359 0.97667 2.07423
2.51248 0.69328 1.71112
1.43231 0.92495 2.78129
2.61478 0.25303 1.68819
2.39099 -0.77223 1.81693
1.00637 -0.9833 3.12314
1.1961 -0.17747 3.33184
1.04968 0.06262 3.48364
2.02022 -0.44979 2.34163
1.389 0.54611 3.02784
2.73302 0.95544 1.40286
1.47249 0.94081 2.73089
1.00676 -0.61738 3.36004
1.36663 0.94144 2.83501
1.09234 -0.35698 3.3913
1.38365 -0.05213 3.14761
1.75979 0.84228 2.48558
1.40107 0.94229 2.80087
2.32217 -0.72128 1.91019
1.97236 0.16071 2.45172
1.5005 -0.87653 2.74236
1.30067 0.84061 2.96388
2.98534 -0.82976 1.20467
1.58687 -0.31781 2.8832
1.69701 0.88342 2.53137
1.21694 -0.37455 3.26624
1.56252 -0.83117 2.70406
1.4466 0.1611 3.06936
1.32234 -0.20988 3.197
2.10069 -0.60163 2.20215
1.84148 -0.45339 2.55159
2.16384 -0.35442 2.1931
2.70395 -0.11343 1.60123
1.58486 0.2412 2.90098
2.15352 0.46846 2.17963
1.90702 -0.2319 2.52182
1.941 0.47538 2.42811
1.74314 0.41207 2.67849
2.50688 0.05212 1.82285
2.27669 -0.52294 2.02222
2.53143 0.20098 1.78645
2.93894 0.81179 1.25138
2.65627 0.94998 1.47923
1.13456 0.13543 3.3977
2.69025 0.96357 1.44131
1.42773 -0.52212 2.99642
1.07466 -0.11715 3.45637
1.04919 0.6839 3.28783
2.32156 -0.74028 1.90425
2.65123 -0.56211 1.59707
2.46843 -0.45115 1.82068
2.01929 -0.90698 2.16793
1.94792 -0.1062 2.48577
2.61278 0.7557 1.58658
1.08605 0.03713 3.45107
1.18331 -0.19107 3.34245
2.2284 -0.24938 2.13357
2.48862 -0.50946 1.78549
1.96793 0.61293 2.35194
2.406 -0.49347 1.88184
2.25412 -0.99127 1.87449
2.71624 -0.71411 1.49228
1.7794 0.58754 2.57889
1.6293 0.038 2.86993
1.9008 -0.88769 2.3075
1.55266 0.74314 2.7619
2.73499 -0.6574 1.48773
2.58385 0.40066 1.70181
2.358 0.94039 1.78734
1.17344 0.44722 3.28436
1.67025 -0.92893 2.53378
2.17017 0.59117 2.12528
2.91328 -0.84635 1.266
2.92403 0.0308 1.3736
1.27377 -0.18598 3.25163
2.74363 -0.24826 1.54907
2.3151 0.0942 2.04464
1.51294 0.98572 2.66103
2.12396 -0.57163 2.18485
2.21391 0.30353 2.14278
1.71202 0.19913 2.75925
1.71563 -0.89733 2.50358
1.89686 -0.92155 2.29418
2.33707 0.46337 1.96742
1.81764 0.51582 2.56013
2.28546 -0.35745 2.04911
2.22127 -0.41382 2.11305
1.60629 0.95049 2.58789
1.51444 -0.85121 2.74295
2.19527 -0.39817 2.14701
2.19187 -0.93855 1.96531
2.8018 -0.82326 1.37756
1.23125 -0.34976 3.25927
1.4252 0.5016 3.007
1.69813 0.27322 2.76353
2.13823 -0.22629 2.24429
2.54412 0.53047 1.71953
2.99613 -0.74772 1.21447
1.86491 -0.51819 2.50425
2.91154 0.22009 1.37796
2.01324 -0.31982 2.37944
1.8021 0.0803 2.66324
2.10198 0.54639 2.21818
1.1542 -0.65428 3.20997
2.40472 -0.37197 1.90821
1.08369 -0.22399 3.43228
2.67959 -0.95729 1.45386
1.58089 0.41242 2.86518
2.19614 0.15845 2.18208
2.69536 -0.58473 1.54564
1.69822 0.77187 2.58914
2.37061 -0.82472 1.81993
1.94662 0.9625 2.21849
2.55295 0.89295 1.60308
1.552 -0.28673 2.92978
1.24913 -0.87038 2.99384
2.69637 -0.14338 1.60789
1.10723 -0.76458 3.18986
1.85266 0.30042 2.57531
2.59903 0.64314 1.63267
2.79599 -0.58484 1.44246
2.01786 -0.54716 2.31613
2.84496 -0.30852 1.43716
2.27367 -0.5164 2.02742
2.23639 -0.93033 1.92115
1.18475 0.71022 3.15121
1.41276 0.02082 3.11663
2.09573 0.28434 2.28686
2.94699 -0.61801 1.28783
1.89851 0.89127 2.30817
2.84998 -0.82539 1.33087
1.00426 0.14929 3.51641
2.72249 -0.90142 1.43079
2.75432 0.61567 1.4779
1.34074 0.42874 3.12245
2.22954 -0.07492 2.14736
1.50798 -0.73428 2.81411
2.57659 -0.66247 1.65134
1.9229 -0.40683 2.46801
2.72145 0.38166 1.55628
1.1333 -0.55106 3.27982
1.24342 -0.18308 3.28328
1.37524 0.09227 3.15447
2.58874 -0.47241 1.68321
2.93866 0.46425 1.32298
2.8147 -0.64097 1.41146
2.96329 0.51375 1.29132
1.98675 -0.84337 2.23443
1.83549 0.00608 2.62521
2.88226 0.25878 1.40424
1.42646 -0.82721 2.84742
2.58135 0.34156 1.71394
2.92296 -0.42426 1.34425
1.33501 0.52429 3.09303
1.069 -0.64277 3.29302
2.57876 0.22928 1.73061
1.45 -0.16589 3.06498
2.29302 0.70299 1.94893
1.04591 -0.34733 3.43657
2.49372 0.55953 1.76797
2.15134 0.05172 2.24213
1.03863 -0.82018 3.21352
1.46774 0.00164 3.05571
2.18186 0.5483 2.12474
1.38847 -0.45373 3.06356
2.38796 0.79453 1.81228
2.04164 -0.91561 2.13927
2.08474 -0.38619 2.28047
1.14016 0.51886 3.28757
1.78311 -0.59772 2.57076
1.81177 -0.32005 2.62
2.51787 -0.96343 1.61254
1.84751 0.84103 2.38982
1.89078 0.92743 2.29768
2.80728 -0.94637 1.33541
1.24118 -0.98793 2.92042
1.21613 -0.7142 3.11947
2.4853 0.52544 1.7855
1.10526 0.37552 3.37356
1.45367 0.43756 2.99882
1.87513 -0.2866 2.55106
2.70149 0.62766 1.52927
2.98487 0.40572 1.28664
2.4576 0.95959 1.67567
1.78727 -0.09254 2.68031
1.91623 -0.47618 2.45705
2.88473 -0.62631 1.34588
1.88227 0.79846 2.372
2.78294 -0.59921 1.45255
1.53528 0.84845 2.72284
2.82302 -0.37801 1.451
2.09154 0.00615 2.31515
2.60396 0.13794 1.70974
2.52039 0.11836 1.80489
2.93838 0.96715 1.20938
1.65037 0.61067 2.71615
1.30783 0.68014 3.04856
1.43174 -0.62204 2.94967
1.78259 -0.81129 2.47642
1.67665 -0.56206 2.70583
1.62087 0.51195 2.78746
1.96086 0.54317 2.38403
2.2686 -0.30429 2.07799
2.37771 0.02831 1.97291
2.02766 -0.45433 2.33162
2.16219 -0.20736 2.21785
2.78852 0.78375 1.40149
2.12071 -0.4748 2.21652
1.12577 -0.31195 3.37269
2.03685 -0.70732 2.23707
1.25991 -0.31556 3.23952
1.36875 0.88832 2.86759
1.51905 -0.93578 2.68692
2.31288 0.70065 1.92756
1.29235 0.19814 3.23043
1.33403 0.4149 3.13403
1.40984 0.62205 2.9727
1.84409 -0.28446 2.58854
2.00288 0.88445 2.19695
1.46558 0.89372 2.76755
1.66033 -0.10326 2.83028
1.95557 0.88693 2.24776
1.47784 -0.86781 2.77086
1.98354 0.79047 2.2623
2.34126 -0.075 2.01456
1.01792 0.19434 3.49752
1.3496 -0.80308 2.9388
2.4647 -0.23954 1.85852
1.99962 -0.93809 2.17382
1.0149 -0.9515 3.14047
2.96084 0.35536 1.31612
2.31771 -0.02996 2.0436
2.2327 -0.79702 1.98134
1.88264 0.45225 2.50349
1.56223 -0.69135 2.77729
2.49245 0.31006 1.818
1.40696 -0.62939 2.9723
1.16444 -0.23054 3.35403
2.84985 0.26247 1.43688
1.92407 -0.32518 2.48512
2.25425 0.81177 1.95174
2.58732 0.25083 1.71884
1.2311 -0.61053 3.15898
2.35582 0.66183 1.89232
1.50852 -0.33828 2.96696
1.80612 -0.83793 2.43701
2.66038 0.69758 1.5539
1.81067 0.6359 2.52422
2.8418 0.02525 1.45752
1.02607 -0.4513 3.41861
1.76689 0.50874 2.62139
1.6848 -0.43907 2.73841
2.55205 -0.25569 1.75769
2.51902 0.76184 1.68297
1.71265 0.77866 2.56988
