ply
format ascii 1.0
comment Created by Open3D
element vertex 400
property double x
property double y
property double z
end_header
-3.02876 -1.31942 0.234194
-1.45805 -2.81821 -0.456488
-2.84791 -1.63861 0.498215
-2.03113 -2.17425 1.2223
-2.75679 -1.43529 -0.382924
-2.87803 -1.44052 0.0011789
-2.57571 -1.80591 1.4294
-2.58712 -1.82191 0.0561893
-1.48047 -2.80554 -0.565118
-1.02163 -3.15739 -0.277137
-3.22066 -1.14012 0.532313
-2.47322 -1.99065 0.572962
-1.74202 -2.49355 0.575288
-1.62973 -2.66296 -0.30215
-1.88018 -2.45042 0.0745007
-3.31653 -0.883744 0.464613
-3.12885 -1.27039 0.476285
-1.26617 -2.87602 0.178391
-3.08711 -1.43833 1.33236
-1.61282 -2.55323 0.661884
-2.46054 -1.95524 0.0750144
-2.24195 -2.14475 -0.041708
-1.82712 -2.49136 0.0623094
-2.56736 -1.91645 0.676591
-3.03623 -1.49616 1.25396
-2.48421 -1.88793 -0.132447
-2.02056 -2.17514 1.23642
-1.94683 -2.312 -0.951675
-2.04964 -2.28647 0.666015
-2.05668 -2.17104 -0.996736
-3.00655 -1.19867 -0.0478023
-1.94224 -2.39409 0.300481
-2.36541 -1.9599 1.33078
-1.68195 -2.61152 -0.105705
-2.36086 -2.01728 1.11589
-2.41931 -2.02128 0.832921
-1.50423 -2.79261 -0.773635
-2.10455 -2.13272 -0.905488
-3.06882 -1.44046 0.770302
-2.49721 -1.88133 1.33515
-1.96167 -2.35014 0.611747
-2.42489 -1.7806 -0.703866
-1.41099 -2.7949 0.0715813
-2.02306 -2.33875 0.0849406
-1.63892 -2.65676 -0.3474
-2.67972 -1.70647 1.5344
-2.2579 -2.00045 -0.690894
-2.18098 -2.20743 0.579875
-1.95351 -2.24038 -1.30105
-2.27424 -2.14241 0.55513
-1.05731 -3.07591 -0.0480205
-2.51569 -1.88997 1.25685
-1.66232 -2.53984 0.587562
-1.11664 -3.09566 -0.358526
-1.31541 -2.83698 0.20534
-2.39147 -1.98929 -0.115766
-2.75936 -1.52238 -0.199915
-2.96943 -1.20331 -0.147382
-2.74536 -1.76986 0.915302
-2.60262 -1.86631 1.07095
-1.36909 -2.75215 0.434672
-2.52146 -1.71388 -0.53485
-2.37115 -2.01554 1.09345
-3.05551 -1.15103 0.0234314
-2.39447 -1.80679 -0.74535
-1.41156 -2.77447 0.191094
-2.12852 -2.0798 -0.997249
-2.70957 -1.7407 0.275636
-1.79796 -2.49834 0.270847
-2.17688 -2.07704 -0.772482
-2.18542 -2.08795 -0.685906
-2.641 -1.75789 1.45275
-2.92865 -1.49252 0.307812
-1.03402 -3.11885 -0.15399
-1.60704 -2.67634 -0.198196
-2.74272 -1.51884 -0.260479
-3.14454 -1.30538 0.632941
-3.30406 -1.08199 0.739693
-2.0783 -2.26419 -0.325412
-2.33853 -1.89155 -0.716383
-1.97758 -2.31025 -0.741818
-1.95838 -2.26752 -1.12631
-1.8419 -2.46149 -0.656407
-2.28322 -2.0567 -0.338932
-1.48934 -2.78419 -0.360948
-2.91709 -1.6185 1.04849
-2.85147 -1.59981 0.347543
-1.90137 -2.4214 -0.428912
-2.96001 -1.54674 0.663234
-2.91821 -1.37003 -0.0170861
-1.68325 -2.60919 -0.904708
-1.94781 -2.39827 0.0491024
-2.34879 -1.99281 1.24855
-1.6845 -2.58924 0.158994
-1.94594 -2.33913 -0.779762
-2.99312 -1.50275 0.632541
-1.73052 -2.57794 -0.349962
-3.11056 -1.19075 0.253172
-2.3411 -1.79301 -0.979033
-1.79399 -2.52268 -0.335745
-1.96327 -2.34313 -0.611403
-1.95518 -2.36747 -0.463218
-2.05667 -2.22805 0.972642
-2.92817 -1.47448 0.254743
-3.22015 -1.24332 0.794341
-2.15083 -2.17507 -0.444418
-1.6133 -2.67697 -0.307964
-2.50384 -1.77571 -0.432018
-2.34605 -1.96774 -0.42569
-1.97874 -2.28557 0.915265
-2.94636 -1.58955 1.11219
-1.65718 -2.6357 -0.193936
-1.44358 -2.72971 0.317575
-2.2444 -2.10245 1.04545
-2.32496 -1.9234 -0.670805
-2.81613 -1.50152 -0.063403
-1.79216 -2.5166 0.0848134
-1.54373 -2.65356 0.378139
-2.10735 -2.07624 1.39251
-2.44928 -1.70804 -0.797252
-2.51745 -1.92867 1.04699
-3.32331 -0.960527 0.590919
-1.89373 -2.41849 0.41356
-1.89474 -2.28863 -1.48126
-1.78617 -2.48061 -1.09592
-2.43471 -1.80514 1.64359
-2.32793 -2.09933 0.646179
-3.22938 -0.972968 0.297844
-1.69998 -2.58946 -0.941549
-3.31931 -0.899643 0.493209
-1.7443 -2.52959 -1.0939
-1.94219 -2.28084 -1.16528
-2.85859 -1.58137 0.311375
-2.66695 -1.78095 1.30158
-3.1048 -1.39267 0.754408
-2.39606 -2.04766 0.397797
-2.86333 -1.66711 0.881822
-1.7243 -2.57556 -0.0504296
-3.12722 -1.40901 1.09934
-1.37106 -2.76787 0.359584
-1.74197 -2.4126 0.932281
-3.22002 -1.29849 1.09878
-2.64137 -1.70056 1.61366
-2.32956 -1.9084 -0.700006
-1.63642 -2.66215 -0.500734
-1.5858 -2.56202 0.69093
-1.48184 -2.74176 0.089543
-2.12126 -2.09234 1.32853
-1.69737 -2.6056 -0.284376
-2.28711 -1.92081 -0.833079
-3.3048 -0.824714 0.363087
-3.1078 -1.42014 0.94238
-3.09588 -1.43744 1.26126
-2.51946 -1.84239 -0.157345
-2.51478 -1.90206 1.20558
-1.11994 -3.01594 0.0105181
-2.0762 -2.12718 1.29445
-3.3241 -1.0427 0.740086
-2.14925 -2.05239 1.39989
-3.23312 -1.25052 0.897057
-2.91535 -1.61591 0.845119
-1.95815 -2.28722 0.958477
-2.12473 -2.07721 1.3662
-2.33116 -1.9012 -0.716012
-2.30116 -2.12292 0.353319
-2.99876 -1.2441 0.00112969
-2.3 -1.96455 1.42601
-1.88032 -2.30969 -1.47706
-2.85226 -1.61781 0.423439
-1.96747 -2.26091 1.04185
-3.1534 -1.32978 0.759803
-2.95247 -1.31411 -0.0169559
-2.75116 -1.7648 0.925295
-3.0274 -1.49194 0.788922
-2.48811 -1.81473 -0.374687
-2.67429 -1.71878 0.0344599
-2.36602 -1.99092 -0.235983
-1.81943 -2.48575 -0.631567
-2.58764 -1.8982 0.828614
-1.94158 -2.39157 0.344306
-2.54773 -1.88111 0.143422
-2.11908 -2.25003 0.579699
-2.33548 -2.08615 0.759052
-1.89696 -2.43277 -0.305161
-2.32096 -1.97795 -0.497009
-1.79506 -2.52282 -0.230376
-1.09262 -3.0977 -0.269758
-1.17661 -2.95889 0.0832173
-2.99856 -1.5337 1.22733
-1.14243 -2.98913 0.0568769
-3.02775 -1.3964 0.41515
-3.16615 -1.36488 1.10802
-2.61804 -1.71898 1.60291
-2.3355 -1.89031 -0.732112
-2.0325 -2.2158 -0.924552
-2.14112 -2.14799 -0.642886
-2.59965 -1.58757 -0.567012
-2.4601 -1.97359 0.19383
-1.35901 -2.84035 0.0212606
-3.08616 -1.45096 1.20876
-3.12179 -1.40397 0.944463
-2.27215 -2.08982 -0.223753
-2.14319 -2.13092 -0.711808
-1.98924 -2.33063 0.625412
-2.20534 -2.0825 -0.611016
-2.42572 -1.70289 -0.890749
-2.02858 -2.17994 -1.11693
-2.16804 -2.19025 0.815199
-2.66924 -1.82999 0.647185
-2.69179 -1.51651 -0.424342
-2.21324 -2.10132 1.1301
-1.99909 -2.22363 -1.08848
-1.63065 -2.65501 -0.157711
-1.40072 -2.74462 0.379626
-2.75161 -1.70619 1.37169
-2.87178 -1.33225 -0.225088
-1.83627 -2.45918 0.395575
-1.93041 -2.24887 -1.4221
-1.58526 -2.71237 -0.753436
-3.05497 -1.47043 0.857422
-1.84814 -2.44456 -0.772826
-2.03715 -2.32259 -0.0686205
-2.00004 -2.17393 1.27105
-2.46175 -1.84706 -0.373758
-2.00143 -2.35526 0.179063
-2.50632 -1.96495 0.664421
-2.83685 -1.38236 -0.240533
-2.69677 -1.49427 -0.452974
-1.78987 -2.51462 0.142827
-2.19348 -2.18429 0.735985
-2.26245 -2.07212 -0.37093
-2.33581 -1.99851 -0.346725
-1.96889 -2.22529 1.1629
-2.98864 -1.26875 0.0123586
-2.35316 -1.98912 -0.305679
-2.46776 -1.68942 -0.776935
-1.99777 -2.18159 -1.29425
-3.13715 -1.35337 0.766692
-2.52455 -1.90765 1.14558
-2.4709 -1.99076 0.725896
-2.3419 -2.04062 -0.106981
-1.57505 -2.6886 -0.0371961
-1.84925 -2.36135 -1.41955
-2.66972 -1.69944 -0.0467457
-1.4925 -2.797 -0.611163
-2.48572 -1.90696 -0.0430469
-2.49698 -1.96836 0.487351
-1.92797 -2.39219 0.444456
-3.23605 -1.12812 0.565239
-2.16691 -2.14602 -0.511278
-3.20033 -1.31564 1.01591
-2.11201 -2.02144 -1.28977
-2.47089 -1.97518 0.93377
-2.10491 -2.27331 0.105011
-2.00638 -2.23462 -0.988327
-2.07273 -2.21463 0.991255
-2.31294 -1.8776 -0.858505
-1.69743 -2.46768 0.816525
-1.29571 -2.86032 0.156476
-2.87137 -1.61041 0.486141
-3.17352 -1.06945 0.256903
-1.83898 -2.46528 -0.645625
-3.26716 -1.02993 0.500675
-2.31927 -2.1087 0.573754
-1.45262 -2.77908 -0.0284113
-1.9331 -2.30535 -1.09031
-2.54603 -1.78796 -0.237766
-1.79759 -2.48453 -0.922057
-2.32168 -1.97941 -0.488275
-2.43248 -1.72506 -0.815463
-2.50812 -1.82784 1.48543
-2.85669 -1.6727 0.866657
-2.1167 -2.26589 0.296624
-1.83981 -2.39501 -1.26658
-1.80254 -2.40414 0.835053
-1.96603 -2.21482 -1.34319
-3.07387 -1.4468 1.36164
-2.07067 -2.08261 -1.28325
-1.35699 -2.87523 -0.202866
-2.64715 -1.81604 1.19402
-2.19685 -2.18005 -0.0940664
-2.98997 -1.33212 0.133851
-2.11807 -2.10986 -0.931062
-2.5916 -1.79931 -0.0151173
-1.53609 -2.74164 -0.312711
-3.241 -1.17212 0.683602
-3.07609 -1.45061 0.890473
-2.84777 -1.68194 0.95486
-2.05203 -2.21992 -0.786809
-1.32747 -2.93417 -0.479566
-1.93744 -2.28872 -1.15485
-1.2793 -2.97531 -0.472709
-2.61984 -1.60134 -0.472513
-2.50652 -1.95418 0.399159
-1.4913 -2.7952 -0.556025
-3.05293 -1.22095 0.125554
-1.67019 -2.6251 -0.192186
-1.78758 -2.47963 -1.08935
-2.57343 -1.85461 1.24974
-3.2887 -1.07332 0.657503
-1.74018 -2.56919 -0.26195
-2.91142 -1.60356 0.690188
-1.64783 -2.59412 0.325044
-3.26013 -1.22235 0.949731
-1.59449 -2.6672 0.0327725
-2.20297 -2.1905 0.0819666
-3.3051 -0.947045 0.50749
-2.82234 -1.70111 0.795145
-1.85896 -2.44764 0.359147
-3.04511 -1.40692 0.516709
-1.49932 -2.70092 0.273978
-2.58278 -1.59813 -0.598619
-2.4449 -1.92031 -0.175213
-2.71366 -1.71407 1.44059
-2.75427 -1.5996 -0.0288269
-2.66166 -1.77011 0.177805
-2.22684 -1.90357 -1.13391
-1.88989 -2.34744 0.865853
-1.77438 -2.41408 0.859242
-2.02415 -2.11854 -1.40512
-3.16847 -0.993134 0.141048
-3.19783 -1.13777 0.446654
-1.62526 -2.64554 0.0216422
-2.85362 -1.6252 1.39968
-2.55376 -1.89873 1.08198
-2.59537 -1.83082 0.135308
-1.38711 -2.84365 -0.142287
-1.33248 -2.93903 -0.562228
-1.31039 -2.82288 0.287568
-2.5958 -1.87178 0.381084
-2.61594 -1.75734 -0.0663001
-1.88439 -2.34622 -1.21229
-1.90105 -2.35322 0.809461
-1.94699 -2.2885 -1.0889
-2.1247 -2.13342 1.19372
-1.84093 -2.43309 -0.953303
-2.27933 -2.12736 0.116154
-1.77173 -2.54197 -0.349572
-1.85049 -2.47479 -0.274057
-0.979011 -3.16875 -0.180622
-2.25474 -2.11178 0.964699
-2.45357 -1.90282 1.3513
-3.03839 -1.34302 0.319116
-2.78046 -1.47855 -0.226754
-2.83614 -1.54634 0.117154
-2.36064 -2.04769 0.945298
-2.05047 -2.29442 0.595664
-2.25805 -2.08854 -0.310471
-2.01804 -2.33258 -0.182382
-2.51427 -1.84501 -0.16928
-2.31338 -2.06666 -0.118796
-1.21274 -2.97727 -0.13932
-2.43989 -1.89734 -0.287829
-3.19961 -1.29885 0.902878
-2.56141 -1.71251 -0.400041
-3.10739 -1.39204 0.76667
-2.20393 -2.03241 1.37756
-2.98378 -1.22219 -0.0777614
-1.63366 -2.60678 0.302774
-2.84753 -1.67525 1.10915
-2.66298 -1.80508 1.19338
-2.4328 -1.94974 1.22129
-2.62175 -1.81088 0.171081
-1.7263 -2.47353 0.722436
-2.13002 -2.10311 1.28294
-2.71057 -1.78004 0.511959
-1.7615 -2.44183 0.773249
-3.01541 -1.23329 0.0328757
-1.82624 -2.4196 0.698327
-2.0999 -2.25592 -0.216383
-3.03722 -1.47822 1.37722
-3.10761 -1.18079 0.226737
-2.06706 -2.25616 -0.47247
-2.61735 -1.55609 -0.57623
-3.30494 -0.850433 0.389973
-1.3793 -2.89766 -0.571083
-2.09872 -2.26259 -0.15824
-2.41666 -1.79738 -0.689258
-2.18644 -2.19969 0.630214
-2.94502 -1.3945 0.118672
-1.76174 -2.54871 -0.117979
-3.05776 -1.3215 0.337624
-3.14864 -1.36983 0.931779
-1.51257 -2.77416 -0.520891
-2.56555 -1.84364 0.050588
-1.59016 -2.61583 0.422753
-1.72061 -2.58555 -0.256876
-3.18191 -1.20817 0.53223
-1.62928 -2.61886 0.236234
-2.92252 -1.55296 0.49002
-2.76358 -1.47955 -0.277061
-1.36715 -2.84713 -0.0599765
-2.10177 -2.23312 0.806424
-1.64762 -2.6517 -0.674286
-3.29388 -1.1508 0.877153
-2.24188 -2.1464 0.786984
-2.80365 -1.61956 0.216336
-2.00187 -2.30787 -0.57798
-1.42449 -2.7775 0.120677
-2.05501 -2.22752 0.979211
