ply
format ascii 1.0
comment Created by Open3D
element vertex 250
property double x
property double y
property double z
end_header
3.22684 -0.228214 0.986595
3.5977 0.634696 -1.0612
1.88642 -1.50038 -1.93875
2.88924 -1.34404 -1.02573
3.56914 -0.0689603 0.564511
2.54928 -1.86405 -0.165537
1.23148 -3.15991 0.278463
2.26135 -2.00504 -0.758794
3.13139 -0.307858 1.08326
3.31583 -1.12794 -0.508766
3.65407 -0.242674 -1.13749
2.60212 -1.74333 -0.669689
3.77581 -0.555666 -0.36584
2.68666 -1.69808 0.235794
3.77435 -0.460581 -0.0547911
3.87641 0.00478714 0.010039
2.38257 -2.00047 0.137722
1.40469 -2.77071 -0.789665
2.04899 -2.30729 0.175813
2.16154 -1.32361 -1.83887
3.7597 0.0409759 -1.06311
1.62042 -2.57462 -0.750489
3.04844 -1.39897 -0.0599161
1.92115 -2.36429 -0.528801
2.28989 -1.5168 -1.54237
3.49971 -0.709039 0.307265
2.44981 -1.9196 0.262386
3.90332 0.418515 -0.546089
2.12486 -1.76788 -1.42731
3.33404 -1.04275 -0.75014
3.14657 -0.175768 1.09354
3.73063 0.648914 -0.80303
3.48843 0.174095 0.679681
3.36321 0.251954 -1.4749
3.57235 0.648428 -1.08563
1.23721 -3.14941 0.196218
1.95496 -1.54556 -1.83987
3.48488 0.463759 -1.29996
3.27996 -1.01876 0.326313
2.1093 -1.81736 -1.37958
2.16793 -1.74709 -1.40257
2.35491 -2.02727 -0.281536
3.83854 -0.196805 -0.853555
3.92064 -0.0263357 -0.136388
2.41339 -1.13587 -1.76726
3.94682 0.154019 -0.622965
1.34668 -2.1128 -1.92259
3.96295 0.138997 -0.501253
1.76007 -2.58365 -0.0102865
3.64177 -0.598922 0.127078
3.43968 0.0238584 -1.42193
2.49459 -1.42039 -1.4315
1.31154 -2.32787 -1.72842
3.76347 0.307711 0.215207
2.75748 -1.5427 -0.860753
1.1251 -2.56065 -1.69875
2.48215 -1.67804 -1.07766
3.19303 -0.336309 0.999751
3.20212 -0.845299 -1.25582
2.52158 -1.88166 -0.292478
2.47558 -1.90628 -0.418086
1.76281 -2.47003 -0.665461
2.33824 -1.44969 -1.56363
3.69081 -0.158607 0.352824
3.85577 0.433025 -0.0958535
3.51587 0.211128 -1.34034
3.4411 -0.866579 -0.871422
1.34134 -2.88392 -0.646039
3.33787 -0.500739 0.741679
2.86528 -1.57937 -0.133395
3.51006 -0.819565 -0.803498
1.95595 -1.62437 -1.76759
3.3368 -0.226561 0.848948
2.06789 -2.02724 -1.09718
1.96984 -1.93962 -1.38635
1.28407 -3.09179 0.157779
1.22182 -2.4017 -1.75903
3.84244 -0.430049 -0.419662
3.6921 -0.66975 -0.555276
2.71505 -1.69696 -0.43661
2.59252 -1.77747 0.288236
3.36162 -0.208128 -1.45855
3.7485 -0.368046 0.124369
2.06705 -2.29629 0.019923
2.51979 -1.82053 -0.644478
3.89712 0.276035 -0.0997932
1.64201 -2.67045 -0.276923
3.26619 -0.352942 0.902178
2.03438 -1.9055 -1.3507
3.40106 -1.02687 -0.566887
1.84138 -1.5523 -1.93717
1.50262 -2.65463 -0.841286
3.60509 -0.610316 0.200024
3.64131 -0.75298 -0.490536
3.67639 -0.342885 -1.05366
1.9297 -1.95832 -1.41212
3.153 -0.854126 0.759249
3.49593 -0.0487118 0.670456
3.14612 -0.514247 -1.53613
2.7103 -1.59155 0.502476
3.79149 -0.509264 -0.555682
3.7756 -0.146144 0.198886
3.74883 -0.445107 0.0445373
3.18207 -0.684757 0.848551
3.81117 -0.0826639 -0.959701
2.82753 -1.5646 0.215773
2.6348 -1.77891 0.0376809
1.10014 -2.56981 -1.72404
1.39664 -2.82835 -0.641583
2.23894 -2.03137 -0.736767
2.28396 -1.43275 -1.63406
3.09974 -0.595172 -1.53595
2.15962 -1.99335 -1.00448
3.10769 -0.580267 1.00887
1.2261 -2.67619 -1.36968
3.46938 -0.870665 -0.799526
1.47012 -2.57922 -1.08907
3.51041 -0.0193018 0.653319
3.8695 -0.28256 -0.148315
3.84645 -0.0461923 -0.903052
1.30495 -3.07004 0.211176
3.58771 -0.140824 -1.25115
2.62015 -1.74956 -0.587332
3.90965 -0.174731 -0.657414
1.41121 -2.93313 -0.0521239
1.2425 -2.78834 -1.13696
2.37229 -1.16377 -1.78125
2.59052 -1.20074 -1.55786
2.5581 -1.85317 -0.246516
1.4986 -2.19443 -1.65028
1.9928 -2.15891 -0.958424
1.27259 -2.88091 -0.859399
3.79088 -0.422993 -0.749429
1.14899 -2.23196 -2.03345
2.27142 -1.30496 -1.75861
2.05442 -2.01681 -1.13909
1.33976 -2.5665 -1.35225
2.26109 -1.95189 -0.901291
3.65285 0.249128 -1.18432
1.38809 -2.94694 -0.142705
3.57649 0.437668 -1.21103
3.8604 0.432997 -0.112282
1.51128 -1.94383 -1.90934
3.77119 -0.552321 -0.271976
3.69652 -0.551743 0.0477184
3.51526 0.490745 -1.25538
3.06148 -1.27278 0.34774
1.81977 -2.50624 -0.252186
3.56976 0.0869365 -1.29584
3.41361 -0.821666 0.340603
1.33474 -2.27413 -1.76216
3.32728 -0.852692 0.470125
1.52665 -2.22379 -1.57656
3.9209 0.257821 -0.178647
3.24831 -0.360818 0.922304
3.94321 -0.0239099 -0.237491
1.50183 -2.67062 -0.800303
2.55839 -1.73694 0.538968
3.04674 -1.3328 0.235399
1.43121 -2.46625 -1.36346
3.31233 -0.203525 -1.50278
2.83058 -1.07996 -1.43418
3.53407 0.44696 -1.25475
3.82748 -0.44073 -0.261185
2.1628 -1.7228 -1.44051
1.39192 -2.92214 -0.274141
1.38692 -2.9633 -0.0119649
3.77134 -0.30297 -0.920149
3.33153 -0.650445 0.655131
1.9972 -1.75264 -1.59221
3.71359 -0.217745 -1.06585
1.69341 -2.63874 -0.136877
2.39253 -1.71743 -1.14632
3.53499 0.3965 -1.27385
3.58926 0.774923 -0.928658
3.91404 -0.0960149 -0.707759
3.92216 0.160364 -0.723287
3.55114 -0.875745 -0.426457
1.53616 -1.91562 -1.91037
3.07416 -1.38403 -0.173473
1.56057 -2.07887 -1.71233
2.33847 -1.9553 0.561141
3.39359 -0.533552 0.641871
3.2671 -0.895452 -1.12024
3.46812 -0.727131 -1.024
3.45802 0.590027 -1.26486
2.29633 -1.76819 -1.20243
2.46119 -1.91942 -0.412836
3.86653 -0.365116 -0.520076
3.28521 -1.175 -0.366373
3.74393 -0.345579 -0.939415
3.47823 0.216679 -1.37614
3.15565 -1.29926 -0.419344
3.93303 0.262998 -0.243013
1.91262 -2.19567 -1.03277
3.43131 0.586158 -1.29545
1.11275 -2.23847 -2.07002
3.92273 0.179232 -0.715388
3.00612 -1.39149 -0.660445
2.94252 -1.23532 -1.11998
0.795618 -2.05894 -2.57372
0.645406 -2.04554 -2.75199
0.885581 -1.74642 -2.67437
0.35876 -1.73487 -3.24363
1.38667 -1.81752 -2.1452
0.921904 -2.18539 -2.33803
1.09805 -1.31176 -2.70254
0.961195 -2.07053 -2.38349
0.606525 -1.56143 -3.04362
1.17472 -1.71894 -2.41589
1.39622 -1.24666 -2.49321
0.893974 -1.85326 -2.60264
0.61499 -1.39521 -3.10157
0.495111 -1.55458 -3.16297
0.642922 -1.29179 -3.11186
0.560872 -1.83847 -2.96318
1.10967 -1.51191 -2.59581
0.780905 -1.93372 -2.67061
1.36007 -1.46255 -2.40936
1.81274 -1.45992 -2.03296
0.593637 -1.77291 -2.96001
1.80013 -1.42871 -2.06575
1.31993 -1.36852 -2.49353
0.511196 -1.90403 -2.9861
0.786105 -1.0692 -3.05424
0.580878 -1.64018 -3.03591
1.26633 -1.33389 -2.5544
1.45528 -1.73122 -2.14742
0.814829 -1.11845 -3.01417
0.452929 -1.87803 -3.06721
0.717334 -1.36519 -3.01478
1.77707 -1.52843 -2.01279
0.581692 -1.61429 -3.04648
0.634235 -1.84667 -2.87821
1.51693 -1.67199 -2.13564
0.965514 -1.46616 -2.74569
0.830172 -2.21244 -2.42331
0.672195 -1.52577 -2.9929
1.1923 -2.03171 -2.16636
1.3859 -1.58722 -2.31132
0.934356 -1.30642 -2.84315
0.91646 -1.94437 -2.52088
0.869894 -1.34204 -2.88501
0.513853 -1.44657 -3.18461
1.01428 -2.12969 -2.27857
0.98764 -1.77264 -2.5594
0.634231 -2.19546 -2.66892
0.460362 -1.49656 -3.22265
0.955451 -1.69332 -2.63701
1.38911 -1.71091 -2.2237
