ply
format ascii 1.0
comment Created by Open3D
element vertex 250
property double x
property double y
property double z
end_header
3.36655 -0.0871069 -0.310907
3.25652 -0.511248 1.89899
1.56902 1.81394 1.95353
2.7191 1.43724 1.32178
3.60504 -0.164798 0.196812
2.59713 1.77519 0.323369
1.49472 2.98985 -0.636981
2.20812 2.0469 0.802519
3.2985 -0.0265903 -0.439374
3.22278 1.10377 0.959789
3.36192 0.360293 1.80907
2.5393 1.76161 0.841063
3.65797 0.499916 1.03377
2.79892 1.52422 0.00121863
3.71141 0.341619 0.754698
3.78931 -0.129977 0.806834
2.50483 1.84998 -0.0291316
1.42211 2.82875 0.499309
2.2094 2.15237 -0.19689
1.84454 1.61146 1.95103
3.45876 0.0641329 1.81661
1.62605 2.62206 0.546261
3.07117 1.28267 0.419942
1.94836 2.36035 0.439253
2.04345 1.73377 1.65576
3.53375 0.51695 0.300898
2.58933 1.7426 -0.118192
3.6739 -0.418094 1.42719
1.92387 1.96014 1.46089
3.18613 1.07074 1.21161
3.30552 -0.1583 -0.419704
3.43678 -0.583677 1.68268
3.53097 -0.423953 0.118024
2.97356 -0.0427857 2.16936
3.22586 -0.51872 1.91977
1.48314 2.9967 -0.554967
1.65906 1.83511 1.8643
3.11148 -0.290412 2.06971
3.34595 0.822559 0.174732
1.92187 1.99895 1.40208
1.96933 1.93326 1.45042
2.39629 1.96524 0.360986
3.5953 0.249879 1.58525
3.80567 -0.0701679 0.950083
2.09088 1.40495 1.97287
3.72085 -0.144863 1.45723
1.09058 2.42609 1.70251
3.76198 -0.156303 1.34114
1.91065 2.47073 -0.134612
3.62843 0.442746 0.525178
3.07587 0.166514 2.08931
2.25834 1.60974 1.61192
1.11099 2.5965 1.46643
3.6972 -0.465537 0.647056
2.63806 1.60083 1.09659
0.952116 2.82364 1.35243
2.33593 1.78745 1.2193
3.34421 0.0168196 -0.352146
2.94174 0.988376 1.70719
2.54608 1.81998 0.435529
2.47796 1.87191 0.541169
1.77432 2.49745 0.515673
2.08145 1.67114 1.69964
3.68844 -0.0365378 0.407154
3.71606 -0.525477 0.989157
3.15258 -0.0360541 2.06455
3.25341 0.920708 1.38531
1.39727 2.91117 0.325962
3.4466 0.227173 -0.107431
2.89104 1.48021 0.4158
3.33081 0.858289 1.34417
1.68032 1.89688 1.77963
3.44645 -0.0632601 -0.155701
1.95334 2.14592 1.08127
1.79338 2.12426 1.35487
1.51697 2.94701 -0.496839
1.02275 2.67793 1.46214
3.70297 0.38638 1.12433
3.54696 0.6539 1.17474
2.69262 1.66368 0.650976
2.72331 1.59375 -0.0845944
3.00961 0.403373 2.06171
3.71493 0.214334 0.59622
2.19516 2.17384 -0.0416961
2.46965 1.83435 0.784234
3.7674 -0.372567 0.97035
1.74865 2.61539 0.0784588
3.3975 0.0512729 -0.246681
1.86099 2.08137 1.34112
3.28693 1.01453 1.05348
1.5292 1.86577 1.9322
1.49884 2.72308 0.592443
3.60797 0.439698 0.445374
3.51644 0.723219 1.08551
3.4079 0.439864 1.71356
1.75043 2.14923 1.36736
3.29586 0.574647 -0.233541
3.5531 -0.204545 0.0840419
2.80645 0.725653 2.02965
2.8672 1.36328 -0.227827
3.63201 0.494016 1.22801
3.73969 -0.0190259 0.574809
3.70511 0.306414 0.657345
3.3294 0.389446 -0.279156
3.53888 0.161552 1.70383
2.92261 1.39353 0.0766076
2.71481 1.64653 0.16382
0.923378 2.83871 1.36956
1.44804 2.85418 0.344402
2.19258 2.06871 0.771476
2.01311 1.67113 1.75901
2.76721 0.806161 2.00359
2.0589 2.09039 1.0186
3.28086 0.255986 -0.42743
1.12499 2.8641 1.03571
3.29568 0.908676 1.32163
1.41209 2.70256 0.837782
3.56164 -0.230136 0.109349
3.77246 0.184324 0.899694
3.58193 0.112876 1.6643
1.54639 2.91386 -0.539221
3.26682 0.286795 1.92419
2.57379 1.74979 0.764791
3.70221 0.184788 1.41689
1.58754 2.8321 -0.237585
1.19575 2.9242 0.794076
2.05001 1.43646 1.97206
2.31051 1.41865 1.7968
2.5888 1.78131 0.404897
1.29937 2.44373 1.45757
1.91744 2.24778 0.906436
1.28737 2.9553 0.516308
3.58637 0.450498 1.43051
0.88424 2.57212 1.74328
1.9665 1.57287 1.90104
1.93105 2.14498 1.12063
1.23133 2.74964 1.06479
2.17551 2.02495 0.949437
3.31467 -0.11036 1.95161
1.54793 2.86538 -0.158504
3.22066 -0.286536 1.99867
3.71731 -0.522141 1.00585
1.24145 2.25298 1.75812
3.67191 0.477048 0.943628
3.6626 0.411601 0.622052
3.14803 -0.327123 2.03882
3.1557 1.0732 0.0576548
1.91501 2.44408 0.124894
3.22338 0.0742205 2.00856
3.46466 0.622721 0.228438
1.12293 2.55036 1.51431
3.40843 0.628532 0.0801283
1.34367 2.45603 1.38707
3.77629 -0.338937 1.0472
3.38463 0.055303 -0.271274
3.8074 -0.051986 1.05208
1.50743 2.73011 0.549868
2.73689 1.50249 -0.323679
3.1234 1.15594 0.15012
1.31097 2.65114 1.11472
2.9523 0.409746 2.09459
2.56069 1.26699 1.75298
3.16981 -0.285071 2.03345
3.72072 0.363954 0.967371
1.95494 1.91766 1.49049
1.52364 2.86867 -0.0269568
1.57406 2.8539 -0.287141
3.5243 0.369759 1.61371
3.43434 0.391861 -0.0557558
1.76514 1.984 1.5949
3.43248 0.318972 1.75799
1.82441 2.5533 -0.0384489
2.23762 1.84323 1.25832
3.17067 -0.231777 2.04187
3.2642 -0.675879 1.79829
3.69059 0.118326 1.48168
3.67629 -0.129174 1.54932
3.45027 0.832559 0.980756
1.26344 2.22483 1.76995
3.07257 1.29114 0.537018
1.33893 2.34191 1.55303
2.54273 1.71817 -0.434667
3.48361 0.278461 -0.00671962
3.03599 1.00679 1.5811
3.23901 0.815692 1.56481
3.0828 -0.420319 2.05563
2.13624 1.90769 1.28167
2.46592 1.88411 0.530499
3.70165 0.343293 1.23844
3.22474 1.12078 0.807685
3.49686 0.416316 1.61789
3.10826 -0.0327504 2.092
3.09688 1.25745 0.806373
3.77493 -0.33084 1.11238
1.82703 2.30189 0.9534
3.0509 -0.409255 2.07851
0.842027 2.58734 1.76936
3.67701 -0.14929 1.54564
2.90962 1.40304 0.987301
2.74427 1.34914 1.44486
0.418399 2.52795 2.22051
0.235111 2.55714 2.3622
0.462915 2.24091 2.39803
-0.166119 2.36611 2.83435
1.06326 2.18313 1.9828
0.598191 2.59792 1.99631
0.632446 1.81537 2.55628
0.61895 2.49399 2.07096
0.10287 2.1467 2.72959
0.794875 2.15049 2.21694
0.96064 1.69825 2.43163
0.493384 2.32994 2.30986
0.0871856 1.99621 2.81995
-0.0302821 2.16865 2.82175
0.104705 1.89643 2.85628
0.0949748 2.40193 2.58781
0.680014 1.98812 2.4167
0.375369 2.42645 2.3351
0.95814 1.89271 2.30076
1.47524 1.79657 2.03626
0.122726 2.33616 2.60473
1.45406 1.77337 2.07121
0.895132 1.81981 2.39161
0.0467659 2.47238 2.58623
0.239467 1.66226 2.8756
0.085226 2.22284 2.70113
0.828043 1.80048 2.44549
1.12342 2.09709 2.01656
0.279194 1.70104 2.83348
-0.0282675 2.46589 2.65678
0.202235 1.94536 2.76439
1.44952 1.8604 1.9958
0.0819827 2.19973 2.71658
0.184199 2.38973 2.52028
1.18158 2.03478 2.03006
0.50588 1.97952 2.53895
0.493591 2.6452 2.05323
0.174478 2.0991 2.70197
0.885126 2.40304 1.9195
1.01222 1.99307 2.18752
0.444093 1.84494 2.65748
0.538446 2.40105 2.21818
0.375426 1.8906 2.6769
-0.0243463 2.06707 2.86793
0.696142 2.52805 1.96993
0.5875 2.23909 2.30424
0.251935 2.6865 2.25048
-0.0804576 2.12562 2.88312
0.534663 2.17894 2.38755
1.04205 2.0954 2.07969
