ply
format ascii 1.0
comment Created by Open3D
element vertex 400
property double x
property double y
property double z
end_header
-2.81948 -0.765121 -1.5602
-2.54917 1.47746 -1.2631
-2.69389 -0.478387 -1.88625
-1.95415 0.226768 -2.54495
-2.93879 -0.364528 -1.01843
-2.86005 -0.525966 -1.37899
-2.12724 -0.424594 -2.68949
-2.77067 -0.0753493 -1.52755
-2.61091 1.48189 -1.17019
-2.27139 1.94746 -1.46212
-2.75643 -1.08957 -1.78068
-2.51759 -0.0075836 -2.0173
-2.16057 0.80341 -2.06636
-2.54633 1.21932 -1.36679
-2.47889 0.815748 -1.65374
-2.75277 -1.32765 -1.62967
-2.766 -0.921283 -1.76945
-2.1339 1.47385 -1.78346
-2.41378 -0.980319 -2.56649
-2.04564 0.902389 -2.13526
-2.7202 0.0965358 -1.57292
-2.68385 0.398905 -1.50527
-2.46053 0.881159 -1.64878
-2.51201 -0.145351 -2.09537
-2.43459 -0.886426 -2.51328
-2.80477 0.0823194 -1.37099
-1.93983 0.229987 -2.55476
-2.94089 0.926074 -0.731233
-2.27077 0.442797 -2.12605
-2.98705 0.764374 -0.655799
-2.87952 -0.776114 -1.25876
-2.39998 0.679727 -1.83639
-2.07393 -0.159228 -2.62313
-2.47533 1.10014 -1.52401
-2.1931 -0.0581312 -2.4648
-2.36976 -0.0177686 -2.23971
-2.71925 1.51031 -0.992241
-2.96634 0.684223 -0.728136
-2.65734 -0.827654 -2.08314
-2.14125 -0.297188 -2.62389
-2.2541 0.55648 -2.08684
-2.97387 0.175424 -0.81936
-2.26112 1.35424 -1.69141
-2.53795 0.644101 -1.64733
-2.57154 1.22053 -1.32763
-2.11796 -0.588067 -2.75966
-2.93146 0.439455 -0.88918
-2.3789 0.327369 -2.04923
-3.07524 0.953694 -0.401955
-2.43524 0.229355 -2.0217
-2.15973 1.80615 -1.62936
-2.19515 -0.281462 -2.56563
-2.11252 0.882144 -2.07807
-2.35639 1.86518 -1.38818
-2.14335 1.40842 -1.80092
-2.76804 0.210396 -1.40837
-2.89431 -0.34379 -1.21509
-2.89805 -0.726329 -1.1666
-2.47923 -0.42145 -2.27662
-2.33786 -0.303289 -2.41787
-2.0442 1.25412 -1.97131
-2.9435 0.0257402 -0.957267
-2.21064 -0.0597784 -2.44742
-2.86483 -0.859162 -1.31002
-2.98028 0.223667 -0.788318
-2.19821 1.30809 -1.78423
-3.00441 0.652127 -0.631616
-2.73125 -0.263776 -1.70835
-2.34543 0.851189 -1.82268
-2.93822 0.566055 -0.834294
-2.90997 0.548038 -0.915314
-2.14702 -0.505342 -2.70379
-2.78158 -0.591066 -1.67714
-2.20832 1.87951 -1.55271
-2.48682 1.21678 -1.45596
-2.9075 -0.32188 -1.15762
-2.72156 -0.942128 -1.92308
-2.70191 -1.23457 -1.95197
-2.73681 0.656833 -1.27679
-2.95956 0.314629 -0.837801
-2.86822 0.854616 -0.917245
-3.01075 0.9284 -0.564731
-2.78784 1.02906 -1.02536
-2.81434 0.380845 -1.22164
-2.51539 1.4091 -1.33692
-2.48776 -0.671301 -2.36404
-2.74899 -0.473035 -1.7408
-2.71315 0.906811 -1.21608
-2.66673 -0.655591 -2.01313
-2.86967 -0.599436 -1.34122
-2.84058 1.29732 -0.841273
-2.52102 0.742636 -1.62513
-2.1126 -0.103465 -2.56383
-2.34681 1.01512 -1.74039
-2.8732 0.904776 -0.890148
-2.68782 -0.701219 -1.9751
-2.61055 1.10716 -1.31231
-2.81972 -0.917167 -1.53804
-3.03957 0.30192 -0.569214
-2.63 1.02411 -1.31506
-2.81147 0.855869 -1.04001
-2.74781 0.842457 -1.1756
-2.11116 0.316521 -2.36283
-2.79777 -0.591593 -1.62347
-2.6803 -1.07425 -2.05138
-2.80977 0.575473 -1.15261
-2.54215 1.24113 -1.36412
-2.90913 0.0583825 -1.0689
-2.86506 0.297104 -1.12263
-2.10113 0.420416 -2.32066
-2.46913 -0.726603 -2.4125
-2.50665 1.15527 -1.45356
-2.14628 1.22318 -1.87973
-2.17077 0.0926965 -2.41449
-2.94173 0.335868 -0.887872
-2.86731 -0.426743 -1.33627
-2.43373 0.915265 -1.67079
-2.16425 1.09122 -1.92165
-1.89399 0.0640426 -2.66448
-3.00463 0.128167 -0.71258
-2.30896 -0.199806 -2.40464
-2.7331 -1.3032 -1.77427
-2.32085 0.698299 -1.93194
-3.13235 1.0701 -0.255499
-2.95342 1.18579 -0.645016
-1.91897 -0.397928 -2.83671
-2.41713 0.142205 -2.09315
-2.79908 -1.16638 -1.50632
-2.86206 1.28155 -0.804992
-2.74865 -1.32399 -1.66204
-2.94073 1.24752 -0.658663
-3.02162 0.957826 -0.533505
-2.7632 -0.482458 -1.70328
-2.24621 -0.464429 -2.59179
-2.67228 -0.881606 -2.05673
-2.56178 0.124917 -1.87455
-2.54274 -0.56089 -2.23056
-2.46776 1.03398 -1.56534
-2.53908 -0.967931 -2.36422
-2.08677 1.28403 -1.9149
-1.9628 0.65102 -2.33406
-2.56458 -1.10724 -2.33642
-2.04928 -0.590507 -2.81503
-2.95226 0.328824 -0.85724
-2.64198 1.2645 -1.19859
-2.01503 0.91747 -2.15731
-2.28551 1.26767 -1.70017
-1.94097 0.0846261 -2.62071
-2.56651 1.13135 -1.37265
-2.98527 0.396105 -0.738714
-2.76483 -1.34161 -1.5131
-2.60043 -0.908885 -2.23048
-2.45275 -0.968274 -2.50758
-2.82422 0.0328013 -1.33773
-2.22304 -0.258694 -2.52716
-2.15625 1.70883 -1.66757
-1.93625 0.146168 -2.59628
-2.7006 -1.27682 -1.93935
-1.91314 0.0195683 -2.67035
-2.64654 -1.10174 -2.14559
-2.57826 -0.621482 -2.18883
-2.06601 0.422709 -2.35315
-1.92 0.0614161 -2.64681
-2.95776 0.326287 -0.840686
-2.54017 0.249164 -1.84727
-2.87046 -0.748431 -1.31934
-1.98135 -0.141922 -2.69018
-3.12817 1.09374 -0.265101
-2.72259 -0.478418 -1.814
-2.02394 0.375992 -2.41462
-2.6809 -0.959888 -2.04473
-2.87248 -0.662747 -1.32433
-2.47703 -0.431229 -2.28428
-2.63848 -0.768404 -2.11221
-2.8873 0.0835221 -1.13174
-2.80461 -0.200367 -1.48365
-2.80383 0.256306 -1.30014
-2.76931 1.05465 -1.05203
-2.45056 -0.209225 -2.22186
-2.37835 0.667184 -1.87248
-2.72533 -0.0283932 -1.61922
-2.34886 0.396129 -2.05308
-2.3658 0.0993761 -2.18536
-2.658 0.887267 -1.3258
-2.88244 0.337283 -1.06015
-2.58273 0.997256 -1.40533
-2.29794 1.85835 -1.45888
-2.14289 1.61364 -1.71771
-2.43339 -0.82888 -2.4983
-2.14116 1.66342 -1.70051
-2.76883 -0.749712 -1.74959
-2.54666 -1.02686 -2.36119
-2.04385 -0.560076 -2.80844
-2.96386 0.319326 -0.823051
-2.95429 0.795113 -0.731827
-2.88136 0.609529 -0.968404
-2.96531 -0.109601 -0.891626
-2.67337 0.0814024 -1.68261
-2.26295 1.43207 -1.65624
-2.47492 -0.939017 -2.46653
-2.60349 -0.930033 -2.22836
-2.76719 0.384242 -1.33232
-2.9072 0.612245 -0.902289
-2.26104 0.522032 -2.09648
-2.88895 0.513644 -0.981726
-3.02678 0.161024 -0.624531
-3.02387 0.817477 -0.550249
-2.2539 0.262551 -2.239
-2.56805 -0.263876 -2.05622
-2.94166 -0.253526 -1.00396
-2.10728 0.0885164 -2.47844
-3.00649 0.861365 -0.587132
-2.47763 1.17648 -1.48667
-2.09083 1.24388 -1.9288
-2.24832 -0.588823 -2.63863
-2.9124 -0.55031 -1.1348
-2.3016 0.767487 -1.92082
-3.11618 1.00383 -0.296737
-2.739 1.3962 -0.993061
-2.6195 -0.818114 -2.16774
-2.8387 1.04137 -0.919812
-2.61224 0.661803 -1.51239
-1.90747 0.232155 -2.57864
-2.88011 0.123627 -1.14072
-2.4851 0.645846 -1.7298
-2.49064 -0.069479 -2.09189
-2.91359 -0.487321 -1.13579
-2.94915 -0.266582 -0.970596
-2.40458 0.900533 -1.71883
-2.30742 0.263111 -2.17503
-2.81934 0.412784 -1.19618
-2.83411 0.30724 -1.20154
-1.95452 0.317119 -2.50201
-2.86795 -0.726209 -1.33766
-2.82488 0.2797 -1.23662
-3.00182 0.0979561 -0.726029
-3.08158 0.880762 -0.391949
-2.67514 -0.93389 -2.05733
-2.26047 -0.244931 -2.48095
-2.44591 -0.0443958 -2.14731
-2.74725 0.276667 -1.42694
-2.39349 1.20443 -1.59099
-3.09968 1.13749 -0.330042
-2.82991 -0.192529 -1.40436
-2.6377 1.47983 -1.12999
-2.77321 0.0739457 -1.45637
-2.56575 -0.0171929 -1.93998
-2.32222 0.650429 -1.95485
-2.74827 -1.11598 -1.80715
-2.84048 0.560304 -1.08629
-2.59442 -1.06185 -2.2686
-3.10033 0.689181 -0.351128
-2.34424 -0.108522 -2.31761
-2.56472 0.54109 -1.655
-2.97109 0.840722 -0.679466
-2.10946 0.292188 -2.37659
-2.9986 0.353949 -0.70372
-2.00446 0.748473 -2.2493
-2.16027 1.45014 -1.76496
-2.70568 -0.510825 -1.86892
-2.81538 -1.04884 -1.50151
-2.78226 1.03099 -1.03556
-2.76015 -1.19429 -1.71493
-2.44747 0.172583 -2.03345
-2.33256 1.34303 -1.60924
-2.99071 0.963413 -0.606429
-2.85849 -0.00480251 -1.25085
-2.88453 1.13885 -0.798069
-2.87964 0.335817 -1.06845
-3.00711 0.155627 -0.700616
-2.05824 -0.38275 -2.73044
-2.54688 -0.548933 -2.21851
-2.48316 0.480645 -1.81811
-3.03676 1.13092 -0.473634
-2.0509 0.633999 -2.26235
-3.09337 0.93711 -0.357428
-2.39368 -0.973441 -2.59204
-3.0912 0.758986 -0.374321
-2.37871 1.51648 -1.48038
-2.2949 -0.398809 -2.51107
-2.68766 0.465383 -1.46544
-2.8405 -0.707892 -1.47066
-2.97883 0.665019 -0.699237
-2.79712 -0.0777244 -1.45747
-2.51167 1.33705 -1.37033
-2.7168 -1.11408 -1.92952
-2.61241 -0.853949 -2.19217
-2.50354 -0.558658 -2.29579
-2.90833 0.752706 -0.856165
-2.50731 1.64858 -1.26376
-3.01651 0.964078 -0.544819
-2.48415 1.70658 -1.27638
-2.94374 -0.134056 -0.983628
-2.60745 -0.0116776 -1.8606
-2.6108 1.46534 -1.17593
-2.84597 -0.828655 -1.4285
-2.51148 1.1391 -1.45346
-2.9511 1.18259 -0.650531
-2.22836 -0.340375 -2.55783
-2.72379 -1.212 -1.87401
-2.57412 1.07279 -1.38585
-2.64074 -0.59013 -2.04997
-2.24438 0.99844 -1.87519
-2.63152 -1.15238 -2.18442
-2.36755 1.15911 -1.64579
-2.61643 0.426022 -1.622
-2.75127 -1.28243 -1.69235
-2.56488 -0.489186 -2.16187
-2.33103 0.754588 -1.89012
-2.74044 -0.776848 -1.84543
-2.19742 1.17967 -1.84329
-2.9711 -0.0837825 -0.865258
-2.80746 0.140804 -1.33946
-2.19057 -0.57814 -2.69155
-2.84509 -0.323391 -1.39515
-2.75114 -0.18891 -1.62631
-3.06839 0.492418 -0.45899
-2.08078 0.531992 -2.28456
-2.02211 0.651858 -2.2805
-3.12594 0.844157 -0.275093
-2.83182 -1.07653 -1.36648
-2.77677 -1.0569 -1.70078
-2.3874 1.12734 -1.63408
-2.28056 -0.717483 -2.651
-2.30853 -0.25273 -2.42989
-2.74475 -0.0929129 -1.60122
-2.36105 1.45944 -1.52518
-2.55108 1.67016 -1.19668
-2.09583 1.37975 -1.86341
-2.65022 -0.122634 -1.82983
-2.82159 -0.111636 -1.40069
-3.02591 1.05372 -0.508813
-2.11774 0.544196 -2.24185
-2.99372 0.941956 -0.603403
-2.0228 0.148412 -2.52528
-2.91068 1.08167 -0.758719
-2.63344 0.324442 -1.64141
-2.62718 1.05538 -1.30651
-2.62545 0.93892 -1.35994
-2.19886 1.95663 -1.53904
-2.21973 0.114248 -2.35242
-2.10899 -0.259435 -2.63659
-2.79825 -0.773462 -1.64588
-2.90434 -0.383374 -1.17742
-2.81952 -0.448374 -1.51587
-2.28388 0.00837317 -2.33304
-2.30697 0.466107 -2.06984
-2.79528 0.413002 -1.2542
-2.65359 0.708995 -1.41508
-2.82675 0.0407971 -1.32744
-2.7415 0.316294 -1.42163
-2.28065 1.66291 -1.5452
-2.84523 0.153908 -1.23158
-2.63836 -1.04628 -2.16427
-2.91247 -0.0319246 -1.0817
-2.66843 -0.886649 -2.06755
-1.95749 -0.0217826 -2.65583
-2.88548 -0.737219 -1.23824
-2.24891 1.022 -1.85843
-2.42997 -0.602316 -2.42437
-2.30287 -0.416263 -2.50947
-2.17223 -0.178418 -2.54187
-2.74047 -0.132531 -1.62923
-2.0725 0.76 -2.17888
-1.97324 0.0994066 -2.58891
-2.6408 -0.292739 -1.92829
-2.06321 0.702382 -2.21656
-2.86433 -0.774344 -1.34566
-2.13849 0.66666 -2.15863
-2.7003 0.610741 -1.37148
-2.37137 -0.931812 -2.61054
-2.82525 -0.916629 -1.51018
-2.79184 0.693776 -1.14479
-2.9699 -0.14201 -0.873793
-2.76363 -1.32834 -1.54784
-2.57401 1.61325 -1.18191
-2.67565 0.602088 -1.42386
-2.96794 0.189577 -0.837441
-2.35685 0.305608 -2.09002
-2.83898 -0.629657 -1.47498
-2.5164 1.00846 -1.50477
-2.79572 -0.805974 -1.65669
-2.61567 -0.968902 -2.20864
-2.60235 1.42794 -1.20162
-2.76567 -0.0446271 -1.52731
-2.16398 1.02401 -1.9541
-2.56352 1.09551 -1.39277
-2.75527 -1.01424 -1.80203
-2.28106 1.05057 -1.80606
-2.7193 -0.585935 -1.85876
-2.91459 -0.36035 -1.13072
-2.30933 1.45301 -1.59204
-2.2245 0.336177 -2.23454
-2.72559 1.29332 -1.04848
-2.6605 -1.20941 -2.09821
-2.3057 0.193055 -2.21334
-2.78007 -0.397406 -1.62588
-2.81126 0.797882 -1.06207
-2.24178 1.32065 -1.72874
-2.10664 0.315416 -2.36778
