ply
format ascii 1.0
comment Created by Open3D
element vertex 400
property double x
property double y
property double z
end_header
-0.880814 -0.190834 3.02889
-0.121643 -1.24621 2.91955
-0.56381 -0.00263955 3.10682
1.18712 0.0475354 2.94274
-0.882573 -0.181623 3.03098
-0.335697 1.72366 2.92574
-0.847848 0.884532 3.20365
0.106339 0.037939 3.09498
0.0816737 -0.0652263 3.0918
0.775759 -0.114841 3.02186
0.363938 -1.15663 3.0008
0.709018 -0.518622 3.04045
0.481885 -1.06629 3.01833
-1.20383 1.14822 3.20846
-1.13767 0.11064 3.05769
-0.885157 1.02683 3.20577
-0.288403 1.21934 3.08618
-0.720962 0.712448 3.19172
0.513235 -1.03507 3.02251
0.228981 -1.42774 2.95521
-0.29437 -0.75543 2.9861
-0.311884 1.08692 3.11671
0.534478 -0.542482 3.04671
-1.54643 0.215441 2.96448
-1.24045 0.10949 3.03251
-0.191415 -0.487435 3.04483
0.558988 -0.992812 3.0276
-1.13095 0.12181 3.06214
0.345149 0.565279 3.03897
-0.432282 0.513528 3.16353
1.25045 -0.185197 2.96905
0.718623 -0.554787 3.04016
-0.917078 1.04758 3.20711
0.95713 0.3837 2.92891
-0.639181 0.651329 3.18446
0.54447 -0.48199 3.04801
-0.473568 -0.922968 2.91925
0.844035 -0.201445 3.01923
0.361356 -0.372614 3.05967
-0.344295 0.362425 3.14868
0.973851 0.122631 2.96797
-1.1099 0.421431 3.13644
0.365666 0.991796 2.9552
-0.701731 -0.0758606 3.08185
0.313788 0.907428 2.99021
-0.676915 1.61303 3.07326
-0.181278 -0.389328 3.0607
-0.768268 -0.406548 2.99308
1.28953 -0.177736 2.96318
-0.0570974 -0.849597 2.99693
-0.940026 1.2109 3.20017
-0.56454 -0.73498 2.94725
-1.4664 0.847763 3.14996
-1.10061 0.369104 3.12697
0.410167 -1.21324 3.00087
0.567018 -0.177232 3.04796
0.911549 -0.133661 3.00603
0.21177 -0.14789 3.07871
-0.629884 -0.207684 3.06142
-1.23687 0.402616 3.11019
1.27608 -0.181164 2.96534
0.389138 -0.624252 3.04487
0.671952 -0.891098 3.03608
-0.985271 1.39736 3.18128
-1.01996 0.954105 3.20904
-0.117375 1.53058 2.93768
-1.17722 1.20317 3.20819
-0.552045 0.549175 3.17378
0.412513 -1.14044 3.00698
0.401677 -0.634103 3.04425
1.35304 -0.303294 2.97469
-0.636233 0.861037 3.18839
0.620695 -0.675765 3.04128
0.692961 0.164661 3.01242
-1.00517 0.320918 3.13027
-0.529875 0.708985 3.17792
0.353127 -0.250993 3.06507
-0.369735 -0.638005 3.00029
1.05008 0.104101 2.95722
-0.809614 1.57021 3.11591
-1.56223 0.307664 2.98818
-1.46651 0.958025 3.16544
-0.475642 0.396178 3.15886
-1.60588 0.705807 3.08254
0.265473 0.966633 2.99079
-1.0165 0.879063 3.20561
0.875362 0.188042 2.97698
0.666718 0.476518 2.9789
0.6139 -0.28033 3.04501
-0.279697 0.462413 3.14758
-1.02955 0.217621 3.10456
0.442818 0.271048 3.04713
-1.44157 0.040451 2.94647
-0.492177 0.997433 3.16256
0.506609 -0.380391 3.0521
0.148886 -0.0946937 3.08564
-0.926155 0.769035 3.19935
-0.27192 0.59084 3.14807
-1.57567 0.290133 2.97717
0.658411 -0.905219 3.03531
0.867368 0.508818 2.92556
0.112611 1.16759 2.9858
-0.521998 -0.706148 2.96211
0.0576288 1.08039 3.02411
0.44919 -0.74906 3.03753
0.545359 0.360629 3.02017
0.272948 0.532928 3.05776
-1.30534 0.340455 3.07944
0.722075 -0.509335 3.03977
1.58396 -0.238573 2.9405
-0.522678 -0.411538 3.0296
0.288949 -1.19116 2.98919
-0.0633966 0.504843 3.11988
-1.16105 -0.0764829 2.99858
-1.11464 0.779318 3.19266
-0.962241 0.675169 3.18986
-0.014882 -0.263902 3.0791
-0.485973 -0.173573 3.08088
0.260934 0.0503342 3.07976
0.423289 -0.139611 3.06173
-1.20443 0.866994 3.19426
0.651368 -1.00646 3.03183
-1.32799 0.463141 3.10447
-0.814677 -0.483317 2.96285
0.27662 -0.42169 3.05974
0.423516 -0.957834 3.02212
0.126278 0.455048 3.09105
-0.700423 -0.420553 3.00166
0.177177 0.572497 3.07348
-0.209224 -0.0404838 3.10662
0.340507 -1.02183 3.01095
-0.468306 1.36842 3.09586
-0.0621033 -0.706083 3.01913
0.412911 0.145591 3.05862
-0.0608297 0.24257 3.11828
-0.676048 -0.579958 2.96526
0.350866 0.967026 2.96582
0.212896 -0.0630038 3.08209
0.173741 1.08174 2.99
-1.00465 1.11236 3.20928
0.940173 -0.121457 3.00122
-1.48042 0.442359 3.05718
0.383429 -1.20619 2.99853
0.252726 -1.36814 2.96553
-1.34004 0.189304 3.028
0.503481 0.737831 2.97329
0.348478 -0.342552 3.06165
1.33969 -0.248382 2.96793
0.650619 -0.196331 3.03992
-0.995661 0.0645288 3.07366
0.442634 0.596714 3.01271
-0.0206667 -0.633167 3.03277
-0.535898 0.158642 3.13323
0.135373 -0.902217 3.00736
-1.41784 1.01285 3.18047
0.00596395 0.267644 3.11158
0.724351 -0.514029 3.0397
0.368408 0.169968 3.06425
-0.150824 1.54165 2.94463
0.537658 0.319638 3.02585
0.0932225 0.760962 3.07121
0.220258 0.186158 3.08456
0.201759 -1.37772 2.95636
0.908957 -0.615763 3.03381
-1.03233 -0.0517739 3.03632
1.09085 0.2368 2.92768
0.458189 -0.778621 3.03589
-0.331447 1.05586 3.12563
0.369584 1.02525 2.94522
-0.147839 -0.537899 3.03944
0.109096 -1.04533 2.98589
0.945455 -0.629505 3.03298
-0.270384 1.2401 3.07688
0.857643 -0.127287 3.01238
0.416035 0.808165 2.98274
0.681427 -0.241593 3.03814
0.144121 1.09538 2.99538
-0.0170938 -0.614084 3.03566
0.471098 -0.146042 3.05715
-0.99081 1.12782 3.20824
-0.84664 0.0318404 3.08842
-0.142634 -0.939254 2.97139
-0.411415 -0.313045 3.06037
0.860175 -0.257155 3.02095
-0.996814 -0.382144 2.94891
-0.662602 -0.0372921 3.0935
-0.907045 0.214675 3.12032
-0.170148 0.748632 3.12619
0.697674 -0.033036 3.02699
-1.3621 0.699786 3.14703
0.75064 -0.93815 3.03741
-0.379441 0.0992289 3.12562
-1.1058 0.569782 3.16439
-1.27906 1.20755 3.20413
0.83221 0.57564 2.9205
-0.442399 0.659411 3.16848
-1.04664 0.491104 3.15756
-0.744333 -0.00531316 3.09225
0.231195 0.208725 3.08278
-0.782356 -0.438166 2.98193
-0.713705 0.317315 3.15204
-1.20098 0.550177 3.14794
0.97848 0.37365 2.92604
0.692337 0.504667 2.96837
-1.14843 -0.0943563 2.99654
0.603604 0.746744 2.94435
0.0265666 0.145487 3.10632
-0.368873 1.10315 3.12654
-0.854482 -0.429002 2.96935
-0.723631 -0.538711 2.96675
0.624346 0.0816156 3.03027
1.21893 -0.420438 3.00153
-0.298596 1.05562 3.11862
-0.374113 0.578367 3.16012
0.120591 0.322821 3.09644
-0.240541 -0.427491 3.05168
0.259695 0.779965 3.02877
0.591647 -0.580573 3.04411
-0.970911 0.0550385 3.07554
-0.430422 -0.567532 3.0074
-1.45411 0.774709 3.14043
-0.0170897 0.91322 3.0756
0.0083478 0.733068 3.09277
1.60746 -0.21091 2.93256
-0.55563 0.94246 3.17608
-0.488291 -0.652611 2.98029
-0.17679 1.1144 3.07978
-0.325941 1.07928 3.12099
0.165391 0.712921 3.06096
-1.59057 0.36944 2.99637
-0.390141 1.51225 3.03184
-0.24024 -1.08096 2.92903
-0.209958 -0.808898 2.98656
-0.143956 1.1454 3.06488
-0.438698 0.840292 3.1648
-0.779132 0.754298 3.1962
-0.676469 0.0147306 3.10253
-0.706224 1.29481 3.16068
-0.233269 -0.524849 3.03567
-0.914958 -0.318108 2.98736
0.33144 0.61351 3.03603
-0.0481937 -0.200694 3.08621
1.22996 0.025703 2.93939
0.127054 0.544824 3.08545
0.0170352 0.721665 3.09211
-0.67371 0.99625 3.18816
-0.287086 0.550894 3.14995
1.12152 -0.520761 3.01786
-1.22839 -0.0655061 2.9831
0.245303 -0.350647 3.06543
-0.403257 0.167183 3.13397
0.38142 -1.25092 2.99446
0.911067 0.375967 2.94059
0.307126 0.602016 3.04291
0.329115 -0.287565 3.06511
0.716623 -0.059947 3.02608
-1.33826 0.842744 3.17423
0.145687 -0.798333 3.02103
-0.617897 -0.0913873 3.08661
0.596062 -0.150458 3.04441
-0.754144 1.11292 3.18994
-0.41065 1.03914 3.14375
-0.00685473 -0.709275 3.02275
-0.154018 1.51917 2.95484
-0.419129 -0.719709 2.97587
0.691799 -0.744111 3.03943
0.145699 -1.16785 2.97408
-0.603481 1.53303 3.0822
-0.184113 -0.674413 3.0138
-1.38771 0.0298223 2.96254
0.698044 -0.829566 3.03799
-0.0643112 0.132519 3.11378
-0.957089 -0.456969 2.93653
-1.58792 0.330389 2.98514
-0.0389807 -1.19492 2.94287
0.0310082 -0.242702 3.08038
-0.988093 1.24537 3.20066
-0.788868 0.191052 3.12701
0.348169 -0.356641 3.06102
-0.662456 1.29172 3.1536
0.222829 -0.926541 3.01148
-0.54161 0.90314 3.17619
-0.935439 -0.219959 3.01039
-0.351392 1.24191 3.09692
-1.36809 0.900621 3.17678
-0.773641 0.134289 3.11754
0.588956 0.439446 3.00162
-0.419501 -0.360211 3.05078
-1.29168 0.822529 3.17866
0.0355556 0.483546 3.10497
-0.26694 0.58197 3.14747
-0.849078 1.1379 3.19805
0.0307582 -0.00325177 3.09892
0.603276 -0.292544 3.046
-1.15708 1.31939 3.20105
0.55709 0.63041 2.97954
0.61764 -0.0860798 3.03992
0.581736 -0.190734 3.04672
0.193638 -0.754572 3.02876
0.0660327 -0.377117 3.06664
-0.82347 0.61288 3.18643
-0.0963485 0.0811315 3.11288
0.224384 -1.39769 2.95778
0.214893 -1.03514 2.99838
-0.709735 -0.578655 2.95892
1.00004 0.36237 2.92341
-1.11177 0.011727 3.0364
-0.221489 0.647181 3.1399
0.123546 1.00821 3.02169
0.120395 0.209965 3.09725
-0.760967 -0.222717 3.04088
0.242252 0.896162 3.01228
-0.699709 -0.230829 3.0477
0.314513 1.05846 2.95328
-0.141512 -0.919402 2.9751
-0.314025 0.0722651 3.12142
0.782443 0.481553 2.95115
0.21278 -1.19095 2.9799
0.685412 0.488442 2.97268
-0.449205 1.48111 3.05882
-0.189026 -0.317106 3.07109
0.421896 0.770356 2.98863
0.252239 -1.11133 2.99359
-0.982358 -0.415338 2.94258
-0.160034 -0.730524 3.00636
0.448293 -1.29483 2.99898
-0.663916 -0.122896 3.07586
0.394139 0.876079 2.97443
-0.818216 1.37841 3.16369
0.431499 0.0560088 3.05894
-1.15206 0.930738 3.20372
-1.33101 0.543175 3.12205
-0.959053 0.0525275 3.07688
0.367001 -0.205809 3.06544
0.769005 -0.557665 3.03811
-0.314999 -0.547969 3.02435
0.235808 1.10607 2.96467
0.672711 -0.737779 3.03959
-0.118995 0.399475 3.12823
-0.682176 1.31946 3.15213
0.123668 0.890648 3.04449
-0.190488 -0.037158 3.10657
0.738159 0.410649 2.97309
-0.585228 0.219782 3.14109
0.352773 -0.469657 3.05485
-0.665351 0.248979 3.14346
0.610368 0.744208 2.94305
-0.161641 0.360649 3.13236
-0.257843 -0.159943 3.0919
-0.0300536 0.583746 3.11144
-0.977119 1.40407 3.17934
0.538428 0.375098 3.01999
0.202188 -0.115002 3.08089
-0.490893 -0.173363 3.08059
1.00511 0.249117 2.94269
-0.509349 1.66097 3.00997
1.08069 0.226054 2.93162
0.771223 0.498883 2.95067
-0.905785 -0.395405 2.96736
1.47857 -0.121942 2.92992
-1.41683 0.687326 3.1327
-0.245928 -0.314468 3.06955
-0.22078 1.60637 2.94103
-0.359794 0.637276 3.15895
-0.321051 1.26173 3.08491
0.0877276 -0.577342 3.04478
-0.0426181 1.29964 2.99556
-0.403031 1.45491 3.05442
-0.957947 1.18938 3.20312
-0.256269 1.29331 3.06003
-0.611081 1.33803 3.13485
-0.797547 -0.0551671 3.07514
-0.3673 1.75856 2.91894
0.56629 0.25312 3.02671
-0.538615 -0.462875 3.01621
-1.44815 0.164195 2.98504
0.234947 -1.33072 2.96691
-0.637824 1.26011 3.15459
-0.546117 1.55599 3.06007
-0.566575 0.0208154 3.11073
-1.54842 0.360281 3.00988
0.339561 -1.02834 3.01027
-0.462384 1.68482 2.98552
-0.286489 -0.807659 2.97669
0.520987 0.320017 3.02898
-1.18593 -0.00611031 3.01302
0.341124 8.36531e-05 3.07064
-0.733185 1.03825 3.19261
0.563259 0.708869 2.96318
-0.597828 -0.320308 3.0405
-1.09952 -0.0869955 3.01116
-0.764408 1.31527 3.16664
0.106492 1.02786 3.02217
-1.16606 1.09299 3.20964
-1.08387 -0.0801937 3.01687
-0.292713 -0.343683 3.06264
-0.687182 1.61611 3.07462
-1.36196 1.14093 3.1963
-0.979015 0.759445 3.19764
0.92609 -0.62516 3.03351
