ply
format ascii 1.0
comment Created by Open3D
element vertex 400
property double x
property double y
property double z
end_header
-2.88291 0.357578 1.12629
-2.22367 0.0467675 2.22121
-2.40926 -0.32956 2.06266
-2.85691 -0.411286 1.16961
-2.23791 -0.247167 2.295
-2.91695 1.67549 0.947127
-2.26628 -0.187927 2.23579
-2.45642 0.964426 1.70611
-2.20928 0.925808 1.97435
-2.85407 0.839191 1.17515
-2.72558 1.57662 1.23687
-2.8203 0.276125 1.2588
-1.88009 -0.207594 2.75123
-2.60307 -0.198891 1.70874
-2.23072 -0.270695 2.31316
-2.31171 -0.448681 2.25288
-2.87165 -0.334165 1.12916
-3.04138 0.462917 0.711901
-2.31037 -0.0038542 2.12115
-1.90146 0.280149 2.51159
-2.89874 0.385385 1.09162
-2.4719 1.6317 1.4883
-2.54822 -0.0832137 1.78415
-2.43041 1.26769 1.65059
-2.53336 0.852795 1.64111
-2.71094 0.210512 1.46977
-2.0764 0.205713 2.34784
-2.31724 0.0992525 2.08439
-2.19657 1.58671 1.74134
-2.30673 0.756517 1.92499
-2.71825 0.35946 1.44481
-2.79748 -0.843121 1.36948
-2.4049 1.18075 1.70239
-2.81502 -0.0886171 1.27416
-3.08055 0.448462 0.557547
-2.89001 1.2485 1.07376
-2.07155 0.891265 2.11595
-2.25695 0.498812 2.0513
-2.56366 1.39194 1.47493
-2.9679 1.67394 0.86308
-2.50016 1.40974 1.53633
-2.39737 -0.231952 2.05557
-2.30195 -0.212168 2.19227
-2.89078 0.278214 1.10582
-3.16385 1.14863 0.374512
-2.74859 1.26344 1.28285
-2.56973 0.274866 1.69304
-2.42182 -0.391085 2.059
-2.85977 0.697576 1.1719
-2.62169 1.80306 1.27677
-2.08748 0.709017 2.16469
-2.61731 0.296943 1.61678
-2.66344 0.509754 1.5185
-2.85373 0.163796 1.18725
-2.65799 -0.596333 1.66722
-2.59847 -0.581502 1.78721
-2.72874 -0.511497 1.49774
-2.95669 1.87557 0.82221
-2.92544 0.439785 1.03237
-2.87754 1.02768 1.11958
-3.08879 1.01095 0.645617
-2.79985 -0.679396 1.34064
-2.77005 0.665992 1.33223
-2.81738 0.200468 1.2659
-2.91934 1.16025 1.03332
-2.71999 -0.411242 1.50565
-2.55049 1.44111 1.47446
-3.08454 0.832404 0.635901
-2.44631 1.30364 1.62362
-3.06764 0.764171 0.68064
-2.63602 0.330913 1.58302
-2.89324 1.83437 0.93541
-2.16017 0.415485 2.18454
-2.02352 0.769609 2.20443
-2.99043 1.39024 0.87467
-2.65715 -0.44887 1.64364
-2.65386 2.07678 1.12426
-2.51021 1.9348 1.32783
-2.41725 0.871613 1.77316
-2.15 0.85929 2.05337
-2.91838 1.49323 0.986661
-2.39273 0.625968 1.86108
-2.93062 0.275993 1.00881
-2.70862 1.29152 1.32974
-2.95919 2.01712 0.762678
-2.57083 1.15506 1.52915
-2.17486 -0.316616 2.40876
-2.07238 0.304654 2.31812
-2.38388 2.18353 1.3005
-2.50284 -0.207653 1.8823
-2.71006 0.978496 1.38634
-1.90344 0.00876529 2.62336
-2.00197 0.724731 2.2411
-3.03333 0.937487 0.79681
-2.21576 -0.130999 2.28736
-2.02804 1.07059 2.08733
-3.00475 0.579689 0.842405
-2.8094 -1.04339 1.37519
-2.96778 1.14282 0.942955
-2.94583 1.1101 0.988217
-2.97154 1.67785 0.855719
-2.59495 0.799033 1.57297
-3.05276 0.85204 0.737357
-2.70827 1.85913 1.16227
-3.12811 1.16994 0.529559
-3.08945 0.488685 0.531292
-2.59358 0.814085 1.57209
-2.13915 1.12299 1.9717
-3.15372 0.786607 0.302041
-2.09781 0.762123 2.13647
-2.29647 0.781095 1.92916
-3.15521 1.27695 0.433499
-2.84521 1.40835 1.11741
-2.49575 0.109546 1.83183
-3.03047 0.292181 0.712544
-3.19557 1.338 0.213511
-2.1016 0.649113 2.17099
-2.94671 1.47392 0.942411
-2.61104 1.09387 1.49492
-2.55743 0.204214 1.72264
-2.11465 0.251934 2.28834
-2.79069 -0.959282 1.41107
-2.94247 0.634517 1.00172
-3.00564 0.664189 0.848875
-2.8129 0.622286 1.26134
-2.62372 1.16761 1.46324
-2.20812 0.925568 1.97555
-2.87776 1.87058 0.945175
-2.80292 -0.658367 1.33013
-2.92102 1.06139 1.03862
-2.52195 1.23175 1.56484
-2.1684 0.320982 2.20459
-3.05913 0.789627 0.711081
-3.19323 1.08808 0.114134
-2.39989 1.18896 1.70503
-3.05365 0.678642 0.711639
-2.42205 2.10613 1.31547
-2.78672 1.84224 1.07623
-2.89977 -0.155724 1.05805
-3.15416 1.18411 0.427326
-3.08214 1.74367 0.612687
-2.32427 1.64737 1.61259
-3.02815 0.318455 0.726708
-2.80477 1.74833 1.08556
-3.1805 1.2356 0.299276
-1.97602 0.287272 2.4295
-2.55057 -0.434967 1.84702
-1.89738 0.00422906 2.63237
-2.84977 -0.656456 1.19698
-2.87861 1.40188 1.06772
-3.01556 1.00728 0.842871
-2.83305 0.0915468 1.2328
-2.96237 0.35867 0.933324
-2.31629 1.67778 1.60643
-2.07771 1.16352 2.00934
-2.77832 -0.767848 1.41006
-2.44563 -0.151865 1.9616
-3.13179 1.70257 0.485401
-2.35301 1.72388 1.55641
-2.47415 0.373047 1.81244
-2.76412 -0.0961206 1.38631
-2.18894 1.80858 1.64476
-2.63667 1.29457 1.41799
-2.63501 0.294221 1.58914
-3.00413 0.426205 0.823921
-2.11578 -0.317422 2.49152
-2.54987 -0.140916 1.79143
-2.64826 2.11308 1.11154
-3.04975 0.251942 0.62738
-2.72243 -0.972382 1.60001
-2.52605 -0.21408 1.84499
-3.01305 0.779232 0.839166
-2.50853 -0.392177 1.91267
-2.2711 1.63426 1.66174
-2.53766 -0.53191 1.89306
-2.43675 -0.54159 2.07684
-3.09945 1.6786 0.58419
-2.88253 1.5321 1.03525
-2.49471 1.77004 1.41326
-2.62934 1.53957 1.35938
-2.11431 -0.199455 2.44725
-2.53528 -0.250585 1.83646
-2.35448 -0.0865149 2.0815
-2.56071 -0.377531 1.8166
-3.09274 0.53032 0.530443
-2.5985 1.38443 1.43869
-2.44996 0.0458541 1.91211
-3.16733 1.33039 0.38369
-3.00457 0.0982535 0.762289
-2.06107 0.146126 2.38657
-2.64169 -0.709889 1.72592
-2.16942 -0.088126 2.33468
-2.63995 2.00903 1.17078
-2.80973 1.60043 1.1227
-2.78633 0.081775 1.33283
-2.82663 -0.970725 1.30616
-2.15961 0.903256 2.02952
-2.30881 -0.231044 2.18797
-2.08885 0.376901 2.27543
-3.18973 1.0834 0.160846
-2.63182 0.869204 1.51164
-2.99553 1.72333 0.800728
-2.96075 1.072 0.961064
-1.96698 0.190401 2.47663
-3.1487 1.1001 0.437572
-2.43562 1.73647 1.48028
-2.79734 -0.115932 1.31477
-2.7491 -0.901998 1.51285
-3.02306 0.110276 0.695722
-2.52293 0.217151 1.77221
-2.95704 1.95046 0.793869
-2.59127 0.22498 1.66734
-2.73542 -1.01277 1.57719
-2.3704 -0.118262 2.06669
-2.51127 1.65231 1.44328
-2.98704 0.0588262 0.815754
-2.58948 0.250765 1.66644
-2.49286 1.15475 1.61712
-2.92629 1.50998 0.970299
-2.32518 -0.468688 2.23842
-2.26401 1.12932 1.85599
-2.62251 2.06509 1.16113
-2.79444 -0.219154 1.32455
-2.15416 0.117515 2.28579
-2.99906 0.332008 0.824649
-2.97626 -0.164326 0.8126
-2.24865 0.953084 1.92721
-2.85629 -0.320777 1.1717
-3.00203 0.811323 0.869055
-2.924 -0.0485914 0.997607
-2.53332 1.83354 1.35121
-2.87878 -0.476868 1.10571
-2.17899 0.821296 2.03755
-2.22204 -0.322112 2.34351
-2.94777 2.00297 0.787604
-2.74349 0.347277 1.40168
-2.52806 1.66298 1.42308
-3.035 0.637313 0.76282
-2.89746 0.105866 1.08106
-3.16786 0.953686 0.286088
-2.84759 -0.787789 1.21412
-3.07709 0.54771 0.601394
-2.76742 0.212358 1.36527
-3.05335 0.511893 0.680859
-2.35309 0.736512 1.87935
-3.03784 0.197072 0.660275
-2.90014 1.16359 1.06693
-2.79339 -0.231827 1.32739
-2.69553 0.89267 1.42007
-2.58555 1.74325 1.33638
-2.66158 -0.60561 1.66123
-2.93253 -0.311593 0.944751
-2.72715 1.13271 1.3367
-2.96778 -0.00159717 0.869557
-2.87004 -0.681576 1.13591
-2.80783 0.932006 1.2455
-2.66094 0.77205 1.48712
-2.79562 -0.400198 1.3296
-2.13002 -0.211113 2.43073
-2.9266 0.669976 1.03775
-2.65645 -0.0523065 1.59293
-2.55493 1.34535 1.49767
-2.07735 0.357547 2.29453
-2.91987 1.10688 1.03722
-2.32211 0.440575 1.9908
-3.15077 0.76639 0.312004
-2.59482 -0.325957 1.74449
-3.1483 1.27338 0.461642
-2.48577 1.35595 1.56759
-3.00275 0.470419 0.834322
-2.73599 1.1856 1.31496
-3.13995 1.01082 0.458226
-2.87771 -0.620797 1.10958
-3.20212 1.20524 0.0544331
-2.51283 -0.0814005 1.84123
-2.67055 -0.197559 1.58318
-3.08786 1.87495 0.558225
-2.90316 0.663095 1.08716
-2.75858 1.45403 1.22776
-3.01045 0.926451 0.853379
-2.46601 1.33853 1.59304
-2.314 1.9963 1.45755
-2.27709 0.163706 2.11924
-2.93704 1.99021 0.81021
-2.81135 0.101069 1.27995
-2.76176 0.860885 1.32614
-2.93276 -0.0293336 0.974089
-2.96341 1.13301 0.952289
-2.92226 0.875035 1.04551
-1.96737 0.0159748 2.54571
-2.558 0.754247 1.62948
-2.41162 0.71481 1.81775
-2.63294 0.00461536 1.62792
-2.4493 -0.331928 1.99847
-2.25675 0.25389 2.11965
-2.70719 2.00168 1.10386
-2.00969 0.861378 2.18316
-2.86969 -0.374111 1.13387
-2.85775 0.203716 1.17894
-3.10394 1.53609 0.596734
-2.11314 0.067234 2.35247
-2.3806 -0.00950063 2.0248
-3.07667 1.59682 0.657829
-2.97332 0.62164 0.928148
-3.1829 1.43773 0.309663
-2.83832 0.376523 1.22085
-2.98908 0.988012 0.903548
-1.95029 0.0430832 2.55453
-2.90182 1.32173 1.04365
-2.88412 0.748653 1.12377
-3.16977 1.27112 0.365581
-2.37118 -0.172758 2.07971
-2.95612 1.48487 0.923941
-2.49075 2.01176 1.30811
-2.54586 1.37774 1.4982
-2.6833 0.122078 1.52667
-2.18149 1.4147 1.82481
-2.87907 -0.345256 1.10769
-3.17208 0.972014 0.26322
-2.86852 -0.134595 1.14353
-2.68645 -0.0773346 1.54001
-2.88127 -0.314355 1.10242
-2.5567 1.33618 1.4983
-2.79018 -1.13352 1.45835
-2.17998 0.840833 2.03028
-2.5849 0.110608 1.69387
-2.14852 0.240498 2.25291
-2.35936 1.74963 1.54001
-2.96143 0.281225 0.927399
-2.32928 0.349534 2.00505
-2.71152 -0.479029 1.53238
-2.87064 1.60947 1.03466
-2.72443 -0.985827 1.59851
-3.10568 0.561701 0.480861
-2.40016 1.87283 1.45099
-3.08448 1.45872 0.657524
-3.1719 1.05979 0.302649
-3.12428 1.3168 0.54979
-3.06286 1.76111 0.653374
-2.37006 0.00495306 2.03618
-2.78788 -0.0173916 1.33266
-2.03956 0.710263 2.21068
-2.60283 -0.698035 1.80558
-2.72053 1.46197 1.27423
-2.58498 1.01244 1.54428
-2.48493 0.0675408 1.85595
-2.51672 0.381441 1.75231
-2.17245 -0.19265 2.36688
-2.78657 0.156462 1.32992
-1.83854 -0.145629 2.77179
-2.27097 1.84292 1.56728
-2.22579 0.758593 2.00984
-2.9807 1.77592 0.812961
-2.51793 -0.54933 1.93399
-2.68633 0.197819 1.51418
-3.14425 0.932473 0.417858
-2.43427 1.37349 1.61369
-2.58637 1.79951 1.31386
-2.58048 1.72657 1.34772
-2.42787 0.950841 1.74131
-2.11007 1.24769 1.94959
-2.85599 2.03248 0.910393
-2.73699 -0.35066 1.46222
-3.10757 0.735395 0.528534
-2.73964 2.12966 1.00662
-2.90055 -0.454904 1.03873
-3.11547 0.954299 0.546756
-2.60857 0.189591 1.64484
-2.72613 -0.507868 1.50325
-2.05371 -0.223051 2.53648
-2.64027 1.91962 1.21033
-3.03145 1.29807 0.798111
-2.85622 -0.315389 1.17194
-3.03244 1.05678 0.802821
-2.56866 1.66233 1.38301
-3.02248 0.640249 0.799858
-2.66365 0.320874 1.53984
-2.13551 0.387203 2.2208
-2.57256 -0.621105 1.84785
-2.60382 0.48321 1.61146
-2.18944 1.93627 1.57892
-2.69159 0.624765 1.46154
-3.05448 1.22978 0.747398
-2.80249 -0.973612 1.37979
-2.40768 -0.531272 2.12352
-2.31274 -0.263952 2.19209
-2.57481 -0.393342 1.79388
-2.76279 0.159019 1.37677
-2.54563 1.94437 1.29126
-2.34603 -0.432699 2.19351
-2.96595 0.105194 0.891365
-2.71425 -0.559458 1.53713
-2.56067 -0.284603 1.79877
-2.07728 -0.128016 2.46813
-2.45198 0.388416 1.83909
-2.24891 0.948235 1.92847
-2.97509 -0.00275625 0.845198
-2.62301 0.418018 1.59197
-2.82824 0.603466 1.23438
-2.78528 0.190497 1.33134
