ply
format ascii 1.0
comment Created by Open3D
element vertex 200
property double x
property double y
property double z
end_header
1.42581 0.0346375 2.74224
-1.04271 -2.77217 1.09434
-1.83035 -1.70676 2.4359
1.92176 -2.353 0.872062
0.907157 -3.05875 0.147368
0.0282961 -3.00402 0.731806
2.19548 -1.8204 1.31444
2.89643 -1.66826 0.86244
1.16568 -2.00214 2.24116
-0.396066 -2.6815 2.28282
-1.00099 -1.93655 3.31528
1.42442 0.110305 2.73962
1.66043 -2.71281 0.45236
2.42604 -2.23395 0.596115
-1.20585 -2.20954 2.86172
-0.56702 -1.57025 3.56017
1.34324 -2.95657 0.15168
1.00515 -2.67022 1.20411
1.15113 -2.41062 1.6303
2.38661 -2.36202 0.453168
0.533418 -3.2403 -0.276582
0.202827 -0.811949 3.40413
1.61869 -0.437538 2.60269
0.577542 -2.70294 1.5799
-1.45073 -1.85842 2.94287
1.65484 -2.16604 1.4543
-0.731469 -2.98824 0.333589
0.285003 -1.5775 3.31304
1.23308 -1.51354 2.58518
0.565091 -1.22128 3.22623
-1.13086 -2.35426 2.69118
-0.468417 -3.04152 0.338793
0.985541 -2.52989 1.57474
2.12034 -1.27578 1.86513
1.69159 -2.01625 1.62068
-1.29167 -2.5497 1.72273
-0.976669 -2.24085 3.04241
0.0763941 -1.28535 3.46538
-1.48909 -2.20841 2.38997
-1.92502 -1.92411 1.89405
1.18094 -2.83197 0.592694
0.993894 -1.21691 2.92389
1.33214 -1.28249 2.61186
0.227571 -0.925221 3.40538
0.513429 -3.01782 0.499636
2.76892 -1.92482 0.699862
-1.23047 -2.30955 2.64567
2.28637 -1.92275 1.10982
1.38712 0.175892 2.75511
-1.61611 -1.92384 2.6133
0.727956 -0.454072 3.14482
0.551263 -1.47156 3.17713
0.100132 -2.76004 1.81647
-1.15376 -2.70782 1.21736
-0.255899 -3.16019 -0.0878542
-2.09008 -1.58745 1.9829
0.370909 -2.81738 1.38771
-0.171661 -2.20372 3.1655
-0.732399 -2.88343 0.985509
-0.875396 -2.8154 1.18258
-0.580225 -2.51886 2.73321
0.917235 -0.207152 3.02681
1.94356 -1.17829 2.09277
-0.280367 -2.32889 3.05246
1.72713 -1.71041 1.92076
1.79333 -2.02199 1.49896
2.37873 -2.13584 0.763224
-1.24775 -2.59506 1.61358
-0.452238 -2.5341 2.71038
2.2035 -1.92671 1.18553
-1.15582 -2.69291 1.30478
-0.665227 -2.38538 2.98075
-1.46297 -2.37264 1.98983
-0.692933 -2.86234 1.18329
0.949043 -2.74853 1.04837
-0.211255 -2.51655 2.70101
1.42903 -2.48432 1.1565
2.76274 -2.1025 0.508661
-0.749149 -2.93507 0.624649
0.503427 -1.49465 3.20235
2.32082 -1.96621 1.02604
-1.75361 -2.01533 2.17074
-0.110241 -2.36576 2.93104
0.0778005 -1.51327 3.43468
-0.883221 -2.18628 3.16913
-0.970233 -2.15951 3.14709
-0.51491 -2.40739 2.96565
1.92701 -2.616 0.415884
-0.292576 -3.03529 0.499384
0.0524829 -1.77231 3.36518
1.10662 -2.9361 0.37045
1.28685 -0.717524 2.80377
3.07059 -1.99674 0.430157
-0.40226 -2.68562 2.26798
0.223872 -1.10566 3.41252
1.48611 -2.61187 0.827752
0.194696 -2.89852 1.17914
0.186831 -3.13271 0.135203
-1.92968 -1.87332 1.97699
0.872495 -3.02985 0.25416
0.72569 -0.452842 3.14578
0.796152 -2.82624 0.964998
2.23139 -1.14313 1.84642
-0.623328 -2.7341 1.99019
-0.567073 -2.70237 2.16283
0.732788 -0.427045 3.13975
-0.325333 -2.62851 2.44905
-0.0884212 -3.04649 0.512695
-0.333237 -2.22663 3.19261
1.50364 -2.26616 1.47167
1.90649 -2.68622 0.305925
0.673085 -2.18499 2.55252
2.31485 -1.94871 1.05239
0.987927 -1.87288 2.56608
-0.192133 -2.71621 2.12803
0.109671 -3.03737 0.560344
-1.51369 -2.26814 2.18477
1.57909 -2.75609 0.42999
-0.0207795 -2.30162 2.975
-0.992665 -2.5244 2.42378
1.24569 -1.70837 2.43798
0.71948 -0.79496 3.16642
-1.43529 -2.0492 2.76564
-1.02611 -1.75997 3.38724
-0.818784 -2.93157 0.53204
1.94909 -1.7894 1.6026
0.901822 -2.83077 0.850978
-1.55524 -2.38188 1.6846
2.1444 -1.25382 1.85692
-1.05572 -2.61362 1.97679
-1.50662 -2.4112 1.71587
1.07161 -0.27004 2.95262
0.344515 -1.13597 3.35696
1.32577 -2.39504 1.45203
2.56389 -2.07188 0.690076
0.493668 -2.76147 1.4762
0.663964 -1.68961 2.99879
0.894691 -1.99466 2.54477
-0.300402 -1.23718 3.56247
0.407661 -2.477 2.33951
1.24525 -2.73316 0.788051
0.295187 -1.84675 3.18678
0.819417 -1.45953 2.98047
0.201388 -2.52812 2.41772
-0.268127 -2.60444 2.50517
-0.423851 -2.95214 0.898649
1.3433 -0.521479 2.7849
2.01378 -0.954531 2.14197
3.15196 -1.71086 0.654897
-0.62959 -2.62309 2.42514
0.546865 -2.0815 2.79741
-1.01151 -2.80241 0.970881
-0.1717 -1.37287 3.53705
-0.838729 -2.06909 3.3013
-1.39866 -2.39647 2.07436
-1.30155 -2.55454 1.67111
-1.33269 -1.99688 2.97125
-0.8314 -2.581 2.42228
1.58898 -2.03739 1.71036
-0.118163 -2.89417 1.31673
1.42461 -1.16729 2.57748
-0.1191 -1.73184 3.45235
0.645147 -2.91964 0.778378
-0.798286 -2.77439 1.57964
0.0990659 -2.97356 0.868509
-0.646207 -2.25182 3.17603
1.9494 -1.52328 1.85097
-0.703349 -1.57135 3.54568
-0.0425277 -2.4982 2.65757
0.805581 -0.590195 3.11471
1.15827 -2.60463 1.19763
-0.0149044 -1.4462 3.48295
-0.885612 -2.55516 2.45235
1.12217 -2.80578 0.71646
1.13109 -2.85577 0.571911
0.07526 -1.58973 3.41765
-1.20958 -2.27417 2.74656
-1.94389 -1.77268 2.10116
-0.00059511 -3.40125 -0.798905
-0.0109405 -2.46032 2.71395
-0.944092 -1.60905 3.46915
0.485222 -3.25 -0.300623
-0.642122 -2.24027 3.19036
0.377287 -3.15153 0.0423801
0.904124 -1.01217 3.03454
2.49727 -1.37618 1.44228
-0.387013 -2.75124 2.01118
1.08601 -1.52571 2.71743
-1.48741 -2.37146 1.92673
-0.802054 -2.86992 0.958169
-1.18413 -2.58196 1.84547
-1.15338 -2.60463 1.80829
-1.0916 -2.38546 2.67246
0.112895 -2.99812 0.746369
1.45838 -2.36318 1.35595
0.546199 -1.96508 2.90823
-1.12724 -2.7324 1.13358
1.70801 -1.01636 2.38604
-0.0702613 -1.25831 3.51498
-0.999054 -2.35686 2.83449
