ply
format ascii 1.0
comment Created by Open3D
element vertex 200
property double x
property double y
property double z
end_header
1.13495 0.686119 -2.79197
2.79396 -1.44543 0.272589
3.47936 0.297066 0.0507793
0.976435 -2.27079 -1.96986
1.37536 -2.79668 -0.698249
2.16246 -2.18166 -0.353034
0.842944 -1.74002 -2.47457
0.114908 -2.06252 -2.76568
2.0657 -1.11906 -2.20697
3.22956 -1.0959 -0.963104
3.79848 0.182639 -1.13202
1.09145 0.748098 -2.79209
1.02232 -2.65341 -1.49508
0.480392 -2.47377 -2.20936
3.74563 -0.163186 -0.685011
3.54798 0.432981 -1.63902
1.11016 -2.86872 -1.05196
1.82062 -2.05792 -1.42848
1.89105 -1.71352 -1.81159
0.475149 -2.62666 -2.08694
1.37278 -2.99282 -0.137984
2.64578 0.713743 -2.18607
1.21261 0.165641 -2.84389
2.29833 -1.76859 -1.3135
3.72172 0.251007 -0.55194
1.3921 -1.76961 -2.11559
2.25317 -2.0633 0.491851
2.974 0.0115562 -2.1682
1.99048 -0.591906 -2.48638
2.58054 0.167279 -2.35207
3.67586 -0.383244 -0.636443
2.15938 -2.2007 0.281172
2.00061 -1.77585 -1.64175
0.944179 -1.02615 -2.76726
1.40222 -1.58773 -2.25083
3.21206 -0.901607 0.0833844
3.77387 -0.194888 -0.975434
3.01349 0.394307 -2.10481
3.56476 -0.261565 -0.174727
3.2827 -0.0805945 0.46126
1.41526 -2.51765 -1.19348
2.16753 -0.114462 -2.51128
1.831 -0.425322 -2.58993
2.69817 0.611587 -2.20233
1.77958 -2.46881 -0.598787
0.211083 -2.29813 -2.5565
3.66834 -0.329583 -0.531293
0.718815 -1.94541 -2.41967
1.08313 0.822545 -2.77415
3.61677 0.115708 -0.218888
2.01695 0.707892 -2.46105
2.69453 -0.0557852 -2.30216
2.72018 -1.541 -1.07393
2.89427 -1.29912 0.284406
1.83633 -2.55894 0.373806
3.23348 0.295943 0.52664
2.33317 -1.87058 -1.02869
3.44665 -0.403834 -1.69226
2.63315 -1.69683 0.0952447
2.79663 -1.50414 0.0876778
3.53021 -0.701412 -1.09428
1.70768 0.792817 -2.54972
1.12802 -0.78372 -2.76746
3.49338 -0.516346 -1.53282
1.41532 -1.21902 -2.47157
1.27442 -1.68161 -2.25819
0.560611 -2.30379 -2.27616
3.14288 -1.00187 0.11595
3.46153 -0.770294 -1.18188
0.811996 -1.88613 -2.39922
2.94568 -1.24857 0.23273
3.66289 -0.454006 -1.18093
3.37518 -0.578425 0.0520458
2.73523 -1.60895 -0.0563423
1.78694 -2.16908 -1.28689
3.32889 -0.847329 -1.3688
1.47949 -2.07852 -1.74423
0.185132 -2.52482 -2.42961
2.42759 -1.88814 0.328295
2.74756 -0.046696 -2.27843
0.670202 -2.02978 -2.39494
3.43699 -0.0997258 0.161121
3.35017 -0.660689 -1.59367
3.11995 0.192093 -2.07897
3.7833 -0.129375 -1.12837
3.79553 -0.085073 -1.04675
3.5924 -0.533295 -1.29072
0.81465 -2.68579 -1.68897
2.17884 -2.19059 0.0439649
3.23068 -0.0427855 -2.00727
1.36015 -2.67206 -0.996298
1.66518 0.140754 -2.6906
-0.0757565 -2.5828 -2.63133
3.22488 -1.10341 -0.949062
2.80591 0.466724 -2.19702
1.30238 -2.34568 -1.58656
2.32362 -1.96309 -0.759463
1.75686 -2.60142 -0.114456
3.31223 -0.0013333 0.413035
1.44771 -2.71441 -0.736166
2.01801 0.710146 -2.45987
1.84837 -2.21356 -1.11193
0.803535 -0.964777 -2.84932
3.17217 -1.18229 -0.603535
3.24326 -1.10248 -0.753711
1.99606 0.726322 -2.46284
3.27741 -1.00651 -1.12173
2.09538 -2.26831 -0.126256
3.55583 -0.352474 -1.57908
1.533 -1.79006 -2.00195
0.790011 -2.78356 -1.60367
2.61567 -0.957936 -1.9958
0.680989 -2.00184 -2.40674
2.29761 -0.808305 -2.26629
3.04636 -1.26504 -1.03082
2.02654 -2.3123 -0.313125
3.47217 -0.389995 -0.0290753
1.07087 -2.66925 -1.4152
3.30052 -0.621286 -1.69383
3.52466 -0.688799 -0.578828
1.99465 -0.820755 -2.40037
2.22669 0.438234 -2.45472
3.70206 0.0116196 -0.450213
3.76001 0.368677 -1.16198
2.39703 -1.89964 0.439522
1.1384 -1.50136 -2.4534
1.72317 -2.30456 -1.1271
3.21976 -0.683383 0.3101
0.914705 -1.02025 -2.78228
3.30464 -0.931298 -0.255524
3.23371 -0.711891 0.25359
1.61844 0.652917 -2.62557
2.72724 0.374015 -2.25845
1.67804 -1.84049 -1.84366
0.386061 -2.3495 -2.38186
2.30197 -1.83099 -1.18194
2.64239 -0.35354 -2.27622
2.39662 -0.884305 -2.17466
3.23391 0.612643 -1.86509
2.76449 -1.19439 -1.64503
1.46012 -2.37554 -1.36626
3.03514 -0.268998 -2.09014
2.42593 -0.227531 -2.39749
2.94544 -1.12822 -1.52605
3.27399 -0.983316 -1.20206
2.46412 -1.90298 -0.0955344
1.5153 0.274335 -2.73142
1.00171 -0.603033 -2.86137
-0.124274 -2.27954 -2.84237
3.40538 -0.901749 -0.86517
2.78331 -0.721507 -2.0469
2.71282 -1.53468 0.323378
3.23067 0.442745 -1.94723
3.78495 0.00805945 -1.24791
3.41429 -0.585261 -0.0493047
3.18485 -0.924146 0.122579
3.76136 0.105756 -0.657957
3.47742 -0.79485 -0.704267
1.52397 -1.5295 -2.22245
2.56492 -1.78686 -0.593483
1.6986 -0.378344 -2.64709
3.34955 0.0903808 -1.92472
1.84827 -2.31597 -0.875565
3.00331 -1.32803 -0.214906
2.20308 -2.12357 -0.493035
3.7101 -0.266737 -1.31888
1.15604 -1.17487 -2.6134
3.60476 0.475377 -1.52166
3.20783 -0.912062 -1.47765
2.0355 0.554185 -2.49967
1.70548 -2.06207 -1.54895
3.15961 0.301948 -2.03675
3.50936 -0.740893 -0.680193
1.5122 -2.42159 -1.22234
1.43873 -2.52814 -1.14035
3.15259 0.122462 -2.06384
3.70624 -0.264653 -0.610136
3.34616 0.140306 0.345684
1.37001 -3.15587 0.608545
3.20924 -0.868036 -1.53824
3.69082 0.498844 -1.28233
1.38536 -2.99365 -0.0847285
3.71129 -0.252514 -1.33121
1.61294 -2.72596 -0.209428
2.17054 0.134948 -2.51415
0.533957 -1.42737 -2.80854
3.08165 -1.27331 -0.803784
2.15732 -0.491862 -2.44861
3.34391 -0.595617 0.109554
2.64087 -1.67207 0.166724
3.26068 -0.914744 -0.0751574
3.23352 -0.960606 -0.0763736
3.66178 -0.431336 -0.655259
2.12804 -2.20126 -0.429422
1.53147 -1.90348 -1.89247
2.79287 -0.57746 -2.11757
2.8389 -1.365 0.314767
1.34828 -0.438493 -2.76285
3.10257 0.491205 -2.01894
3.70994 -0.371848 -0.827823
