ply
format ascii 1.0
comment Created by Open3D
element vertex 250
property double x
property double y
property double z
end_header
2.73704 0.347858 -1.95589
1.25476 1.3404 -3.33187
-0.287279 -1.04503 -2.89722
1.027 -0.736349 -3.09989
2.59227 0.584301 -2.44968
1.55277 -1.3426 -2.40568
1.22756 -2.87919 -1.33511
0.919858 -1.51328 -2.56388
2.76366 0.248127 -1.83697
1.67578 -0.462979 -3.08274
1.3023 0.49283 -3.57298
1.17261 -1.1955 -2.73029
2.01637 0.180058 -3.25595
1.94056 -1.16867 -2.2418
2.25515 0.261583 -3.05069
2.32835 0.735125 -3.01083
1.70608 -1.51913 -2.11636
0.447462 -2.42504 -2.04756
1.56279 -1.88453 -1.88656
-0.0580391 -0.823389 -3.02065
1.40067 0.788356 -3.56144
0.591155 -2.19339 -2.15806
1.89621 -0.795989 -2.65037
0.929896 -1.93849 -2.22214
0.271371 -0.999753 -2.9749
2.40021 -0.0474222 -2.66118
1.83876 -1.4317 -2.07953
1.86637 1.1668 -3.29613
0.285549 -1.28153 -2.82025
1.4872 -0.367016 -3.22792
2.76971 0.380237 -1.81982
1.53876 1.36986 -3.27708
2.61503 0.803349 -2.27545
0.817396 0.935896 -3.46496
1.21896 1.35001 -3.32452
1.16459 -2.86475 -1.38739
-0.163651 -1.08011 -2.89867
1.01158 1.16022 -3.4176
2.31013 -0.39351 -2.53198
0.318451 -1.33479 -2.78785
0.32927 -1.25393 -2.83527
1.35788 -1.53512 -2.3525
1.63498 0.562111 -3.5373
2.24085 0.718339 -3.139
0.133828 -0.594317 -3.14114
1.85366 0.918279 -3.42198
-0.545509 -1.7484 -2.57281
1.96153 0.902073 -3.36366
1.26507 -2.20332 -1.82158
2.33238 0.0940931 -2.86155
0.924751 0.724508 -3.53183
0.474029 -0.870655 -3.05073
-0.393623 -1.97327 -2.46532
2.3984 1.00352 -2.74688
1.0964 -0.962252 -2.93198
-0.461831 -2.23797 -2.34239
0.7703 -1.13894 -2.87188
2.73646 0.234916 -1.94026
0.988681 -0.179392 -3.3964
1.43658 -1.3604 -2.46376
1.31109 -1.38858 -2.508
0.735239 -2.06705 -2.19957
0.277688 -0.923998 -3.01381
2.50413 0.527097 -2.68761
2.19526 1.15541 -2.98488
1.01944 0.919632 -3.50963
1.43972 -0.169452 -3.3541
0.533544 -2.5534 -1.93106
2.63161 0.110408 -2.23711
1.74336 -1.00483 -2.58322
1.53111 -0.112827 -3.35868
-0.0987871 -1.15995 -2.8694
2.69311 0.375306 -2.12429
0.536414 -1.55901 -2.62134
0.239951 -1.48081 -2.70444
1.15713 -2.79796 -1.43715
-0.465437 -2.06151 -2.42667
2.00272 0.317889 -3.31866
1.82507 0.0593305 -3.32478
1.42191 -1.13734 -2.66953
1.93271 -1.26627 -2.15054
0.868563 0.48348 -3.53313
2.3745 0.34089 -2.90649
1.4485 -1.86456 -1.99281
1.14996 -1.28772 -2.66429
2.23022 1.00929 -3.0465
0.989402 -2.30089 -1.90556
2.70397 0.235998 -2.05897
0.304084 -1.43648 -2.72728
1.67192 -0.345571 -3.16675
-0.308575 -1.10454 -2.87015
0.455113 -2.29076 -2.13494
2.36949 0.073297 -2.79093
1.85329 -0.0343213 -3.2605
1.39094 0.395589 -3.55702
0.196988 -1.50578 -2.69197
2.56495 -0.271898 -2.14348
2.6311 0.586448 -2.32525
0.703765 0.145309 -3.46494
2.15806 -1.06954 -2.08089
1.87061 0.235579 -3.37474
2.43123 0.56101 -2.84437
2.31767 0.268282 -2.96821
2.63909 -0.10351 -2.08302
1.52435 0.672894 -3.56039
1.99761 -1.01038 -2.34054
1.75859 -1.25044 -2.33492
-0.496136 -2.25073 -2.3398
0.565481 -2.48861 -1.96184
0.926226 -1.54417 -2.53768
0.187653 -0.914998 -3.01114
0.68302 0.0571404 -3.44267
0.662277 -1.51189 -2.63096
2.71337 -0.0209239 -1.91035
-0.129457 -2.34449 -2.24231
1.51426 -0.17079 -3.33343
0.231901 -2.21371 -2.2462
2.62362 0.618674 -2.3418
2.2225 0.457688 -3.15053
1.5875 0.713242 -3.54739
1.21031 -2.77465 -1.41742
1.16338 0.584477 -3.57236
1.24952 -1.20126 -2.69569
1.8319 0.589921 -3.47048
1.05259 -2.61052 -1.63547
0.0752472 -2.46007 -2.13394
0.100447 -0.628929 -3.12239
0.412159 -0.63233 -3.16382
1.49263 -1.32726 -2.45954
-0.230736 -1.80994 -2.54079
0.613159 -1.70752 -2.50182
0.322199 -2.55551 -2.0058
1.7086 0.327299 -3.47633
-0.742027 -1.8985 -2.50636
0.0700836 -0.787345 -3.05453
0.494084 -1.54977 -2.63435
-0.056841 -2.21606 -2.30137
0.801692 -1.4559 -2.64052
1.22248 0.976972 -3.51554
0.967774 -2.62508 -1.67452
1.13947 1.14859 -3.43973
2.18495 1.15687 -2.9984
-0.450764 -1.55204 -2.66384
2.08808 0.178997 -3.19512
2.29795 0.153654 -2.94394
1.06298 1.19078 -3.40969
2.21798 -0.684781 -2.39274
1.10158 -2.10715 -2.00072
1.09769 0.806266 -3.54612
2.38478 -0.175418 -2.59344
-0.41117 -1.91491 -2.49449
2.43889 -0.226935 -2.4534
-0.152727 -1.8362 -2.5232
2.1832 0.998815 -3.11574
2.70996 0.224153 -2.03426
2.17363 0.728717 -3.21717
0.488641 -2.30811 -2.11235
2.10853 -1.24221 -1.96565
2.12478 -0.742298 -2.45941
-0.0195321 -2.10002 -2.36205
0.803434 0.480342 -3.52066
0.644124 -0.473122 -3.25524
1.07846 1.15133 -3.4315
2.12089 0.29872 -3.2132
0.293917 -1.22964 -2.84998
0.863279 -2.59514 -1.75256
1.0726 -2.64618 -1.59752
1.55073 0.447721 -3.54348
2.5716 -0.0345026 -2.3102
0.0764885 -1.28454 -2.81776
1.39287 0.525863 -3.57177
1.12902 -2.26526 -1.85558
0.665306 -1.19196 -2.85033
1.06809 1.10269 -3.45244
1.34336 1.47152 -3.22113
1.78774 0.669861 -3.49072
1.75845 0.923571 -3.46224
1.86078 -0.17417 -3.17279
-0.439084 -1.51962 -2.67896
1.8199 -0.772268 -2.73636
-0.252875 -1.68256 -2.60657
2.01308 -1.49878 -1.81869
2.58826 0.092404 -2.34638
1.13983 -0.221379 -3.3738
1.32252 -0.0218595 -3.4432
1.01272 1.27777 -3.35375
0.56734 -1.25783 -2.81806
1.30777 -1.40439 -2.4959
1.93164 0.389869 -3.38682
1.77485 -0.520213 -2.98107
1.5226 0.401451 -3.54111
0.967917 0.919308 -3.50097
1.66566 -0.664621 -2.93359
2.13876 1.00856 -3.16314
0.509066 -1.75597 -2.49061
0.972702 1.27007 -3.35208
-0.792299 -1.91038 -2.50134
1.76348 0.941901 -3.45466
1.39194 -0.774395 -2.97859
0.974596 -0.616119 -3.17952
-1.3986 -1.77533 -2.52753
-1.63165 -1.7839 -2.51588
-1.45145 -1.44795 -2.60446
-2.22124 -1.51486 -2.53593
-0.723953 -1.44284 -2.68741
-1.12453 -1.88434 -2.50538
-1.38363 -0.980285 -2.71197
-1.14697 -1.76253 -2.54361
-1.92834 -1.30534 -2.57821
-1.07482 -1.37604 -2.66881
-1.04392 -0.867937 -2.80653
-1.38022 -1.55387 -2.58611
-1.98354 -1.13848 -2.59113
-2.09068 -1.31521 -2.56233
-1.9838 -1.03134 -2.60126
-1.86806 -1.58881 -2.54186
-1.27465 -1.17847 -2.69109
-1.49522 -1.65163 -2.55298
-0.980435 -1.08972 -2.76498
-0.409863 -1.01573 -2.88974
-1.85149 -1.51841 -2.55416
-0.446181 -0.986265 -2.89435
-1.0795 -1.0019 -2.76834
-1.91049 -1.66166 -2.52832
-1.87111 -0.788034 -2.6396
-1.93086 -1.38775 -2.56716
-1.16301 -0.97576 -2.75738
-0.69198 -1.34513 -2.7273
-1.81781 -0.832435 -2.64626
-2.01218 -1.64413 -2.52743
-1.8557 -1.09294 -2.61325
-0.409335 -1.09044 -2.86161
-1.94099 -1.36179 -2.56971
-1.75577 -1.58617 -2.5491
-0.650722 -1.27581 -2.75798
-1.48422 -1.15519 -2.66144
-1.24507 -1.92503 -2.4901
-1.85166 -1.25985 -2.59258
-0.838973 -1.6889 -2.58579
-0.876289 -1.21083 -2.7474
-1.59407 -1.00071 -2.66848
-1.2939 -1.64207 -2.56997
-1.66298 -1.04626 -2.64971
-2.10587 -1.20487 -2.57137
-1.0266 -1.81446 -2.53181
-1.29656 -1.45869 -2.61904
-1.55944 -1.93621 -2.48288
-2.16395 -1.26261 -2.5613
-1.38438 -1.38405 -2.62716
-0.794074 -1.33485 -2.71832
