ply
format ascii 1.0
comment Created by Open3D
element vertex 250
property double x
property double y
property double z
end_header
1.58556 -1.6938 2.46068
2.84923 -2.41015 0.738586
0.316328 -3.04216 -0.462287
0.876675 -3.1354 0.779084
1.99147 -2.02063 2.23905
0.112475 -2.81289 1.44082
-1.76874 -2.54267 1.40909
-0.0635426 -3.00578 0.819089
1.44875 -1.63415 2.51089
1.20831 -3.02223 1.38994
2.21404 -3.01081 0.859121
0.329062 -3.02011 1.01458
1.90463 -2.89877 1.63368
0.251966 -2.60366 1.82063
1.9217 -2.68859 1.88133
2.3336 -2.44147 1.9027
-0.14862 -2.64136 1.64275
-1.16917 -2.94016 0.511931
-0.594926 -2.59653 1.56748
0.601389 -3.06083 -0.274395
2.48493 -2.87057 0.923131
-0.893859 -2.93936 0.615495
0.755652 -2.79689 1.69118
-0.589212 -2.89449 0.913832
0.474813 -3.11319 0.0762408
1.49789 -2.48752 2.10087
-0.0676994 -2.57425 1.76745
2.77199 -2.48147 1.36662
0.159397 -3.10369 0.139023
1.32906 -3.10049 1.17747
1.55883 -1.55926 2.50328
2.89373 -2.35938 1.02137
2.11133 -1.76713 2.2541
2.48484 -2.69445 0.339804
2.84907 -2.39782 0.702865
-1.7423 -2.58017 1.3398
0.304567 -3.0643 -0.336238
2.69135 -2.5584 0.510442
1.12123 -2.52566 2.06552
0.102927 -3.10029 0.18107
0.197027 -3.10631 0.177446
-0.110563 -2.84495 1.2762
2.30953 -2.96096 1.18339
2.36236 -2.55971 1.80495
0.88609 -3.07203 -0.123979
2.60616 -2.70563 1.36993
-0.48788 -3.0616 -0.601995
2.58224 -2.66536 1.4844
-0.950263 -2.67118 1.31719
1.70151 -2.59913 1.99668
2.34378 -2.85408 0.463503
0.652991 -3.13033 0.253565
-0.711386 -3.07384 -0.414685
2.46445 -2.0876 1.96802
0.613085 -3.091 0.89129
-1.01005 -3.08156 -0.438555
0.381228 -3.10447 0.595937
1.47873 -1.73103 2.47486
1.4945 -3.14558 0.645773
0.104981 -2.86803 1.3221
0.0807927 -2.91518 1.19684
-0.742128 -2.92485 0.738834
0.559951 -3.11376 0.069644
2.03302 -2.25491 2.134
2.67355 -2.2226 1.72506
2.52065 -2.74969 0.536647
1.55242 -3.12145 1.09454
-1.32127 -2.89801 0.623951
1.48438 -2.04761 2.35502
0.518326 -2.82559 1.57143
1.61825 -3.10354 1.17775
0.230803 -3.077 -0.259853
1.6778 -1.82957 2.39665
-0.136208 -3.06232 0.439689
-0.0748846 -3.08903 0.129142
-1.66234 -2.59392 1.31952
-0.817298 -3.07653 -0.471362
2.05217 -2.89162 1.59767
1.79962 -3.00711 1.45162
0.391075 -2.94963 1.26037
0.124105 -2.56629 1.83367
2.12287 -2.96219 0.43589
1.94588 -2.52901 2.00494
-0.54741 -2.67752 1.44127
0.214913 -3.00221 1.00976
2.57695 -2.34508 1.7702
-1.04079 -2.77914 1.04753
1.52737 -1.83496 2.43034
-0.0159423 -3.09185 0.184975
1.34871 -3.0437 1.36378
0.248541 -3.04416 -0.473602
-1.01062 -2.95744 0.494826
1.65744 -2.54714 2.04306
1.69263 -2.99343 1.49705
2.13437 -3.0442 0.959643
-0.108942 -3.08751 0.0908981
1.09499 -2.13478 2.34332
1.94409 -1.9104 2.29004
1.76898 -3.04809 0.319481
0.301042 -2.42415 2.04062
1.98438 -2.97357 1.47094
2.12146 -2.37623 2.0418
1.9005 -2.6146 1.95085
1.22819 -2.00761 2.40323
2.40103 -2.9269 1.05884
0.444191 -2.62216 1.84835
0.193557 -2.71636 1.64074
-1.02763 -3.08367 -0.47069
-1.24556 -2.89735 0.644777
-0.101485 -2.99669 0.831683
0.553175 -3.1037 -0.0200634
1.67806 -3.06737 0.311547
-0.0713615 -3.05457 0.557542
1.23588 -1.81939 2.48488
-1.09852 -3.05401 -0.0874855
1.5533 -3.10663 1.17047
-0.926831 -3.01268 0.253856
1.97878 -1.91023 2.27719
2.13434 -2.68735 1.81594
2.44043 -2.89957 1.11787
-1.64248 -2.56792 1.37138
2.27387 -2.96317 0.711307
0.32022 -2.99499 1.09481
2.33415 -2.89673 1.38159
-1.42456 -2.68143 1.17391
-1.21787 -3.01806 0.139382
0.842171 -3.06968 -0.150987
0.904417 -3.12059 0.153029
0.140838 -2.8515 1.37405
-0.509098 -3.07357 -0.280588
-0.308858 -3.02624 0.545141
-1.32183 -2.95707 0.40769
2.08607 -3.016 1.28972
-0.679549 -3.06256 -0.771783
0.667531 -3.0798 -0.155534
-0.128642 -3.06802 0.395452
-0.947914 -3.05132 -0.0368044
0.00334339 -3.0433 0.687755
2.6045 -2.7371 0.729933
-1.4329 -2.7194 1.08778
2.71012 -2.58851 0.635831
2.67927 -2.23357 1.7133
-0.259754 -3.05749 -0.540663
1.88754 -2.84795 1.71094
1.78547 -2.64414 1.94721
2.7226 -2.53958 0.558478
0.788249 -2.52994 2.02277
-0.810516 -2.78059 1.12596
2.44839 -2.83668 0.62335
1.35244 -2.48457 2.10753
-0.64953 -3.07267 -0.441823
1.25303 -2.38537 2.18147
-0.52836 -3.07292 -0.198656
2.59129 -2.40961 1.7178
1.50686 -1.81856 2.4402
2.39605 -2.62194 1.72925
-1.03092 -2.94653 0.532303
0.0899332 -2.39778 2.0237
0.752917 -2.61164 1.93049
-0.81287 -3.05428 -0.0197251
2.10477 -2.9499 0.373211
1.12053 -3.13916 0.354186
2.69972 -2.57749 0.576104
2.0063 -2.81112 1.72755
0.219684 -3.107 0.138177
-1.3876 -2.77116 0.973002
-1.46989 -2.66459 1.20176
2.19849 -3.01492 1.11283
1.37965 -2.17596 2.30502
0.12418 -3.09448 -0.0668809
2.25633 -2.99839 0.944873
-1.01042 -2.72408 1.18648
0.309032 -3.10511 0.500619
2.66444 -2.61776 0.569345
2.9294 -2.25568 0.822322
2.40712 -2.87677 1.32658
2.61434 -2.73528 1.2711
1.5313 -2.97897 1.52978
-0.222645 -3.05674 -0.534461
0.80322 -2.85966 1.60414
-0.370702 -3.07355 -0.324081
-0.216288 -2.37933 1.97446
1.51034 -2.15134 2.30298
1.47013 -3.15052 0.802303
1.7047 -3.12924 0.952383
2.76715 -2.44833 0.504517
0.221776 -3.10229 0.414848
0.0609634 -2.91142 1.19665
2.13528 -2.91687 1.51204
1.1276 -2.96158 1.50499
2.15231 -3.03265 1.09066
2.50878 -2.74006 0.486689
0.962511 -2.98036 1.41884
2.61421 -2.44563 1.66785
-0.372305 -3.03404 0.449111
2.75358 -2.44873 0.466051
-0.699833 -3.06146 -0.819542
2.62794 -2.72043 1.27472
0.844234 -3.05922 1.15656
1.01033 -3.14974 0.705095
-0.660096 -2.99933 -1.43686
-0.707899 -2.98351 -1.66487
-0.344621 -2.91739 -1.5351
-0.549935 -2.85587 -2.28062
-0.193902 -3.01807 -0.825658
-0.72502 -3.03997 -1.15117
0.126545 -2.80396 -1.53361
-0.603799 -3.01792 -1.19145
-0.301961 -2.81031 -2.02003
-0.195894 -2.95719 -1.17808
0.318842 -2.85087 -1.2209
-0.435647 -2.95189 -1.45052
-0.157064 -2.74401 -2.09531
-0.342141 -2.79414 -2.1776
-0.0579152 -2.70447 -2.10907
-0.559532 -2.90879 -1.92377
-0.0414677 -2.87952 -1.40076
-0.554033 -2.96208 -1.54932
0.113964 -2.91689 -1.1281
0.320468 -3.01732 -0.586009
-0.489374 -2.88851 -1.91686
0.343089 -3.00661 -0.625787
0.178172 -2.87612 -1.23651
-0.636307 -2.92804 -1.9558
0.191065 -2.63289 -2.03001
-0.380069 -2.83771 -2.0118
0.183852 -2.85118 -1.32091
-0.0850641 -3.01061 -0.809566
0.162792 -2.66107 -1.97289
-0.636502 -2.91523 -2.0582
-0.0877789 -2.74819 -1.9766
0.242057 -3.02613 -0.573888
-0.35752 -2.82781 -2.02509
-0.537099 -2.91853 -1.8139
-0.0040042 -3.00817 -0.780047
-0.0655626 -2.83418 -1.60741
-0.785885 -3.03997 -1.26392
-0.243848 -2.80556 -1.95106
-0.4737 -3.03445 -0.900142
0.0148073 -2.96027 -1.00932
0.0575719 -2.76606 -1.7346
-0.507764 -2.98094 -1.35333
-0.00137697 -2.76722 -1.79544
-0.242901 -2.75159 -2.20638
-0.636818 -3.03577 -1.06529
-0.324352 -2.94145 -1.38236
-0.846267 -3.02602 -1.57241
-0.307129 -2.76646 -2.25598
-0.267996 -2.91134 -1.47863
-0.0953188 -2.99387 -0.91068
