ply
format ascii 1.0
comment Created by Open3D
element vertex 250
property double x
property double y
property double z
end_header
2.44309 2.12035 0.986595
2.09516 2.99276 -1.0612
2.39483 0.272975 -1.93875
2.99338 1.09262 -1.02573
2.57253 2.475 0.564511
3.1207 0.484529 -0.165537
3.10518 -1.36361 0.278463
3.01679 0.181238 -0.758794
2.43192 1.99654 1.08326
3.14222 1.54708 -0.508766
2.75542 2.41222 -1.13749
3.0727 0.607258 -0.669689
3.06282 2.27699 -0.36584
3.10048 0.699032 0.235794
2.99455 2.34319 -0.0547911
2.73765 2.74442 0.010039
3.09927 0.270184 0.137722
2.95245 -0.965918 -0.789665
3.08036 -0.182646 0.175813
2.46438 0.592506 -1.83887
2.62953 2.68748 -1.06311
2.96634 -0.674725 -0.750489
3.14479 1.16635 -0.0599161
3.03027 -0.313343 -0.528801
2.69174 0.546661 -1.54237
2.97604 1.9733 0.307265
3.08964 0.374912 0.262386
2.46413 3.056 -0.546089
2.75258 0.252423 -1.42731
3.09486 1.62019 -0.75014
2.34925 2.10068 1.09354
2.1791 3.09681 -0.80303
2.34359 2.5898 0.679681
2.19999 2.5563 -1.4749
2.06753 2.98454 -1.08563
3.1018 -1.35213 0.196218
2.47524 0.289486 -1.83987
2.13626 2.79211 -1.29996
3.03966 1.59891 0.326313
2.77657 0.206431 -1.37958
2.76834 0.297579 -1.40257
3.09867 0.23168 -0.281536
2.85342 2.57509 -0.853555
2.79093 2.75369 -0.136388
2.50971 0.903345 -1.76726
2.68192 2.89973 -0.622965
2.44622 -0.54173 -1.92259
2.70394 2.90051 -0.501253
3.07147 -0.58236 -0.0102865
2.99862 2.15162 0.127078
2.41535 2.44909 -1.42193
2.76831 0.759572 -1.4315
2.57345 -0.718652 -1.72842
2.44359 2.87876 0.215207
3.04069 0.858979 -0.860753
2.60622 -1.01509 -1.69875
2.9417 0.568594 -1.07766
2.49562 2.02 0.999751
2.86196 1.66653 -1.25582
3.11356 0.452488 -0.292478
3.09844 0.402561 -0.418086
2.99307 -0.50008 -0.665461
2.67848 0.628299 -1.56363
2.72195 2.49765 0.352824
2.42025 3.03264 -0.0958535
2.33681 2.63539 -1.34034
3.04599 1.82046 -0.871422
2.9877 -1.09077 -0.646039
2.71431 2.00616 0.741679
3.14284 0.909279 -0.133395
3.0615 1.90246 -0.803498
2.53167 0.234462 -1.76759
2.51968 2.19927 0.848948
2.89569 0.028748 -1.09718
2.7644 0.0213733 -1.38635
3.0942 -1.27825 0.157779
2.56222 -0.834297 -1.75903
3.02111 2.41292 -0.419662
3.0843 2.13713 -0.555276
3.11976 0.719895 -0.43661
3.09004 0.576329 0.288236
2.52419 2.22985 -1.45855
2.91083 2.39034 0.124369
3.08535 -0.162098 0.019923
3.06907 0.494452 -0.644478
2.56049 2.95087 -0.0997932
3.04937 -0.727218 -0.276923
2.55911 2.05998 0.902178
2.78591 0.0911271 -1.3507
3.13102 1.67881 -0.566887
2.39969 0.204411 -1.93717
2.93962 -0.814593 -0.841286
2.98074 2.11762 0.200024
3.10723 2.04236 -0.490536
2.84205 2.35714 -1.05366
2.74925 -0.0202347 -1.41212
2.83347 1.62555 0.759249
2.50644 2.43755 0.670456
2.58827 1.86101 -1.53613
3.04187 0.791076 0.502476
3.0411 2.32089 -0.555682
2.77309 2.56641 0.198886
2.96556 2.33609 0.0445373
2.73426 1.76587 0.848551
2.75335 2.63645 -0.959701
3.1057 0.893024 0.215773
3.12096 0.6052 0.0376809
2.59505 -1.03921 -1.72404
2.98752 -1.01237 -0.641583
3.01957 0.146773 -0.736767
2.62811 0.601894 -1.63406
2.6127 1.771 -1.53595
2.93659 0.117572 -1.00448
2.60778 1.78715 1.00887
2.75933 -1.02537 -1.36968
3.06887 1.83757 -0.799526
2.86332 -0.784252 -1.08907
2.49588 2.46859 0.653319
2.93595 2.53635 -0.148315
2.75252 2.68719 -0.903052
3.09358 -1.24811 0.211176
2.63647 2.43731 -1.25115
3.08985 0.615604 -0.587332
2.88809 2.64099 -0.657414
3.07191 -1.07617 -0.0521239
2.85023 -1.09307 -1.13696
2.50037 0.85455 -1.78125
2.68082 0.982726 -1.55786
3.11924 0.498457 -0.246516
2.61136 -0.492027 -1.65028
2.9357 -0.117457 -0.958424
2.93697 -1.13725 -0.859399
2.97966 2.38146 -0.749429
2.39069 -0.76577 -2.03345
2.52888 0.683386 -1.75861
2.8788 0.0265979 -1.13909
2.76214 -0.867431 -1.35225
2.97902 0.218636 -0.901291
2.40679 2.75911 -1.18432
3.06533 -1.10228 -0.142705
2.21948 2.83844 -1.21103
2.42354 3.03589 -0.112282
2.44314 -0.30586 -1.90934
3.05719 2.27609 -0.271976
3.00398 2.2237 0.0477184
2.13866 2.83268 -1.25538
3.06479 1.2648 0.34774
3.05895 -0.485406 -0.252186
2.46273 2.58568 -1.29584
2.99479 1.83278 0.340603
2.55186 -0.66425 -1.76216
2.95568 1.7498 0.470125
2.65197 -0.492952 -1.57656
2.59019 2.9548 -0.178647
2.55204 2.04177 0.922304
2.80518 2.77136 -0.237491
2.95037 -0.826454 -0.800303
3.03725 0.580849 0.538968
3.0968 1.21194 0.235399
2.75593 -0.731883 -1.36346
2.48608 2.19825 -1.50278
2.76517 1.23788 -1.43418
2.18292 2.81502 -1.25475
3.01808 2.39479 -0.261185
2.74753 0.311128 -1.44051
3.0505 -1.08202 -0.274141
3.07607 -1.11467 -0.0119649
2.88097 2.45251 -0.920149
2.81568 1.89581 0.655131
2.65154 0.172926 -1.59221
2.77987 2.47193 -1.06585
3.06329 -0.668449 -0.136877
2.90618 0.477365 -1.14632
2.21925 2.77999 -1.27385
1.99004 3.08594 -0.928658
2.83554 2.69975 -0.707759
2.65999 2.88678 -0.723287
3.13028 1.89179 -0.426457
2.44078 -0.268316 -1.91037
3.15242 1.19511 -0.173473
2.57347 -0.366492 -1.71233
3.03615 0.270941 0.561141
2.77691 2.02235 0.641871
2.94337 1.67701 -1.12024
2.96649 1.93817 -1.024
2.02798 2.86241 -1.26486
2.87405 0.373453 -1.20243
3.09756 0.383094 -0.412836
2.99222 2.47587 -0.520076
3.15385 1.49214 -0.366373
2.89172 2.403 -0.939415
2.30627 2.6127 -1.37614
3.1501 1.31267 -0.419344
2.5951 2.96704 -0.243013
2.905 -0.200151 -1.03277
2.01183 2.84078 -1.29545
2.36967 -0.796007 -2.07002
2.64705 2.90052 -0.715388
3.10958 1.14172 -0.660445
2.95418 1.20717 -1.11998
2.01848 -0.893303 -2.57372
1.90279 -0.990044 -2.75199
1.86111 -0.608706 -2.67437
1.48042 -0.973054 -3.24363
2.2657 -0.304658 -2.1452
2.19719 -0.893421 -2.33803
1.70399 -0.151117 -2.70254
2.14375 -0.784416 -2.38349
1.53298 -0.67522 -3.04362
2.04613 -0.384826 -2.41589
1.8688 0.105755 -2.49321
1.94259 -0.678317 -2.60264
1.42143 -0.5517 -3.10157
1.44935 -0.749159 -3.16297
1.36805 -0.458817 -3.11186
1.69659 -0.903399 -2.96318
1.85374 -0.284425 -2.59581
1.91953 -0.815165 -2.67061
1.9959 -0.0724657 -2.40936
2.31412 0.249479 -2.03296
1.67341 -0.833875 -2.96001
2.28314 0.262638 -2.06575
1.90103 -0.0343563 -2.49353
1.70782 -0.984883 -2.9861
1.3119 -0.200177 -3.05424
1.57053 -0.749042 -3.03591
1.83863 -0.0477705 -2.5544
2.2532 -0.195117 -2.14742
1.36703 -0.214691 -3.01417
1.64824 -1.0077 -3.06721
1.47257 -0.458105 -3.01478
2.33734 0.175811 -2.01279
1.55279 -0.730154 -3.04648
1.75427 -0.857322 -2.87821
2.2549 -0.10964 -2.13564
1.71945 -0.354007 -2.74569
2.15145 -0.977413 -2.42331
1.5542 -0.603571 -2.9929
2.27972 -0.59355 -2.16636
2.10231 -0.142354 -2.31132
1.58447 -0.263092 -2.84315
2.02291 -0.726842 -2.52088
1.56407 -0.333858 -2.88501
1.38623 -0.659527 -3.18461
2.22313 -0.788713 -2.27857
1.95181 -0.555077 -2.5594
2.00089 -1.10395 -2.66892
1.38375 -0.7327 -3.22265
1.87296 -0.521751 -2.63701
2.19204 -0.22755 -2.2237
