ply
format ascii 1.0
comment Created by Open3D
element vertex 400
property double x
property double y
property double z
end_header
2.48674 -1.80633 -0.734677
1.50215 -2.5413 -1.17344
2.47744 -1.63823 -1.07178
1.51104 -1.25695 -2.4916
2.4937 -1.79976 -0.735568
3.09849 -0.040793 -1.42876
3.13151 -0.970992 -1.00768
2.15428 -1.49953 -1.64381
2.11278 -1.58961 -1.60606
1.69148 -1.49535 -2.15627
1.3616 -2.43435 -1.64165
1.5361 -1.85906 -2.04946
1.36019 -2.34873 -1.76432
3.44475 -0.800459 -0.744852
2.78627 -1.60102 -0.573987
3.22282 -0.856059 -0.997735
2.93613 -0.544557 -1.47549
2.97359 -1.09333 -1.08481
1.36309 -2.31958 -1.79775
1.26129 -2.66272 -1.46397
1.88096 -2.18096 -1.13116
2.90325 -0.676291 -1.45132
1.61587 -1.90812 -1.90012
2.97714 -1.52482 -0.193832
2.81928 -1.60446 -0.4735
2.00501 -1.9665 -1.28765
1.36494 -2.27936 -1.84553
2.79164 -1.59272 -0.583582
2.25894 -0.986442 -1.89687
2.70986 -1.20675 -1.288
1.38161 -1.45948 -2.52473
1.51301 -1.88838 -2.05221
3.2501 -0.843692 -0.974195
1.78434 -0.99678 -2.33761
2.89701 -1.12989 -1.14204
1.64204 -1.85567 -1.91815
1.83952 -2.31678 -0.920243
1.61218 -1.55795 -2.20054
1.79653 -1.79496 -1.78371
2.57981 -1.31541 -1.33354
1.67306 -1.23669 -2.33318
2.98346 -1.37104 -0.682577
2.40271 -0.577501 -1.93496
2.49213 -1.70844 -0.93085
2.41122 -0.674615 -1.89583
3.31809 -0.258957 -1.19507
2.06022 -1.88921 -1.31861
2.29729 -1.95606 -0.781247
1.36165 -1.44445 -2.55625
1.7229 -2.232 -1.32531
3.33833 -0.704179 -0.975058
1.9988 -2.18364 -0.884124
3.38444 -1.06612 -0.447485
2.94596 -1.40962 -0.678115
1.31023 -2.47593 -1.67286
1.78311 -1.59222 -1.98201
1.60298 -1.48361 -2.2615
1.99715 -1.63458 -1.69846
2.37585 -1.80022 -0.962655
3.01898 -1.39258 -0.558317
1.36819 -1.45042 -2.54534
1.64635 -1.99828 -1.76316
1.36531 -2.18024 -1.96109
3.44082 -0.542209 -0.954297
3.25617 -0.939512 -0.873652
2.90123 -0.179591 -1.5928
3.45873 -0.749526 -0.775477
2.79481 -1.19898 -1.19611
1.34978 -2.4165 -1.68858
1.63472 -2.00454 -1.77212
1.27526 -1.54808 -2.59782
3.00317 -0.95243 -1.17723
1.50228 -2.00654 -1.95147
1.86595 -1.26418 -2.1218
2.87648 -1.43842 -0.754165
2.86656 -1.0614 -1.24051
1.86527 -1.69506 -1.79719
1.98739 -2.09886 -1.09112
1.61808 -1.23597 -2.39016
3.39319 -0.336265 -1.09686
3.04791 -1.46027 -0.205704
3.45057 -0.97976 -0.47128
2.66956 -1.31093 -1.23146
3.33553 -1.174 -0.273926
2.46539 -0.631446 -1.86355
3.21449 -1.00134 -0.863908
1.76138 -1.19979 -2.26319
2.0113 -0.985078 -2.12831
1.70603 -1.67188 -2.00545
2.59673 -1.22006 -1.40277
2.81884 -1.5173 -0.705374
2.06876 -1.22736 -1.94123
2.82448 -1.64982 -0.248704
2.98107 -0.801993 -1.30725
1.71466 -1.77654 -1.90276
2.06009 -1.60184 -1.65604
3.10988 -1.0789 -0.921777
2.6574 -1.10954 -1.42846
3.03808 -1.47169 -0.18616
1.36447 -2.19388 -1.94708
1.88941 -0.901455 -2.27764
2.63877 -0.479807 -1.76001
2.00245 -2.16023 -0.932087
2.64975 -0.581447 -1.71946
1.54873 -2.09234 -1.79247
2.04322 -1.1224 -2.02839
2.29215 -1.03402 -1.8399
3.00039 -1.44028 -0.475395
1.53374 -1.84889 -2.06163
1.16798 -1.44192 -2.7873
2.19782 -1.94261 -1.0084
1.37362 -2.469 -1.56679
2.49021 -1.13831 -1.57976
2.6626 -1.7346 -0.497068
3.20453 -1.09438 -0.759051
3.07428 -1.15956 -0.872485
2.05274 -1.76698 -1.4882
2.33471 -1.75976 -1.10022
2.07242 -1.4587 -1.76997
1.88352 -1.58804 -1.87172
3.29439 -1.03349 -0.696055
1.31491 -2.27959 -1.9245
3.09076 -1.3514 -0.486553
2.26073 -2.01327 -0.715274
1.81441 -1.8493 -1.70423
1.44629 -2.2666 -1.73228
2.35009 -1.13863 -1.71995
2.26243 -1.96237 -0.841393
2.37094 -1.02214 -1.77181
2.28108 -1.6185 -1.3688
1.44789 -2.3278 -1.64647
3.10747 -0.44849 -1.34861
1.81286 -2.12134 -1.35315
2.02911 -1.34457 -1.90307
2.35666 -1.361 -1.54274
2.1448 -2.07666 -0.820654
2.40523 -0.606118 -1.92401
2.04142 -1.56365 -1.71354
2.56825 -0.546233 -1.80172
3.32781 -0.802312 -0.910018
1.59137 -1.4666 -2.28531
3.12314 -1.36781 -0.329752
1.32547 -2.47266 -1.6499
1.28651 -2.61354 -1.49812
2.90579 -1.54866 -0.397931
2.21961 -0.783135 -2.02445
1.8194 -1.77218 -1.7781
1.30461 -1.49978 -2.59109
1.72607 -1.59226 -2.04654
2.7035 -1.62756 -0.696429
2.20735 -0.932207 -1.97156
1.83824 -2.05985 -1.40602
2.5628 -1.50969 -1.13243
1.60773 -2.25395 -1.4871
3.46428 -0.933353 -0.528364
2.33106 -1.32647 -1.60008
1.5302 -1.85252 -2.06284
2.06753 -1.33309 -1.87147
2.9284 -0.178523 -1.56935
2.03059 -1.16136 -2.01866
2.50554 -0.872428 -1.72661
2.16406 -1.35113 -1.75754
1.30072 -2.62459 -1.44863
1.38287 -1.90938 -2.20257
2.63728 -1.71353 -0.629424
1.64316 -1.10197 -2.42962
1.52829 -2.11544 -1.795
2.90381 -0.710119 -1.43454
2.41042 -0.543376 -1.93822
1.95418 -2.0005 -1.31476
1.53413 -2.36922 -1.43298
1.35716 -1.91535 -2.2313
2.93092 -0.519547 -1.48926
1.63761 -1.48924 -2.21959
2.30518 -0.740631 -1.96483
1.68678 -1.62549 -2.06532
2.59368 -0.541616 -1.78112
1.84804 -2.04449 -1.41331
1.85316 -1.58424 -1.90929
3.32788 -0.786564 -0.923573
2.62308 -1.64102 -0.826219
1.70278 -2.30829 -1.2264
2.21319 -1.85763 -1.13317
1.57747 -1.604 -2.20702
2.39253 -1.94662 -0.567658
2.50009 -1.67562 -0.975723
2.76726 -1.50976 -0.817387
2.66994 -0.949015 -1.5275
1.77505 -1.43952 -2.10416
3.25623 -1.17569 -0.513367
1.30338 -2.20954 -2.02203
2.44948 -1.53368 -1.25347
3.07535 -1.25779 -0.721779
3.50897 -0.758676 -0.687159
1.93682 -0.847036 -2.25489
2.79136 -1.08619 -1.3032
3.0016 -1.31287 -0.75734
2.55606 -1.65966 -0.910018
2.16862 -1.32937 -1.76929
2.28064 -1.97954 -0.759015
2.74434 -1.4097 -1.01331
3.10151 -1.28025 -0.629438
1.76661 -1.0008 -2.35293
2.00512 -0.952034 -2.14904
2.64591 -1.74699 -0.50421
2.15354 -0.746394 -2.09674
2.25596 -1.42509 -1.59714
2.94681 -0.675697 -1.40997
2.31239 -1.97599 -0.692505
2.19027 -2.04917 -0.786826
1.87136 -1.35404 -2.06
1.30272 -1.68113 -2.47962
2.88231 -0.702009 -1.45904
2.71078 -1.14118 -1.34543
2.29063 -1.25502 -1.69843
2.06439 -1.92595 -1.25792
2.4018 -0.810613 -1.85027
1.5664 -1.93096 -1.94203
2.68771 -1.63298 -0.717105
2.058 -2.05115 -1.0532
3.33503 -1.12191 -0.442507
2.63993 -0.760819 -1.65695
2.54928 -0.919451 -1.66087
1.16445 -1.4109 -2.80745
2.99487 -0.864968 -1.2518
2.02522 -2.11869 -0.977787
2.82333 -0.614582 -1.55219
2.90948 -0.687004 -1.44034
2.43819 -0.897743 -1.77605
3.09876 -1.41578 -0.194652
3.09503 -0.28227 -1.40438
1.65078 -2.42236 -1.10116
1.81235 -2.21447 -1.19561
2.81188 -0.575861 -1.57731
2.87735 -0.929414 -1.33101
3.02677 -1.06837 -1.04353
2.53942 -1.63776 -0.976019
3.23545 -0.578576 -1.16716
2.00075 -1.99998 -1.24186
2.41081 -1.8992 -0.66613
2.28783 -0.945812 -1.89076
2.10603 -1.72147 -1.47258
1.47633 -1.26763 -2.5233
2.39063 -1.05908 -1.73096
2.53877 -0.927583 -1.66628
3.08935 -0.84239 -1.16493
2.64634 -1.1468 -1.41061
1.31281 -1.78919 -2.38994
2.69081 -1.72736 -0.433464
1.86961 -1.79609 -1.69074
2.50127 -1.48334 -1.24727
1.30123 -2.5091 -1.6396
1.81176 -1.01596 -2.303
2.29911 -0.962627 -1.87177
1.85902 -1.72981 -1.77136
1.75148 -1.45926 -2.11594
3.33502 -1.06377 -0.568259
1.66418 -2.1706 -1.51795
2.44582 -1.7118 -1.00251
1.77946 -1.56334 -2.00894
3.18916 -0.75548 -1.11425
2.94786 -0.74505 -1.37354
1.7862 -2.11778 -1.40166
2.92598 -0.203279 -1.56843
1.95397 -2.16363 -1.02479
1.43125 -2.05354 -2.00123
1.44622 -2.46253 -1.44038
3.2477 -0.320956 -1.2505
1.88593 -2.10951 -1.25099
2.8036 -1.65904 -0.301157
1.38438 -2.12485 -1.99333
2.30019 -1.4532 -1.5214
2.3265 -1.99847 -0.584417
3.06997 -1.44311 -0.18558
1.50295 -2.49707 -1.26317
2.0413 -1.74281 -1.53111
3.37994 -0.682047 -0.939321
2.70109 -1.51596 -0.918143
1.81206 -1.78393 -1.77546
3.20702 -0.571257 -1.20053
1.55475 -2.26396 -1.56025
2.96828 -0.896534 -1.25806
2.48641 -1.82994 -0.674537
2.9865 -0.539883 -1.4304
3.38068 -1.02002 -0.552547
2.6584 -1.55745 -0.918093
2.04771 -1.03947 -2.06787
2.18687 -1.89428 -1.11457
3.30476 -1.07642 -0.60727
2.41954 -1.13455 -1.65365
2.65005 -1.11608 -1.43111
3.25485 -0.752107 -1.04093
2.17426 -1.54773 -1.57524
1.70594 -1.68436 -1.99509
3.50172 -0.643807 -0.806116
2.14351 -0.870095 -2.0576
1.79769 -1.50298 -2.03454
1.76812 -1.60097 -1.99197
1.66755 -2.13009 -1.56915
1.94687 -1.84554 -1.53446
2.97132 -1.19068 -0.980092
2.28988 -1.5013 -1.48608
1.28043 -2.63903 -1.46573
1.49516 -2.35126 -1.53102
2.15781 -2.07731 -0.788919
1.74833 -1.00595 -2.36836
2.70881 -1.67101 -0.57096
2.65458 -1.04998 -1.47568
2.57899 -0.632196 -1.76395
2.23487 -1.35178 -1.68214
2.41935 -1.82198 -0.838296
2.45696 -0.705742 -1.84416
2.38949 -1.82335 -0.892807
2.46026 -0.527127 -1.9001
1.71477 -2.29303 -1.23212
2.40032 -1.54501 -1.30325
1.93633 -0.949956 -2.21395
1.40524 -2.47533 -1.49716
2.00352 -0.969054 -2.14291
3.12807 -0.330983 -1.36289
2.10755 -1.8339 -1.32776
2.28751 -0.774989 -1.96724
1.435 -2.40843 -1.54934
2.36423 -1.96967 -0.571972
1.84057 -2.15016 -1.2596
1.24904 -2.53904 -1.69251
2.44547 -1.74006 -0.953244
2.34421 -0.681715 -1.95193
3.33538 -0.525119 -1.08532
1.97525 -1.41847 -1.90598
3.30677 -0.97614 -0.754815
3.14471 -1.29232 -0.504485
2.68147 -1.63405 -0.727528
1.88119 -1.65464 -1.81584
1.48493 -1.88243 -2.09377
2.02205 -2.02602 -1.16306
2.53147 -0.503715 -1.84559
1.44407 -2.05101 -1.98594
2.47123 -1.24057 -1.52105
3.22971 -0.549733 -1.18702
2.53627 -0.743919 -1.75824
2.27334 -1.6129 -1.38525
1.93854 -1.02794 -2.17674
2.62359 -1.46865 -1.10321
1.74889 -1.87664 -1.75976
2.67993 -1.45665 -1.04028
2.14797 -0.746917 -2.10149
2.47606 -1.28202 -1.48103
2.23525 -1.72023 -1.30244
2.50702 -1.06186 -1.61556
3.43873 -0.534318 -0.961269
2.05379 -1.11098 -2.0245
2.01992 -1.60899 -1.69618
2.33707 -1.76016 -1.0959
1.7028 -1.11152 -2.36574
3.21353 -0.16185 -1.31347
1.64565 -1.1146 -2.42135
1.95027 -0.93657 -2.20668
2.35343 -1.95383 -0.652638
1.27151 -1.35251 -2.70914
3.26723 -1.18717 -0.457661
2.13623 -1.83921 -1.27881
2.9932 -0.131727 -1.51732
2.73225 -1.08822 -1.3657
2.97275 -0.512518 -1.4532
1.82045 -2.00234 -1.51272
2.78931 -0.394707 -1.65173
3.08877 -0.344389 -1.39627
3.33861 -0.726644 -0.95808
2.93856 -0.463636 -1.50068
3.19123 -0.514837 -1.24179
2.54564 -1.70145 -0.84874
3.12693 -0.0122329 -1.40349
1.98362 -1.21437 -2.03378
2.17065 -1.98207 -0.98058
2.91691 -1.56445 -0.280495
1.31509 -2.58489 -1.48912
3.1796 -0.595136 -1.21742
3.21485 -0.281888 -1.29176
2.49331 -1.62057 -1.07481
3.08266 -1.42418 -0.236046
1.44463 -2.33315 -1.64437
3.18468 -0.122393 -1.34483
1.84425 -2.21968 -1.12553
2.04133 -1.16504 -2.00605
2.72044 -1.6854 -0.493363
2.00075 -1.48529 -1.8265
3.14323 -0.817479 -1.12254
2.16809 -0.794046 -2.06617
2.28872 -1.8812 -0.963065
2.63547 -1.74085 -0.554343
3.27899 -0.572608 -1.12347
2.59768 -0.618153 -1.75251
3.39908 -0.842659 -0.769587
2.63509 -1.73561 -0.571547
2.14013 -1.86754 -1.23114
3.32573 -0.258511 -1.18744
3.51157 -0.823758 -0.602731
3.1303 -1.09396 -0.874394
1.36939 -1.91474 -2.21567
