ply
format ascii 1.0
comment Created by Open3D
element vertex 400
property double x
property double y
property double z
end_header
0.48789 -3.02889 0.75777
-0.795191 -2.91955 0.96722
0.396807 -3.10682 0.40054
-0.805805 -2.94274 -0.87303
0.495646 -3.03098 0.7525
1.45619 -2.92574 -0.98144
1.22498 -3.20365 -0.02594
-0.0483661 -3.09498 -0.10202
-0.103874 -3.0918 -0.01163
-0.629749 -3.02186 -0.46734
-1.07521 -3.0008 0.56052
-0.868073 -3.04045 -0.13463
-1.09473 -3.01833 0.41324
1.66315 -3.20846 0.03932
0.882688 -3.05769 0.72622
1.35198 -3.20577 -0.10018
1.06613 -3.08618 -0.65827
1.01357 -3.19172 0.00602
-1.09481 -3.02251 0.36899
-1.17148 -2.95521 0.84765
-0.326019 -2.9861 0.74232
0.989101 -3.11671 -0.54803
-0.761526 -3.04671 0.00566
1.24583 -2.96448 0.94115
0.954552 -3.03251 0.79971
-0.209318 -3.04483 0.48002
-1.09729 -3.0276 0.30676
0.885835 -3.06214 0.71357
0.155655 -3.03897 -0.64377
0.668789 -3.16353 -0.05745
-1.01516 -2.96905 -0.75325
-0.900437 -3.04016 -0.11585
1.38922 -3.20711 -0.09228
-0.405476 -2.92891 -0.94811
0.912528 -3.18446 -0.00859
-0.725817 -3.04801 -0.04418
-0.317774 -2.91925 0.9875
-0.739266 -3.01923 -0.45438
-0.518995 -3.05967 0.00796
0.499727 -3.14868 -0.01282
-0.601903 -2.96797 -0.77533
1.08281 -3.13644 0.48682
0.442741 -2.9552 -0.95987
0.442557 -3.08185 0.54984
0.419767 -2.99021 -0.86353
1.61923 -3.07326 -0.66193
-0.147114 -3.0607 0.40348
0.255775 -2.99308 0.83072
-1.03752 -2.96318 -0.78616
-0.560382 -2.99693 0.64113
1.52094 -3.20017 -0.19154
-0.120519 -2.94725 0.9189
1.63636 -3.14996 0.43744
1.03924 -3.12697 0.51725
-1.14792 -3.00087 0.56786
-0.526264 -3.04796 -0.27562
-0.739075 -3.00603 -0.55005
-0.254318 -3.07871 -0.04517
0.29854 -3.06142 0.59225
1.15929 -3.11019 0.58991
-1.03042 -2.96534 -0.77422
-0.716575 -3.04487 0.16625
-1.10524 -3.03608 0.15496
1.68477 -3.18128 -0.29139
1.39588 -3.20904 0.04657
1.16528 -2.93768 -0.99929
1.68319 -3.20819 -0.01835
0.77868 -3.17378 0.00203
-1.0981 -3.00698 0.51472
-0.732407 -3.04425 0.16435
-1.1712 -2.97469 -0.74228
1.05873 -3.18839 -0.15896
-0.916736 -3.04128 0.03894
-0.373565 -3.01242 -0.60643
0.937687 -3.13027 0.48384
0.876006 -3.17792 -0.12665
-0.427177 -3.06507 -0.07222
-0.189696 -3.00029 0.71258
-0.668909 -2.95722 -0.81613
1.68279 -3.11591 -0.53782
1.32221 -2.98818 0.88711
1.7144 -3.16544 0.35955
0.61647 -3.15886 0.05619
1.63461 -3.08254 0.63645
0.495795 -2.99079 -0.87123
1.34036 -3.20561 0.09718
-0.486009 -2.97698 -0.75194
-0.134492 -2.9789 -0.80839
-0.632316 -3.04501 -0.23587
0.524751 -3.14758 -0.1292
0.881882 -3.10456 0.57412
-0.12146 -3.04713 -0.50478
1.04795 -2.94647 0.99074
1.05331 -3.16256 -0.35727
-0.627204 -3.0521 -0.08925
-0.172237 -3.08564 -0.03832
1.19868 -3.19935 0.1111
0.610063 -3.14807 -0.22551
1.31932 -2.97717 0.90901
-1.10565 -3.03531 0.17452
-0.253533 -2.92556 -0.97311
0.745984 -2.9858 -0.90524
-0.130214 -2.96211 0.86843
0.723201 -3.02411 -0.8047
-0.847291 -3.03753 0.21204
-0.130624 -3.02017 -0.64063
0.183834 -3.05776 -0.56984
1.16376 -3.07944 0.68228
-0.870738 -3.03977 -0.15043
-1.28872 -2.9405 -0.95133
0.0785878 -3.0296 0.66059
-1.0466 -2.98919 0.63796
0.401806 -3.11988 -0.31215
0.766907 -2.99858 0.87507
1.33923 -3.19266 0.23711
1.15782 -3.18986 0.20299
-0.176084 -3.0791 0.19713
0.2209 -3.08088 0.46637
-0.148917 -3.07976 -0.2201
-0.39803 -3.06173 -0.20059
1.46472 -3.19426 0.2386
-1.17226 -3.03183 0.25109
1.26652 -3.10447 0.61154
0.234307 -2.96285 0.91782
-0.49378 -3.05974 0.10258
-0.976762 -3.02212 0.37782
0.232475 -3.09105 -0.41106
0.197898 -3.00166 0.79265
0.279533 -3.07348 -0.5301
0.119317 -3.10662 0.17657
-0.96332 -3.01095 0.48177
1.29876 -3.09586 -0.63648
-0.455363 -3.01913 0.54319
-0.189024 -3.05862 -0.39492
0.214536 -3.11828 -0.12851
0.0679459 -2.96526 0.88813
0.435691 -2.96582 -0.93189
-0.195091 -3.08209 -0.10599
0.642053 -2.99 -0.88776
1.49695 -3.20928 -0.07616
-0.750686 -3.00122 -0.57892
1.35961 -3.05718 0.73402
-1.12403 -2.99853 0.58178
-1.14613 -2.96553 0.78872
1.08141 -3.028 0.81369
0.16571 -2.97329 -0.87774
-0.488632 -3.06165 -0.00419
-1.12294 -2.96793 -0.77167
-0.598884 -3.03992 -0.32123
0.749668 -3.07366 0.65841
0.108951 -3.01271 -0.73493
-0.433103 -3.03277 0.46233
0.491114 -3.13323 0.26676
-0.733687 -3.00736 0.54224
1.71876 -3.18047 0.28637
0.185036 -3.11158 -0.19347
-0.875667 -3.0397 -0.14872
-0.140318 -3.06425 -0.38069
1.19676 -2.94463 -0.98346
-0.154163 -3.02585 -0.6062
0.472163 -3.07121 -0.604
-0.0241123 -3.08456 -0.28738
-1.11686 -2.95636 0.83153
-1.07814 -3.03381 -0.20732
0.693361 -3.03632 0.76658
-0.603905 -2.92768 -0.93879
-0.874557 -3.03589 0.22658
0.980976 -3.12563 -0.51224
0.463629 -2.94522 -0.9863
-0.275814 -3.03944 0.48489
-0.816305 -2.98589 0.66202
-1.11366 -3.03298 -0.22341
1.06807 -3.07688 -0.68569
-0.696451 -3.01238 -0.51644
0.277278 -2.98274 -0.86564
-0.652674 -3.03814 -0.31101
0.672642 -2.99538 -0.87646
-0.422136 -3.03566 0.44631
-0.436384 -3.05715 -0.22985
1.4981 -3.20824 -0.09688
0.621179 -3.08842 0.57615
-0.563295 -2.97139 0.76501
0.0695581 -3.06037 0.51227
-0.790072 -3.02095 -0.4264
0.434637 -2.94891 0.97507
0.442161 -3.0935 0.4949
0.793176 -3.12032 0.48958
0.649676 -3.12619 -0.40905
-0.51669 -3.02699 -0.46997
1.45798 -3.14703 0.46833
-1.19415 -3.03741 0.13259
0.338471 -3.12562 0.19814
1.18481 -3.16439 0.37902
1.7583 -3.20413 0.05057
-0.181422 -2.9205 -0.9955
0.779097 -3.16848 -0.15345
1.08735 -3.15756 0.39282
0.522566 -3.09225 0.53008
-0.0158887 -3.08278 -0.31107
0.243379 -2.98193 0.86304
0.729041 -3.15204 0.28029
1.23826 -3.14794 0.46019
-0.427679 -2.92604 -0.9561
-0.132703 -2.96837 -0.84641
0.74534 -2.99654 0.87878
0.101215 -2.94435 -0.95484
0.0840891 -3.10632 -0.12166
1.04088 -3.12654 -0.51921
0.30086 -2.96935 0.90756
0.130758 -2.96675 0.89261
-0.383768 -3.03027 -0.49919
-1.15921 -3.00153 -0.56462
0.957578 -3.11862 -0.5353
0.673505 -3.16012 -0.14443
0.142998 -3.09644 -0.31354
-0.132194 -3.05168 0.47237
0.367886 -3.02877 -0.73515
-0.828885 -3.04411 -0.00783
0.725456 -3.07554 0.64762
-0.0969514 -3.0074 0.70566
1.57601 -3.14043 0.48041
0.657829 -3.0756 -0.63366
0.512454 -3.09277 -0.52426
-1.28578 -2.93256 -0.98751
1.05931 -3.17608 -0.27353
-0.116192 -2.98029 0.80674
0.913009 -3.07978 -0.66299
0.993641 -3.12099 -0.53269
0.387162 -3.06096 -0.62106
1.38594 -2.99637 0.86347
1.34519 -3.03184 -0.79345
-0.594479 -2.92903 0.93423
-0.423515 -2.98656 0.72044
0.911715 -3.06488 -0.70813
0.904383 -3.1648 -0.28397
1.0843 -3.1962 0.01756
0.488752 -3.10253 0.46792
1.41494 -3.16068 -0.41619
-0.206178 -3.03567 0.53607
0.422037 -2.98736 0.87191
0.199454 -3.03603 -0.66818
-0.107834 -3.08621 0.17599
-0.85154 -2.93939 -0.88789
0.295408 -3.08545 -0.47509
0.498249 -3.09211 -0.52234
1.18084 -3.18816 -0.22807
0.592541 -3.14995 -0.18654
-1.16127 -3.01786 -0.4248
0.82228 -2.9831 0.91492
-0.4214 -3.06543 0.07449
0.403362 -3.13397 0.16693
-1.15424 -2.99446 0.61483
-0.378373 -2.94059 -0.91007
0.208519 -3.04291 -0.64286
-0.436059 -3.06511 -0.02938
-0.549118 -3.02608 -0.46434
1.5422 -3.17423 0.35038
-0.667523 -3.02103 0.46149
0.372299 -3.08661 0.50154
-0.527869 -3.04441 -0.31509
1.32021 -3.18994 -0.25369
1.02516 -3.14375 -0.44441
-0.496686 -3.02275 0.50638
1.18312 -2.95484 -0.96531
-0.212542 -2.97587 0.80528
-1.01534 -3.03943 0.03699
-0.92882 -2.97408 0.72277
1.51074 -3.0822 -0.65729
-0.346694 -3.0138 0.60707
1.00235 -2.96254 0.96017
-1.08018 -3.03799 0.093
0.13918 -3.11378 -0.04823
0.353638 -2.93653 0.99989
1.35645 -2.98514 0.88921
-0.817373 -2.94287 0.8725
-0.193542 -3.08038 0.14969
1.57929 -3.20066 -0.18192
0.692908 -3.12701 0.42272
-0.498376 -3.06102 0.00599
1.38181 -3.1536 -0.44496
-0.812727 -3.01148 0.4976
1.02159 -3.17619 -0.25564
0.505921 -3.01039 0.81699
1.12663 -3.09692 -0.62969
1.60422 -3.17678 0.33055
0.642003 -3.11754 0.45209
-0.10572 -3.00162 -0.72719
0.0419244 -3.05078 0.55134
1.49497 -3.17866 0.33174
0.316777 -3.10497 -0.36706
0.60027 -3.14747 -0.22276
1.40501 -3.19805 -0.20423
-0.0240487 -3.09892 -0.01945
-0.63344 -3.046 -0.21972
1.75113 -3.20105 -0.11477
0.0518451 -2.97954 -0.83969
-0.497605 -3.03992 -0.37587
-0.546219 -3.04672 -0.27648
-0.670486 -3.02876 0.39664
-0.313354 -3.06664 0.21997
1.01565 -3.18643 0.14891
0.125497 -3.11288 0.01076
-1.14698 -2.95778 0.82965
-0.883905 -2.99838 0.58
0.0926876 -2.95892 0.91103
-0.450901 -2.92341 -0.96337
0.794434 -3.0364 0.77785
0.614242 -3.1399 -0.30101
0.625549 -3.02169 -0.80027
0.0633356 -3.09725 -0.2336
0.3806 -3.04088 0.69557
0.462384 -3.01228 -0.80498
0.331548 -3.0477 0.65799
0.526052 -2.95328 -0.97084
-0.550051 -2.9751 0.75018
0.273148 -3.12142 0.17095
-0.212761 -2.95115 -0.89378
-0.992587 -2.9799 0.69167
-0.139279 -2.97268 -0.83004
1.36494 -3.05882 -0.72967
-0.0905662 -3.07109 0.35789
0.246398 -2.98863 -0.84305
-0.96419 -2.99359 0.60747
0.400944 -2.94258 0.98832
-0.403397 -3.00636 0.62972
-1.23257 -2.99898 0.59859
0.382559 -3.07586 0.55636
0.340783 -2.97443 -0.89818
1.55325 -3.16369 -0.39612
-0.265512 -3.05894 -0.34472
1.47276 -3.20372 0.1565
1.32525 -3.12205 0.55708
0.715295 -3.07688 0.64101
-0.405038 -3.06544 -0.11398
-0.938097 -3.03811 -0.14944
-0.164735 -3.02435 0.61021
0.615367 -2.96467 -0.94885
-0.997367 -3.03959 0.04601
0.366614 -3.12823 -0.19833
1.41537 -3.15213 -0.45063
0.542337 -3.04449 -0.71723
0.108421 -3.10657 0.16097
-0.231585 -2.97309 -0.81233
0.569228 -3.14109 0.25841
-0.581546 -3.05485 0.08265
0.646529 -3.14346 0.29442
0.0946392 -2.94305 -0.95783
0.369315 -3.13236 -0.14072
0.0692258 -3.0919 0.29542
0.434022 -3.11144 -0.39152
1.68376 -3.17934 -0.3019
-0.115492 -3.01999 -0.64596
-0.224287 -3.08089 -0.06165
0.224528 -3.08059 0.4697
-0.534566 -2.94269 -0.88687
1.53465 -3.00997 -0.81432
-0.604322 -2.93162 -0.92401
-0.192573 -2.95067 -0.8981
0.360893 -2.96736 0.92008
-1.13173 -2.92992 -0.95928
1.48787 -3.1327 0.51584
-0.0484651 -3.06955 0.39626
1.29199 -2.94103 -0.97976
0.705035 -3.15895 -0.19621
1.11919 -3.08491 -0.66516
-0.470276 -3.04478 0.34621
0.949121 -2.99556 -0.88885
1.31376 -3.05442 -0.74379
1.51839 -3.20312 -0.16365
1.09572 -3.06003 -0.7333
1.37823 -3.13485 -0.51403
0.524942 -3.07514 0.60296
1.50321 -2.91894 -0.98377
-0.221445 -3.02671 -0.57941
0.0535563 -3.01621 0.70816
1.1401 -2.98504 0.90789
-1.1071 -2.96691 0.77483
1.34204 -3.15459 -0.44002
1.48642 -3.06007 -0.71409
0.415347 -3.11073 0.38591
1.34965 -3.00988 0.84014
-0.967251 -3.01027 0.48704
1.5183 -2.98552 -0.86439
-0.368523 -2.97669 0.77368
-0.142107 -3.02898 -0.59468
0.834259 -3.01302 0.8429
-0.241152 -3.07064 -0.24127
1.25259 -3.19261 -0.21571
0.102962 -2.96318 -0.89953
0.196236 -3.0405 0.64922
0.71596 -3.01116 0.83899
1.47056 -3.16664 -0.38952
0.651507 -3.02217 -0.80211
1.59739 -3.20964 0.05167
0.709709 -3.01687 0.82312
-0.0360412 -3.06264 0.45
1.62867 -3.07462 -0.65685
1.76981 -3.1963 0.15629
1.22928 -3.19764 0.15526
-1.0969 -3.03351 -0.21279
