ply
format ascii 1.0
comment Created by Open3D
element vertex 400
property double x
property double y
property double z
end_header
3.07463 -0.234194 -1.20869
3.02377 0.456488 0.961772
3.17245 -0.498215 -0.855105
2.97365 -1.2223 0.101203
2.96425 0.382924 -0.934444
3.05368 -0.0011789 -1.01647
3.09827 -1.4294 -0.544324
3.11766 -0.0561893 -0.541081
3.03067 0.565118 0.936972
2.95501 0.277137 1.5102
3.08354 -0.532313 -1.47117
3.15643 -0.572962 -0.341228
2.995 -0.575288 0.531418
3.03539 0.30215 0.7306
3.0622 -0.0745007 0.403221
2.97004 -0.464613 -1.72024
3.11073 -0.476285 -1.31414
2.92897 -0.178391 1.13834
3.19997 -1.33236 -1.16586
2.94584 -0.661884 0.664974
3.12243 -0.0750144 -0.357306
3.10187 0.041708 -0.068728
3.05363 -0.0623094 0.469689
3.17053 -0.676591 -0.460259
3.20488 -1.25396 -1.08899
3.09157 0.132447 -0.421627
2.96681 -1.23642 0.109302
3.01145 0.951675 0.258215
3.06609 -0.666015 0.167465
2.98945 0.996736 0.0808635
2.97354 0.0478023 -1.27836
3.06625 -0.300481 0.319511
3.05846 -1.33078 -0.286733
3.03594 0.105705 0.657305
3.09581 -1.11589 -0.242951
3.13997 -0.832921 -0.281449
3.03832 0.773635 0.911025
2.9962 0.905488 0.0199218
3.18854 -0.770302 -1.15142
3.0961 -1.33515 -0.435494
3.04891 -0.611747 0.274697
2.97373 0.703866 -0.455576
2.97401 -0.0715813 0.978571
3.08427 -0.0849406 0.223231
3.0375 0.3474 0.71972
3.1015 -1.5344 -0.688191
3.01111 0.690894 -0.182044
3.10307 -0.579875 0.018705
2.96553 1.30105 0.202841
3.12304 -0.55513 -0.0932198
2.92263 0.0480205 1.42736
3.11527 -1.25685 -0.442448
2.97138 -0.587562 0.620502
2.97855 0.358526 1.39937
2.93618 -0.20534 1.07591
3.09767 0.115766 -0.284386
3.02765 0.199915 -0.874675
2.95057 0.147382 -1.24884
3.19274 -0.915302 -0.689778
3.16001 -1.07095 -0.520656
2.91416 -0.434672 0.977972
2.99484 0.53485 -0.57105
3.10186 -1.09345 -0.251458
2.97447 -0.0234314 -1.34667
2.97074 0.74535 -0.41555
2.95997 -0.191094 0.963724
2.97573 0.997249 -0.0344485
3.14682 -0.275636 -0.685094
3.03794 -0.270847 0.495247
3.00798 0.772482 -0.0706017
3.02173 0.685906 -0.0689162
3.11048 -1.45275 -0.62446
3.12624 -0.307812 -1.0155
2.93652 0.15399 1.4742
3.02881 0.198196 0.756104
3.01338 0.260479 -0.865419
3.14657 -0.632941 -1.30048
3.10141 -0.739693 -1.57124
3.0706 0.325412 0.131438
2.99112 0.716383 -0.316063
3.03195 0.741818 0.235232
2.98816 1.12631 0.218594
3.04296 0.656407 0.438123
3.06879 0.338932 -0.160172
3.02184 0.360948 0.915602
3.20715 -1.04849 -0.91824
3.14753 -0.347543 -0.885057
3.05666 0.428912 0.367718
3.18675 -0.663234 -0.999336
3.03224 0.0170861 -1.09473
3.03521 0.904708 0.654732
3.07314 -0.0491024 0.318522
3.06997 -1.24855 -0.251712
3.02199 -0.158994 0.639754
3.03 0.779762 0.278028
3.17906 -0.632541 -1.05385
3.04654 0.349962 0.599218
3.04149 -0.253172 -1.35752
2.92326 0.979033 -0.387563
3.05235 0.335745 0.515265
3.04508 0.611403 0.268597
3.05658 0.463218 0.291532
3.02975 -0.972642 0.121182
3.11314 -0.254743 -1.02791
3.15615 -0.794341 -1.39783
3.05887 0.444418 0.0171418
3.03368 0.307964 0.752126
3.0261 0.432018 -0.514868
3.05031 0.42569 -0.2675
3.01532 -0.915265 0.216955
3.20737 -1.11219 -0.959416
3.03552 0.193936 0.691924
2.95096 -0.317575 0.909425
3.07369 -1.04545 -0.100377
3.00404 0.670805 -0.283945
3.05304 0.063403 -0.929573
3.04675 -0.0848134 0.512253
2.96793 -0.378139 0.784769
2.95824 -1.39251 -0.0219978
2.93967 0.797252 -0.524132
3.14388 -1.04699 -0.416326
3.02913 -0.590919 -1.67074
3.0492 -0.41356 0.37106
2.95809 1.48126 0.278529
3.01707 1.09592 0.491036
2.99803 -1.64359 -0.445176
3.13055 -0.646179 -0.161641
2.97151 -0.297844 -1.59553
3.03309 0.941549 0.628951
2.98325 -0.493209 -1.71096
3.0221 1.0939 0.555286
2.98613 1.16528 0.239468
3.13953 -0.311375 -0.903125
3.14514 -1.30158 -0.626503
3.18019 -0.754408 -1.21066
3.14218 -0.397797 -0.246363
3.2035 -0.881822 -0.845858
3.04046 0.0504296 0.60193
3.2076 -1.09934 -1.21495
2.92667 -0.359584 0.987694
2.93772 -0.932281 0.474211
3.19507 -1.09878 -1.35873
3.07021 -1.61366 -0.665248
2.99669 0.700006 -0.297806
3.03955 0.500734 0.725296
2.93295 -0.69093 0.69029
2.98654 -0.089543 0.890903
2.97947 -1.32853 -0.0204516
3.04266 0.284376 0.642214
2.97545 0.833079 -0.259019
2.92 -0.363087 -1.75368
3.20174 -0.94238 -1.19336
3.20554 -1.26126 -1.1727
3.08429 0.157345 -0.478755
3.12318 -1.20558 -0.433262
2.92451 -0.0105181 1.34068
2.97224 -1.29445 0.0360531
3.08779 -0.740086 -1.61319
2.97101 -1.39989 -0.0684914
3.17041 -0.897057 -1.4019
3.20408 -0.845119 -0.918841
3.00193 -0.958477 0.232687
2.97122 -1.3662 -0.0336004
2.99273 0.716012 -0.304032
3.1283 -0.353319 -0.126041
3.00016 -0.00112969 -1.24073
3.01549 -1.42601 -0.237204
2.96278 1.47706 0.303606
3.16082 -0.423439 -0.872891
2.98992 -1.04185 0.207492
3.17009 -0.759803 -1.2895
3.01693 0.0169559 -1.1585
3.19327 -0.925295 -0.697465
3.19566 -0.788922 -1.08574
3.04257 0.374687 -0.476147
3.10637 -0.0344599 -0.67565
3.08082 0.235983 -0.265243
3.04422 0.631567 0.471153
3.17197 -0.828614 -0.487506
3.064 -0.344306 0.318196
3.13166 -0.143422 -0.471378
3.08943 -0.579699 0.0925894
3.12656 -0.759052 -0.176298
3.06158 0.305161 0.378869
3.03979 0.497009 -0.242539
3.0532 0.230376 0.514604
2.963 0.269758 1.4178
2.92424 -0.0832173 1.26026
3.20479 -1.22733 -1.03581
2.92145 -0.0568769 1.30582
3.12835 -0.41515 -1.15354
3.20392 -1.10802 -1.27369
3.06674 -1.60291 -0.63573
2.9881 0.732112 -0.314802
3.004 0.924552 0.129608
3.03286 0.642886 0.00486378
2.96081 0.567012 -0.715652
3.13509 -0.19383 -0.34402
2.9694 -0.0212606 1.04746
3.20823 -1.20876 -1.15626
3.2002 -0.944463 -1.21468
3.08438 0.223753 -0.128923
3.02225 0.711808 -0.00867762
3.05461 -0.625412 0.241402
3.03196 0.611016 -0.086856
2.91937 0.890749 -0.511119
2.97587 1.11693 0.107028
3.08178 -0.815199 0.0157085
3.18144 -0.647185 -0.593445
2.97572 0.424342 -0.831042
3.05085 -1.1301 -0.0791407
2.98591 1.08848 0.158778
3.03042 0.157711 0.724329
2.9312 -0.379626 0.950286
3.15214 -1.37169 -0.739228
2.9727 0.225088 -1.08862
3.03734 -0.395575 0.440465
2.9552 1.4221 0.22518
3.03888 0.753436 0.796994
3.19994 -0.857422 -1.12044
3.0354 0.772826 0.421734
3.0828 0.0686205 0.201839
2.95144 -1.27105 0.122964
3.04679 0.373758 -0.434648
3.08065 -0.179063 0.250193
3.16167 -0.664421 -0.382809
2.98343 0.240533 -1.02848
2.96351 0.452974 -0.850294
3.04373 -0.142827 0.512477
3.09555 -0.735985 -0.00650518
3.065 0.37093 -0.13458
3.06483 0.346725 -0.238505
2.96573 -1.1629 0.181298
3.01043 -0.0123586 -1.21615
3.07046 0.305679 -0.257419
2.93957 0.776935 -0.550375
2.95525 1.29425 0.129987
3.17528 -0.766692 -1.26133
3.13404 -1.14558 -0.436215
3.15487 -0.725896 -0.339504
3.09891 0.106981 -0.213041
3.01486 0.0371961 0.787394
2.97734 1.41955 0.362112
3.08946 0.0467457 -0.686086
3.03313 0.611163 0.922417
3.10609 0.0430469 -0.409247
3.15747 -0.487351 -0.373789
3.05481 -0.444456 0.328256
3.08593 -0.565239 -1.49053
3.0497 0.511278 -0.0147675
3.19327 -1.01591 -1.33268
2.92279 1.28977 -0.0640413
3.14385 -0.93377 -0.35052
3.09587 -0.105011 0.119071
2.99884 0.988327 0.161393
3.03162 -0.991255 0.100335
2.96316 0.858505 -0.307825
2.94518 -0.816525 0.544655
2.93876 -0.156476 1.10635
3.1691 -0.486141 -0.891639
3.00023 -0.256903 -1.48781
3.04357 0.645625 0.442855
3.0385 -0.500675 -1.58195
3.13105 -0.573754 -0.148896
2.99226 0.0284113 0.937949
2.99704 1.09031 0.263221
3.06459 0.237766 -0.536036
3.02792 0.922057 0.485743
3.04133 0.488275 -0.242025
2.93982 0.815463 -0.500223
3.06599 -1.48543 -0.481029
3.20276 -0.866657 -0.837213
3.09896 -0.296624 0.105494
2.99447 1.26658 0.392581
2.97457 -0.835053 0.425393
2.95631 1.34319 0.175916
3.1966 -1.36164 -1.15051
2.93681 1.28325 0.00844981
2.99263 0.202866 1.07355
3.15595 -1.19402 -0.58769
3.09494 0.0940664 -0.0118864
3.05618 -0.133851 -1.17228
2.9896 0.931062 -0.00581203
3.10484 0.0151173 -0.560227
3.02481 0.312711 0.852459
3.12055 -0.683602 -1.46292
3.20086 -0.890473 -1.14939
3.20299 -0.95486 -0.82437
3.02072 0.786809 0.118721
3.01343 0.479566 1.13611
2.98835 1.15485 0.248386
3.00846 0.472709 1.19926
2.98483 0.472513 -0.720193
3.15419 -0.399159 -0.390561
3.03101 0.556025 0.921995
3.02209 -0.125554 -1.29541
3.03723 0.192186 0.675224
3.01737 1.08935 0.489358
3.1311 -1.24974 -0.508281
3.08441 -0.657503 -1.56652
3.04718 0.26195 0.5862
3.19257 -0.690188 -0.924792
2.99951 -0.325044 0.669134
3.16959 -0.949731 -1.44093
3.01347 -0.0327725 0.758522
3.10665 -0.0819666 -0.00882344
3.00672 -0.50749 -1.6674
3.19856 -0.795145 -0.792825
3.04523 -0.359147 0.416267
3.14806 -0.516709 -1.15838
2.97002 -0.273978 0.849658
2.95635 0.598619 -0.696249
3.08667 0.175213 -0.370943
3.13088 -1.44059 -0.706816
3.07865 0.0288269 -0.816477
3.13373 -0.177805 -0.630425
2.92064 1.13391 -0.228583
2.99624 -0.865853 0.323543
2.96169 -0.859242 0.452342
2.92932 1.40512 0.0667504
2.9427 -0.141048 -1.53819
3.06573 -0.446654 -1.45669
3.01991 -0.0216422 0.721442
3.167 -1.39968 -0.868617
3.14839 -1.08198 -0.463173
3.12979 -0.135308 -0.540622
2.9916 0.142287 1.02993
3.02041 0.562228 1.136
2.92266 -0.287568 1.0695
3.15906 -0.381084 -0.511956
3.09238 0.0663001 -0.60712
2.99149 1.21229 0.326557
3.00822 -0.809461 0.319731
2.99494 1.0889 0.24149
3.01095 -1.19372 0.00616475
3.02219 0.953303 0.418717
3.116 -0.116154 -0.107456
3.05025 0.349572 0.544648
3.05843 0.274057 0.441443
2.93291 0.180622 1.54838
3.0876 -0.964699 -0.101081
3.08043 -1.3513 -0.389433
3.09812 -0.319116 -1.19881
3.01157 0.226754 -0.920584
3.09888 -0.117154 -0.912026
3.11716 -0.945298 -0.221292
3.0723 -0.595664 0.172494
3.0735 0.310471 -0.119861
3.07635 0.182382 0.222418
3.08248 0.16928 -0.47324
3.09716 0.118796 -0.174456
2.96278 0.13932 1.24771
3.06688 0.287829 -0.383639
3.18089 -0.902878 -1.34404
3.02212 0.400041 -0.600261
3.18158 -0.76667 -1.21294
2.99554 -1.37756 -0.121283
2.97407 0.0777614 -1.24563
2.99844 -0.302774 0.688094
3.19809 -1.10915 -0.828934
3.1594 -1.19338 -0.606621
3.09892 -1.22129 -0.341574
3.13434 -0.171081 -0.573369
2.96973 -0.722436 0.528366
2.99327 -1.28294 -0.0190295
3.17534 -0.511959 -0.657991
2.9722 -0.773249 0.481059
3.00428 -0.0328757 -1.26014
3.00226 -0.698327 0.419567
3.08003 0.216383 0.110317
3.1929 -1.37722 -1.10238
3.03236 -0.226737 -1.36246
3.05698 0.47247 0.13371
2.95107 0.57623 -0.75043
2.93829 -0.389973 -1.7356
3.02427 0.571083 1.07364
3.08391 0.15824 0.11587
2.97978 0.689258 -0.437898
3.10146 -0.630214 0.00936404
3.0685 -0.118672 -1.09639
3.04795 0.117979 0.556471
3.0966 -0.337624 -1.22772
3.19504 -0.931779 -1.25781
3.03118 0.520891 0.892079
3.11777 -0.050588 -0.510462
2.97408 -0.422753 0.725263
3.04491 0.256876 0.611604
3.10426 -0.53223 -1.39565
3.00389 -0.236234 0.699734
3.16464 -0.49002 -0.96842
3.00035 0.277061 -0.907951
2.97995 0.0599765 1.0465
3.06523 -0.806424 0.0928742
3.04008 0.674286 0.709994
3.14286 -0.877153 -1.51539
3.10298 -0.786984 -0.0675165
3.12768 -0.216336 -0.837274
3.04745 0.57798 0.21638
2.97126 -0.120677 0.956727
3.02821 -0.979211 0.121981
