ply
format ascii 1.0
comment Created by Open3D
element vertex 400
property double x
property double y
property double z
end_header
-0.734677 2.48674 -1.80633
-1.17344 1.50215 -2.5413
-1.07178 2.47744 -1.63823
-2.4916 1.51104 -1.25695
-0.735568 2.4937 -1.79976
-1.42876 3.09849 -0.040793
-1.00768 3.13151 -0.970992
-1.64381 2.15428 -1.49953
-1.60606 2.11278 -1.58961
-2.15627 1.69148 -1.49535
-1.64165 1.3616 -2.43435
-2.04946 1.5361 -1.85906
-1.76432 1.36019 -2.34873
-0.744852 3.44475 -0.800459
-0.573987 2.78627 -1.60102
-0.997735 3.22282 -0.856059
-1.47549 2.93613 -0.544557
-1.08481 2.97359 -1.09333
-1.79775 1.36309 -2.31958
-1.46397 1.26129 -2.66272
-1.13116 1.88096 -2.18096
-1.45132 2.90325 -0.676291
-1.90012 1.61587 -1.90812
-0.193832 2.97714 -1.52482
-0.4735 2.81928 -1.60446
-1.28765 2.00501 -1.9665
-1.84553 1.36494 -2.27936
-0.583582 2.79164 -1.59272
-1.89687 2.25894 -0.986442
-1.288 2.70986 -1.20675
-2.52473 1.38161 -1.45948
-2.05221 1.51301 -1.88838
-0.974195 3.2501 -0.843692
-2.33761 1.78434 -0.99678
-1.14204 2.89701 -1.12989
-1.91815 1.64204 -1.85567
-0.920243 1.83952 -2.31678
-2.20054 1.61218 -1.55795
-1.78371 1.79653 -1.79496
-1.33354 2.57981 -1.31541
-2.33318 1.67306 -1.23669
-0.682577 2.98346 -1.37104
-1.93496 2.40271 -0.577501
-0.93085 2.49213 -1.70844
-1.89583 2.41122 -0.674615
-1.19507 3.31809 -0.258957
-1.31861 2.06022 -1.88921
-0.781247 2.29729 -1.95606
-2.55625 1.36165 -1.44445
-1.32531 1.7229 -2.232
-0.975058 3.33833 -0.704179
-0.884124 1.9988 -2.18364
-0.447485 3.38444 -1.06612
-0.678115 2.94596 -1.40962
-1.67286 1.31023 -2.47593
-1.98201 1.78311 -1.59222
-2.2615 1.60298 -1.48361
-1.69846 1.99715 -1.63458
-0.962655 2.37585 -1.80022
-0.558317 3.01898 -1.39258
-2.54534 1.36819 -1.45042
-1.76316 1.64635 -1.99828
-1.96109 1.36531 -2.18024
-0.954297 3.44082 -0.542209
-0.873652 3.25617 -0.939512
-1.5928 2.90123 -0.179591
-0.775477 3.45873 -0.749526
-1.19611 2.79481 -1.19898
-1.68858 1.34978 -2.4165
-1.77212 1.63472 -2.00454
-2.59782 1.27526 -1.54808
-1.17723 3.00317 -0.95243
-1.95147 1.50228 -2.00654
-2.1218 1.86595 -1.26418
-0.754165 2.87648 -1.43842
-1.24051 2.86656 -1.0614
-1.79719 1.86527 -1.69506
-1.09112 1.98739 -2.09886
-2.39016 1.61808 -1.23597
-1.09686 3.39319 -0.336265
-0.205704 3.04791 -1.46027
-0.47128 3.45057 -0.97976
-1.23146 2.66956 -1.31093
-0.273926 3.33553 -1.174
-1.86355 2.46539 -0.631446
-0.863908 3.21449 -1.00134
-2.26319 1.76138 -1.19979
-2.12831 2.0113 -0.985078
-2.00545 1.70603 -1.67188
-1.40277 2.59673 -1.22006
-0.705374 2.81884 -1.5173
-1.94123 2.06876 -1.22736
-0.248704 2.82448 -1.64982
-1.30725 2.98107 -0.801993
-1.90276 1.71466 -1.77654
-1.65604 2.06009 -1.60184
-0.921777 3.10988 -1.0789
-1.42846 2.6574 -1.10954
-0.18616 3.03808 -1.47169
-1.94708 1.36447 -2.19388
-2.27764 1.88941 -0.901455
-1.76001 2.63877 -0.479807
-0.932087 2.00245 -2.16023
-1.71946 2.64975 -0.581447
-1.79247 1.54873 -2.09234
-2.02839 2.04322 -1.1224
-1.8399 2.29215 -1.03402
-0.475395 3.00039 -1.44028
-2.06163 1.53374 -1.84889
-2.7873 1.16798 -1.44192
-1.0084 2.19782 -1.94261
-1.56679 1.37362 -2.469
-1.57976 2.49021 -1.13831
-0.497068 2.6626 -1.7346
-0.759051 3.20453 -1.09438
-0.872485 3.07428 -1.15956
-1.4882 2.05274 -1.76698
-1.10022 2.33471 -1.75976
-1.76997 2.07242 -1.4587
-1.87172 1.88352 -1.58804
-0.696055 3.29439 -1.03349
-1.9245 1.31491 -2.27959
-0.486553 3.09076 -1.3514
-0.715274 2.26073 -2.01327
-1.70423 1.81441 -1.8493
-1.73228 1.44629 -2.2666
-1.71995 2.35009 -1.13863
-0.841393 2.26243 -1.96237
-1.77181 2.37094 -1.02214
-1.3688 2.28108 -1.6185
-1.64647 1.44789 -2.3278
-1.34861 3.10747 -0.44849
-1.35315 1.81286 -2.12134
-1.90307 2.02911 -1.34457
-1.54274 2.35666 -1.361
-0.820654 2.1448 -2.07666
-1.92401 2.40523 -0.606118
-1.71354 2.04142 -1.56365
-1.80172 2.56825 -0.546233
-0.910018 3.32781 -0.802312
-2.28531 1.59137 -1.4666
-0.329752 3.12314 -1.36781
-1.6499 1.32547 -2.47266
-1.49812 1.28651 -2.61354
-0.397931 2.90579 -1.54866
-2.02445 2.21961 -0.783135
-1.7781 1.8194 -1.77218
-2.59109 1.30461 -1.49978
-2.04654 1.72607 -1.59226
-0.696429 2.7035 -1.62756
-1.97156 2.20735 -0.932207
-1.40602 1.83824 -2.05985
-1.13243 2.5628 -1.50969
-1.4871 1.60773 -2.25395
-0.528364 3.46428 -0.933353
-1.60008 2.33106 -1.32647
-2.06284 1.5302 -1.85252
-1.87147 2.06753 -1.33309
-1.56935 2.9284 -0.178523
-2.01866 2.03059 -1.16136
-1.72661 2.50554 -0.872428
-1.75754 2.16406 -1.35113
-1.44863 1.30072 -2.62459
-2.20257 1.38287 -1.90938
-0.629424 2.63728 -1.71353
-2.42962 1.64316 -1.10197
-1.795 1.52829 -2.11544
-1.43454 2.90381 -0.710119
-1.93822 2.41042 -0.543376
-1.31476 1.95418 -2.0005
-1.43298 1.53413 -2.36922
-2.2313 1.35716 -1.91535
-1.48926 2.93092 -0.519547
-2.21959 1.63761 -1.48924
-1.96483 2.30518 -0.740631
-2.06532 1.68678 -1.62549
-1.78112 2.59368 -0.541616
-1.41331 1.84804 -2.04449
-1.90929 1.85316 -1.58424
-0.923573 3.32788 -0.786564
-0.826219 2.62308 -1.64102
-1.2264 1.70278 -2.30829
-1.13317 2.21319 -1.85763
-2.20702 1.57747 -1.604
-0.567658 2.39253 -1.94662
-0.975723 2.50009 -1.67562
-0.817387 2.76726 -1.50976
-1.5275 2.66994 -0.949015
-2.10416 1.77505 -1.43952
-0.513367 3.25623 -1.17569
-2.02203 1.30338 -2.20954
-1.25347 2.44948 -1.53368
-0.721779 3.07535 -1.25779
-0.687159 3.50897 -0.758676
-2.25489 1.93682 -0.847036
-1.3032 2.79136 -1.08619
-0.75734 3.0016 -1.31287
-0.910018 2.55606 -1.65966
-1.76929 2.16862 -1.32937
-0.759015 2.28064 -1.97954
-1.01331 2.74434 -1.4097
-0.629438 3.10151 -1.28025
-2.35293 1.76661 -1.0008
-2.14904 2.00512 -0.952034
-0.50421 2.64591 -1.74699
-2.09674 2.15354 -0.746394
-1.59714 2.25596 -1.42509
-1.40997 2.94681 -0.675697
-0.692505 2.31239 -1.97599
-0.786826 2.19027 -2.04917
-2.06 1.87136 -1.35404
-2.47962 1.30272 -1.68113
-1.45904 2.88231 -0.702009
-1.34543 2.71078 -1.14118
-1.69843 2.29063 -1.25502
-1.25792 2.06439 -1.92595
-1.85027 2.4018 -0.810613
-1.94203 1.5664 -1.93096
-0.717105 2.68771 -1.63298
-1.0532 2.058 -2.05115
-0.442507 3.33503 -1.12191
-1.65695 2.63993 -0.760819
-1.66087 2.54928 -0.919451
-2.80745 1.16445 -1.4109
-1.2518 2.99487 -0.864968
-0.977787 2.02522 -2.11869
-1.55219 2.82333 -0.614582
-1.44034 2.90948 -0.687004
-1.77605 2.43819 -0.897743
-0.194652 3.09876 -1.41578
-1.40438 3.09503 -0.28227
-1.10116 1.65078 -2.42236
-1.19561 1.81235 -2.21447
-1.57731 2.81188 -0.575861
-1.33101 2.87735 -0.929414
-1.04353 3.02677 -1.06837
-0.976019 2.53942 -1.63776
-1.16716 3.23545 -0.578576
-1.24186 2.00075 -1.99998
-0.66613 2.41081 -1.8992
-1.89076 2.28783 -0.945812
-1.47258 2.10603 -1.72147
-2.5233 1.47633 -1.26763
-1.73096 2.39063 -1.05908
-1.66628 2.53877 -0.927583
-1.16493 3.08935 -0.84239
-1.41061 2.64634 -1.1468
-2.38994 1.31281 -1.78919
-0.433464 2.69081 -1.72736
-1.69074 1.86961 -1.79609
-1.24727 2.50127 -1.48334
-1.6396 1.30123 -2.5091
-2.303 1.81176 -1.01596
-1.87177 2.29911 -0.962627
-1.77136 1.85902 -1.72981
-2.11594 1.75148 -1.45926
-0.568259 3.33502 -1.06377
-1.51795 1.66418 -2.1706
-1.00251 2.44582 -1.7118
-2.00894 1.77946 -1.56334
-1.11425 3.18916 -0.75548
-1.37354 2.94786 -0.74505
-1.40166 1.7862 -2.11778
-1.56843 2.92598 -0.203279
-1.02479 1.95397 -2.16363
-2.00123 1.43125 -2.05354
-1.44038 1.44622 -2.46253
-1.2505 3.2477 -0.320956
-1.25099 1.88593 -2.10951
-0.301157 2.8036 -1.65904
-1.99333 1.38438 -2.12485
-1.5214 2.30019 -1.4532
-0.584417 2.3265 -1.99847
-0.18558 3.06997 -1.44311
-1.26317 1.50295 -2.49707
-1.53111 2.0413 -1.74281
-0.939321 3.37994 -0.682047
-0.918143 2.70109 -1.51596
-1.77546 1.81206 -1.78393
-1.20053 3.20702 -0.571257
-1.56025 1.55475 -2.26396
-1.25806 2.96828 -0.896534
-0.674537 2.48641 -1.82994
-1.4304 2.9865 -0.539883
-0.552547 3.38068 -1.02002
-0.918093 2.6584 -1.55745
-2.06787 2.04771 -1.03947
-1.11457 2.18687 -1.89428
-0.60727 3.30476 -1.07642
-1.65365 2.41954 -1.13455
-1.43111 2.65005 -1.11608
-1.04093 3.25485 -0.752107
-1.57524 2.17426 -1.54773
-1.99509 1.70594 -1.68436
-0.806116 3.50172 -0.643807
-2.0576 2.14351 -0.870095
-2.03454 1.79769 -1.50298
-1.99197 1.76812 -1.60097
-1.56915 1.66755 -2.13009
-1.53446 1.94687 -1.84554
-0.980092 2.97132 -1.19068
-1.48608 2.28988 -1.5013
-1.46573 1.28043 -2.63903
-1.53102 1.49516 -2.35126
-0.788919 2.15781 -2.07731
-2.36836 1.74833 -1.00595
-0.57096 2.70881 -1.67101
-1.47568 2.65458 -1.04998
-1.76395 2.57899 -0.632196
-1.68214 2.23487 -1.35178
-0.838296 2.41935 -1.82198
-1.84416 2.45696 -0.705742
-0.892807 2.38949 -1.82335
-1.9001 2.46026 -0.527127
-1.23212 1.71477 -2.29303
-1.30325 2.40032 -1.54501
-2.21395 1.93633 -0.949956
-1.49716 1.40524 -2.47533
-2.14291 2.00352 -0.969054
-1.36289 3.12807 -0.330983
-1.32776 2.10755 -1.8339
-1.96724 2.28751 -0.774989
-1.54934 1.435 -2.40843
-0.571972 2.36423 -1.96967
-1.2596 1.84057 -2.15016
-1.69251 1.24904 -2.53904
-0.953244 2.44547 -1.74006
-1.95193 2.34421 -0.681715
-1.08532 3.33538 -0.525119
-1.90598 1.97525 -1.41847
-0.754815 3.30677 -0.97614
-0.504485 3.14471 -1.29232
-0.727528 2.68147 -1.63405
-1.81584 1.88119 -1.65464
-2.09377 1.48493 -1.88243
-1.16306 2.02205 -2.02602
-1.84559 2.53147 -0.503715
-1.98594 1.44407 -2.05101
-1.52105 2.47123 -1.24057
-1.18702 3.22971 -0.549733
-1.75824 2.53627 -0.743919
-1.38525 2.27334 -1.6129
-2.17674 1.93854 -1.02794
-1.10321 2.62359 -1.46865
-1.75976 1.74889 -1.87664
-1.04028 2.67993 -1.45665
-2.10149 2.14797 -0.746917
-1.48103 2.47606 -1.28202
-1.30244 2.23525 -1.72023
-1.61556 2.50702 -1.06186
-0.961269 3.43873 -0.534318
-2.0245 2.05379 -1.11098
-1.69618 2.01992 -1.60899
-1.0959 2.33707 -1.76016
-2.36574 1.7028 -1.11152
-1.31347 3.21353 -0.16185
-2.42135 1.64565 -1.1146
-2.20668 1.95027 -0.93657
-0.652638 2.35343 -1.95383
-2.70914 1.27151 -1.35251
-0.457661 3.26723 -1.18717
-1.27881 2.13623 -1.83921
-1.51732 2.9932 -0.131727
-1.3657 2.73225 -1.08822
-1.4532 2.97275 -0.512518
-1.51272 1.82045 -2.00234
-1.65173 2.78931 -0.394707
-1.39627 3.08877 -0.344389
-0.95808 3.33861 -0.726644
-1.50068 2.93856 -0.463636
-1.24179 3.19123 -0.514837
-0.84874 2.54564 -1.70145
-1.40349 3.12693 -0.0122329
-2.03378 1.98362 -1.21437
-0.98058 2.17065 -1.98207
-0.280495 2.91691 -1.56445
-1.48912 1.31509 -2.58489
-1.21742 3.1796 -0.595136
-1.29176 3.21485 -0.281888
-1.07481 2.49331 -1.62057
-0.236046 3.08266 -1.42418
-1.64437 1.44463 -2.33315
-1.34483 3.18468 -0.122393
-1.12553 1.84425 -2.21968
-2.00605 2.04133 -1.16504
-0.493363 2.72044 -1.6854
-1.8265 2.00075 -1.48529
-1.12254 3.14323 -0.817479
-2.06617 2.16809 -0.794046
-0.963065 2.28872 -1.8812
-0.554343 2.63547 -1.74085
-1.12347 3.27899 -0.572608
-1.75251 2.59768 -0.618153
-0.769587 3.39908 -0.842659
-0.571547 2.63509 -1.73561
-1.23114 2.14013 -1.86754
-1.18744 3.32573 -0.258511
-0.602731 3.51157 -0.823758
-0.874394 3.1303 -1.09396
-2.21567 1.36939 -1.91474
