ply
format ascii 1.0
comment Created by Open3D
element vertex 250
property double x
property double y
property double z
end_header
3.21487 0.643871 0.829426
3.58075 -0.0454604 -1.284
1.9961 -2.31001 -0.497967
2.97221 -1.53885 0.0643541
3.5567 0.501242 0.401056
2.64255 -1.37649 1.05978
1.38343 -2.11927 2.27463
2.37342 -1.88875 0.713529
3.12174 0.643364 0.9564
3.37748 -1.01382 0.301076
3.68264 -0.74982 -0.762209
2.69883 -1.61679 0.600841
3.80527 -0.467796 0.0211523
2.76374 -0.979987 1.24843
3.7931 -0.191039 0.1916
3.87037 0.205313 -0.0694044
2.47717 -1.28649 1.38059
1.55713 -2.52542 1.21291
2.1588 -1.50777 1.61837
2.26002 -2.0978 -0.545165
3.77242 -0.483001 -0.895974
1.76193 -2.34188 1.10854
3.11557 -0.933396 0.822002
2.04742 -2.02273 1.13002
2.39226 -2.03992 -0.197504
3.52448 -0.151466 0.63264
2.53787 -1.14015 1.41934
3.88699 0.148672 -0.760554
2.23792 -2.16009 0.0579432
3.39597 -1.10872 0.0633795
3.13005 0.7498 0.876489
3.70785 0.142567 -1.10231
3.46168 0.755266 0.32827
3.37372 -0.617288 -1.33676
3.55521 -0.0526104 -1.31093
1.39018 -2.16549 2.20589
2.06492 -2.275 -0.395233
3.48123 -0.336951 -1.34791
3.32027 -0.381776 0.855886
2.22396 -2.16636 0.12675
2.27941 -2.12601 0.0619308
2.45889 -1.58514 1.08439
3.85912 -0.518472 -0.583093
3.91888 0.0874303 -0.159489
2.5007 -1.89724 -0.620374
3.94521 -0.0979548 -0.644164
1.48765 -2.78491 -0.070665
3.95975 -0.0279161 -0.543255
1.88774 -1.85221 1.66701
3.66421 -0.181021 0.421991
3.46056 -0.749159 -1.14768
2.5897 -1.88415 -0.18199
1.45969 -2.81929 0.217825
3.73843 0.562033 -0.113662
2.84751 -1.58511 0.32194
1.28467 -2.98331 0.397535
2.58352 -1.84369 0.253977
3.1863 0.569954 0.911405
3.26393 -1.3019 -0.443922
2.61819 -1.47499 0.976743
2.57589 -1.57878 0.899686
1.89723 -2.20021 1.10045
2.43757 -2.0013 -0.258731
3.68673 0.300301 0.299247
3.83022 0.45482 -0.431567
3.52566 -0.551197 -1.21175
3.49631 -1.05165 -0.1461
1.49683 -2.51839 1.39669
3.34412 0.283532 0.82381
2.94316 -1.12623 0.889647
3.56151 -0.968076 -0.127554
2.06851 -2.28615 -0.288933
3.32721 0.559636 0.723005
2.1878 -2.13883 0.478099
2.09099 -2.26937 0.205152
1.43481 -2.14542 2.13808
1.3744 -2.89931 0.245393
3.8665 -0.405996 -0.103536
3.73103 -0.682654 -0.0439039
2.80483 -1.42229 0.742844
2.67273 -1.00948 1.34204
3.39498 -0.95095 -1.02028
3.75922 -0.00461849 0.265281
2.17924 -1.60169 1.49383
2.62003 -1.66205 0.672359
3.87948 0.336782 -0.331512
1.7793 -2.09942 1.52667
3.26205 0.496674 0.84783
2.15303 -2.21701 0.20811
3.4586 -0.972298 0.189038
1.9537 -2.35009 -0.461597
1.65006 -2.46773 1.09559
3.62677 -0.143167 0.484932
3.68327 -0.704709 0.0606468
3.70837 -0.768282 -0.633502
2.05234 -2.30243 0.198958
3.17698 0.0213156 1.07415
3.48056 0.582762 0.468521
3.19668 -1.24224 -0.871969
2.77691 -0.722735 1.37756
3.82221 -0.557789 -0.152207
3.7737 0.212119 0.173939
3.76496 -0.115068 0.256351
3.19577 0.208603 1.02859
3.82807 -0.504589 -0.737648
2.89807 -0.886218 1.14248
2.71979 -1.17409 1.15427
1.26069 -3.00815 0.3851
1.54917 -2.47107 1.36224
2.35195 -1.89503 0.747888
2.38385 -2.03792 -0.321723
3.15443 -1.30503 -0.817443
2.27593 -2.04756 0.523467
3.11319 0.389073 1.08116
1.38507 -2.84715 0.718805
3.52339 -1.00575 -0.0900146
1.61852 -2.57674 0.860511
3.49386 0.594175 0.435948
3.88094 -0.114827 0.00194523
3.86039 -0.438058 -0.719947
1.45355 -2.09279 2.16335
3.61341 -0.75207 -0.913533
2.71558 -1.56609 0.666383
3.92529 -0.368688 -0.451936
1.55777 -2.15904 1.87333
1.40267 -2.7764 0.967182
2.46132 -1.92945 -0.611637
2.67684 -1.79844 -0.423811
2.65235 -1.42144 0.991684
1.63827 -2.65833 0.184647
2.1168 -2.14944 0.670651
1.43209 -2.66066 1.23598
3.82094 -0.621339 -0.354545
1.29836 -2.95735 -0.0712632
2.36727 -2.02525 -0.499389
2.17463 -2.15942 0.440027
1.49272 -2.74779 0.657191
2.3732 -1.94319 0.57152
3.65755 -0.412702 -1.12247
1.5371 -2.23043 1.81497
3.57233 -0.293075 -1.2657
3.83515 0.444171 -0.443957
1.64326 -2.64139 -0.175573
3.7987 -0.403464 0.0894259
3.71803 -0.195419 0.330236
3.50936 -0.28575 -1.3329
3.11448 -0.568752 1.04406
1.94807 -1.9512 1.43327
3.58488 -0.612029 -1.09729
3.44353 -0.218065 0.733747
1.48079 -2.80021 0.156552
3.35643 -0.159998 0.853045
1.66636 -2.63016 0.258819
3.90564 0.272208 -0.379063
3.24421 0.503185 0.868472
3.94322 0.0235359 -0.23735
1.64929 -2.45264 1.13691
2.63184 -0.815085 1.50394
3.10492 -0.688694 0.999768
1.57921 -2.67555 0.58077
3.34637 -0.979228 -1.05555
2.90812 -1.61417 -0.415474
3.53034 -0.31716 -1.30383
3.84909 -0.309965 0.0226694
2.27378 -2.13316 0.0175122
1.54219 -2.29857 1.69992
1.53427 -2.15629 1.92386
3.79864 -0.645353 -0.561568
3.34697 0.113927 0.858
2.11281 -2.26414 -0.0733759
3.73945 -0.680797 -0.726092
1.82636 -1.9805 1.60975
2.49731 -1.92308 0.230234
3.53416 -0.367514 -1.28481
3.56273 0.146715 -1.27715
3.92667 -0.342831 -0.541822
3.92218 -0.160776 -0.723132
3.59819 -0.758776 0.191589
1.6667 -2.61969 -0.195471
3.14267 -0.995992 0.726462
1.69552 -2.60973 0.0605238
2.42281 -0.974945 1.66913
3.40331 0.195783 0.769588
3.32876 -1.24653 -0.310312
3.51918 -1.04678 -0.353247
3.44739 -0.220579 -1.40456
2.40488 -2.00302 0.223543
2.56209 -1.58587 0.912587
3.8892 -0.422569 -0.222236
3.34656 -0.956446 0.439573
3.77378 -0.691366 -0.547325
3.48848 -0.572606 -1.24156
3.22445 -1.091 0.484465
3.91872 0.234138 -0.43099
2.04 -2.23015 0.640726
3.42149 -0.245041 -1.42443
1.26319 -2.98823 -0.0936916
3.92164 -0.141401 -0.729693
3.08436 -1.32697 0.367462
3.02174 -1.5171 -0.0792295
0.947066 -3.20283 -0.584137
0.79979 -3.31822 -0.723836
1.02309 -3.03091 -0.867957
0.50728 -3.42516 -1.29252
1.51695 -2.70904 -0.433608
1.07505 -3.13531 -0.326168
1.2139 -2.71348 -1.18051
1.10937 -3.0774 -0.43695
0.742151 -3.15062 -1.2619
1.3055 -2.8249 -0.697769
1.50439 -2.51134 -1.07223
1.03548 -3.06304 -0.743684
0.743341 -3.06408 -1.41542
0.632824 -3.23001 -1.35382
0.766223 -2.99206 -1.49204
0.708976 -3.30711 -1.01753
1.23355 -2.79215 -0.968357
0.927916 -3.1739 -0.739313
1.47756 -2.61933 -0.865915
1.92227 -2.34571 -0.593969
0.738334 -3.2543 -1.05912
1.90874 -2.34467 -0.638962
1.43435 -2.60661 -0.990452
0.663108 -3.37384 -0.990429
0.896899 -2.78014 -1.59873
0.720357 -3.20576 -1.20356
1.38024 -2.62363 -1.05798
1.58117 -2.64246 -0.493641
0.927298 -2.78907 -1.53666
0.60516 -3.41093 -1.06734
0.842374 -2.97908 -1.37212
1.88972 -2.38546 -0.532868
0.720068 -3.19332 -1.22862
0.781028 -3.25338 -0.949774
1.63952 -2.58723 -0.525142
1.09015 -2.86425 -1.10828
0.986434 -3.21655 -0.37049
0.804966 -3.08709 -1.24868
1.33405 -2.89315 -0.304167
1.50776 -2.64653 -0.710448
1.05286 -2.81069 -1.28638
1.06096 -3.07605 -0.622554
0.991079 -2.86827 -1.29301
0.646515 -3.16252 -1.44182
1.16336 -3.04965 -0.320157
1.12413 -2.96939 -0.766342
0.794596 -3.37609 -0.562203
0.596341 -3.22778 -1.43628
1.08947 -2.96295 -0.87638
1.51552 -2.68102 -0.563015
