ply
format ascii 1.0
comment Created by Open3D
element vertex 250
property double x
property double y
property double z
end_header
0.391856 -2.78586 -1.87706
-0.433923 -3.77931 -0.031316
1.61389 -2.28444 1.32106
1.50396 -2.98666 0.155523
0.254379 -3.24371 -1.57348
1.99835 -2.38497 -0.565214
3.21869 -0.928036 -0.598282
2.12848 -2.27412 0.0871022
0.465542 -2.66241 -1.94131
1.3068 -3.25612 -0.464524
0.445778 -3.80858 0.0322909
1.88458 -2.58791 -0.0989424
0.758714 -3.68477 -0.739053
1.83676 -2.40886 -0.990428
0.661237 -3.59834 -1.03709
0.201464 -3.70187 -1.13236
2.1233 -2.13056 -0.806104
2.84768 -1.42364 0.370795
2.41162 -1.78441 -0.743531
1.45124 -2.52783 1.14439
0.167574 -3.90308 -0.0717255
2.66306 -1.62889 0.269274
1.55967 -2.85616 -0.81454
2.46729 -1.86328 -0.0316645
1.64864 -2.55434 0.824953
0.891863 -3.2178 -1.30211
2.04514 -2.16301 -0.945533
-0.205849 -3.91067 -0.611144
1.88967 -2.34993 0.7646
1.22461 -3.34797 -0.23945
0.334371 -2.68097 -1.95659
-0.443081 -3.83233 -0.317026
0.0064721 -3.14616 -1.66225
-0.0609552 -3.65466 0.435573
-0.448792 -3.76289 -0.000697989
3.20915 -0.957888 -0.521306
1.66188 -2.31888 1.20692
-0.267357 -3.73154 0.231224
1.18929 -2.98579 -1.25425
1.93787 -2.3186 0.723817
1.87101 -2.38504 0.728288
2.15189 -2.22413 -0.396608
0.407555 -3.90507 -0.293254
0.23605 -3.78489 -1.00478
1.27661 -2.75777 1.00142
0.0611853 -3.96044 -0.548081
2.19657 -1.73134 1.46674
0.0760842 -3.9398 -0.669125
2.67367 -1.54749 -0.479554
0.790887 -3.4116 -1.17166
0.170463 -3.70026 0.364524
1.56239 -2.72297 0.658796
2.40792 -1.63008 1.29278
-0.10865 -3.55064 -1.29841
1.69402 -2.8024 0.037348
2.63022 -1.43093 1.32021
1.81621 -2.59489 0.325763
0.497891 -2.74399 -1.87901
1.02441 -3.37887 0.281194
2.01545 -2.39432 -0.435555
2.03857 -2.38544 -0.30182
2.56552 -1.74591 0.145827
1.58437 -2.61027 0.830763
0.35204 -3.41653 -1.4054
-0.226418 -3.73561 -1.02841
-0.0131235 -3.75941 0.262888
1.05535 -3.49478 -0.155764
2.95622 -1.31547 0.252572
0.671826 -2.9484 -1.67266
1.73064 -2.6928 -0.689743
1.01153 -3.54351 -0.241117
1.74006 -2.29471 1.13807
0.397143 -2.9309 -1.77718
2.14301 -2.18607 0.467178
2.05258 -2.18079 0.771656
3.15442 -1.01687 -0.498542
2.47712 -1.54928 1.34863
0.637249 -3.77072 -0.707827
0.86967 -3.65357 -0.532599
1.84245 -2.63079 -0.355095
1.91061 -2.29947 -1.01273
0.398247 -3.62391 0.424007
0.566047 -3.52667 -1.2018
2.40283 -1.8474 -0.599644
1.95709 -2.49782 -0.098618
-0.0674234 -3.76791 -1.03538
2.75616 -1.50727 -0.189477
0.519163 -2.84128 -1.80668
2.02167 -2.23395 0.718572
1.21087 -3.35978 -0.434377
1.66333 -2.23817 1.333
2.73739 -1.53836 0.390924
0.799737 -3.35481 -1.23077
0.949566 -3.58184 -0.579195
0.546371 -3.80029 -0.0536195
2.06932 -2.1489 0.80809
1.01472 -2.74783 -1.63315
0.229428 -3.14414 -1.65383
0.693064 -3.42415 0.563093
1.72954 -2.35988 -1.25336
0.71471 -3.75721 -0.562262
0.345321 -3.5428 -1.28272
0.643644 -3.54601 -1.12489
0.846442 -2.75876 -1.72837
0.292959 -3.91573 -0.184633
1.71113 -2.55638 -1.01312
1.91628 -2.41237 -0.785153
2.63824 -1.41391 1.35172
2.90365 -1.36999 0.231852
2.15341 -2.24493 0.072717
1.56512 -2.57969 0.913762
0.771402 -3.37547 0.576987
2.11332 -2.24869 0.351626
0.736882 -2.6468 -1.8611
2.74837 -1.42599 0.976918
1.06036 -3.50076 -0.232736
2.66232 -1.58308 0.636895
0.200966 -3.1645 -1.64186
0.489275 -3.72584 -0.976536
0.257972 -3.93498 -0.24936
3.13339 -1.02252 -0.555868
0.341439 -3.7835 0.159498
1.89111 -2.58096 -0.18294
0.387752 -3.91739 -0.501752
3.00441 -1.20761 -0.335716
2.85939 -1.36829 0.750311
1.30239 -2.72105 1.02694
1.34916 -2.86294 0.750218
1.98859 -2.41743 -0.490348
2.28402 -1.79331 1.16276
2.2694 -2.06711 0.357161
2.95124 -1.31173 0.476667
0.630058 -3.81733 -0.377328
2.30591 -1.56819 1.63104
1.43783 -2.61059 1.0356
2.13221 -2.18589 0.51111
2.64475 -1.5354 0.926446
2.07651 -2.31797 0.223144
-0.0450083 -3.84714 0.0735875
3.01768 -1.21101 -0.242215
-0.237128 -3.79194 0.119783
-0.226014 -3.74479 -1.01403
2.03651 -1.89381 1.40506
0.754387 -3.65335 -0.82758
0.747316 -3.48943 -1.11194
-0.293038 -3.7491 0.179549
1.43115 -2.75727 -1.20948
2.60146 -1.67873 -0.265933
0.113406 -3.79141 0.205671
0.999482 -3.11986 -1.30819
2.35577 -1.66488 1.31792
1.02485 -2.99819 -1.40691
2.31426 -1.79721 1.08431
-0.0473485 -3.8125 -0.96665
0.525917 -2.81794 -1.8207
0.235626 -3.83587 -0.914572
2.75299 -1.52489 0.352054
1.86635 -2.19639 -1.24314
1.49117 -2.77252 -1.09722
2.5496 -1.63138 0.909893
0.391375 -3.58986 0.48058
1.24036 -3.06296 0.561362
-0.24832 -3.76457 0.17384
0.645869 -3.70995 -0.85509
1.84677 -2.39241 0.765892
2.99415 -1.25407 -0.117724
3.03292 -1.17116 -0.366881
0.510515 -3.85449 -0.209218
0.82166 -2.95944 -1.58681
1.86896 -2.2765 0.959281
0.423488 -3.84603 -0.0537111
2.72613 -1.51751 -0.338652
1.85132 -2.52703 0.417744
-0.197733 -3.76829 0.192251
-0.575441 -3.74031 -0.156834
0.309781 -3.94036 -0.455458
0.0543277 -3.96627 -0.44497
1.06685 -3.47058 -0.613442
2.00966 -1.91938 1.39861
1.54701 -2.91443 -0.713423
2.17242 -1.87666 1.20329
2.07251 -1.96818 -1.19895
0.708345 -3.02881 -1.59301
1.07688 -3.39903 0.133002
0.918741 -3.57221 -0.0186546
-0.395148 -3.70243 0.204415
1.89733 -2.44866 0.499709
2.05089 -2.36947 -0.302574
0.574484 -3.82627 -0.619208
1.35105 -3.18311 -0.591569
0.551755 -3.83161 -0.182503
-0.0203876 -3.7341 0.308011
1.46865 -3.06803 -0.502367
-0.0513646 -3.84301 -0.908599
2.30243 -2.01006 0.45183
-0.392465 -3.68556 0.241455
2.31078 -1.5438 1.67659
0.035455 -3.96552 -0.452843
1.55468 -2.99004 -0.227572
1.39898 -3.07067 0.229439
2.11859 -1.39617 2.24912
2.09862 -1.30497 2.46314
1.81211 -1.52793 2.31693
1.77702 -1.18996 3.01427
1.9056 -1.84975 1.66589
2.24972 -1.44187 1.98797
1.3896 -1.76227 2.27893
2.13747 -1.49869 2.01918
1.61544 -1.37804 2.74971
1.79802 -1.73085 1.98558
1.33882 -1.99006 1.99171
1.91867 -1.50949 2.24669
1.45037 -1.41176 2.80141
1.60361 -1.3065 2.89616
1.34866 -1.44694 2.80235
1.88902 -1.29637 2.68813
1.58924 -1.73182 2.175
1.99354 -1.41684 2.34513
1.55182 -1.91974 1.92363
1.57031 -2.24346 1.43225
1.82528 -1.33025 2.67509
1.53874 -2.24257 1.46704
1.45645 -1.91076 2.01508
1.95202 -1.25205 2.72497
1.13356 -1.57893 2.70398
1.69265 -1.34711 2.75038
1.41949 -1.87901 2.08859
1.8231 -1.92056 1.64747
1.18396 -1.59216 2.6577
1.92359 -1.22124 2.81927
1.42516 -1.48603 2.68846
1.63667 -2.19988 1.42382
1.66692 -1.35233 2.76006
1.90044 -1.34143 2.58562
1.76714 -1.97922 1.61787
1.53706 -1.63989 2.35984
2.27253 -1.37746 2.09636
1.58293 -1.42801 2.68187
2.1093 -1.65874 1.74413
1.67691 -1.90939 1.82329
1.37667 -1.64685 2.46088
2.0102 -1.50245 2.16265
1.40914 -1.59547 2.5199
1.49692 -1.33643 2.91059
2.19855 -1.51589 1.90386
1.84281 -1.59077 2.17755
2.24707 -1.26225 2.38806
1.54429 -1.29366 2.96288
1.76251 -1.58671 2.26052
1.7999 -1.88049 1.73948
