ply
format ascii 1.0
comment Created by Open3D
element vertex 200
property double x
property double y
property double z
end_header
1.28769 0.317374 2.79197
0.953555 2.9977 -0.272589
2.67034 2.25022 -0.0507793
-0.91525 2.29614 1.96986
-1.00503 2.95008 0.698249
-0.0135751 3.07175 0.353034
-0.634329 1.82643 2.47457
-1.37717 1.53967 2.76568
0.669371 2.25197 2.20697
1.50872 3.05856 0.963104
2.81508 2.55679 1.13202
1.30075 0.242784 2.79209
-1.15336 2.59914 1.49508
-1.40953 2.08891 2.20936
2.53317 2.76395 0.685011
2.81496 2.20264 1.63902
-1.24349 2.81349 1.05196
-0.167797 2.74254 1.42848
0.12553 2.54882 1.81159
-1.52135 2.19331 2.08694
-1.14554 3.08695 0.137984
2.37555 1.36616 2.18607
0.974571 0.74032 2.84389
0.374584 2.87575 1.3135
2.80914 2.45416 0.55194
-0.266942 2.23567 2.11559
0.134258 3.0522 -0.491851
2.11111 2.09477 2.1682
0.988941 1.82602 2.48638
1.943 1.70643 2.35207
2.32823 2.87022 0.636443
-0.0292224 3.08304 -0.281172
0.158931 2.67036 1.64175
-0.0579652 1.39324 2.76726
-0.131177 2.11421 2.25083
1.63374 2.9088 -0.0833844
2.53072 2.80633 0.975434
2.40968 1.85204 2.10481
2.33571 2.70562 0.174727
2.26423 2.37821 -0.46126
-0.779509 2.78099 1.19348
1.45174 1.61361 2.51128
0.993967 1.59546 2.58993
2.34035 1.47543 2.20233
-0.48736 3.00407 0.598787
-1.47576 1.77428 2.5565
2.36086 2.82696 0.531293
-0.867332 1.88389 2.41967
1.34751 0.184258 2.77415
2.63926 2.47562 0.218888
1.92676 0.925647 2.46105
1.86587 1.94476 2.30216
0.833804 3.01311 1.07393
1.12794 2.96518 -0.284406
-0.510962 3.10792 -0.373806
2.49568 2.07715 -0.52664
0.327101 2.97249 1.02869
2.1516 2.72271 1.69226
0.662082 3.06176 -0.0952447
0.91393 3.04111 -0.0876778
2.00026 2.99221 1.09428
1.76812 0.646909 2.54972
0.243456 1.3518 2.76746
2.10508 2.8353 1.53282
0.13881 1.86276 2.47157
-0.287927 2.09023 2.25819
-1.23262 2.02544 2.27616
1.51392 2.93078 -0.11595
1.90299 2.99235 1.18188
-0.759528 1.90786 2.39922
1.20004 2.96578 -0.23273
2.26902 2.91108 1.18093
1.97761 2.79562 -0.0520458
0.7964 3.07179 0.0563423
-0.270212 2.79733 1.28689
1.75473 2.95303 1.3688
-0.423581 2.51589 1.74423
-1.65441 1.91623 2.42961
0.381451 3.05168 -0.328295
1.9098 1.97583 2.27843
-0.961369 1.90918 2.39494
2.3598 2.50084 -0.161121
1.90175 2.83611 1.59367
2.34197 2.0703 2.07897
2.58371 2.76668 1.12837
2.62369 2.744 1.04675
2.16312 2.91731 1.29072
-1.3231 2.47518 1.68897
-0.00830321 3.08965 -0.0439649
2.25418 2.31469 2.00727
-0.927659 2.8512 0.996298
1.27699 1.07793 2.6906
-1.87989 1.77275 2.63133
1.5001 3.06057 0.949062
2.3141 1.65406 2.19702
-0.73773 2.57957 1.58656
0.254937 3.03116 0.759463
-0.597192 3.08177 0.114456
2.34116 2.34304 -0.413035
-0.895694 2.94306 0.736166
1.9291 0.924798 2.45987
-0.258229 2.87222 1.11193
-0.114015 1.25039 2.84932
1.40706 3.07907 0.603535
1.51376 3.0729 0.753711
1.92501 0.897839 2.46284
1.60577 3.02919 1.12173
-0.122278 3.08559 0.126256
2.26511 2.76359 1.57908
-0.181769 2.34976 2.00195
-1.40965 2.5269 1.60367
1.17219 2.52692 1.9958
-0.933985 1.89705 2.40674
1.0531 2.19621 2.26629
1.25958 3.04862 1.03082
-0.20206 3.06803 0.313125
2.17943 2.73097 0.0290753
-1.13023 2.64466 1.4152
1.89451 2.77314 1.69383
2.00526 2.97936 0.578828
0.830068 1.99079 2.40037
1.88438 1.26463 2.45472
2.62597 2.60953 0.450213
2.91942 2.39804 1.16198
0.351706 3.03821 -0.439522
-0.256651 1.8666 2.4534
-0.411108 2.84804 1.1271
1.79349 2.75994 -0.3101
-0.0746282 1.36822 2.78228
1.67821 2.99526 0.255524
1.7832 2.78996 -0.25359
1.60609 0.682724 2.62557
2.19292 1.66398 2.25845
-0.114871 2.48797 1.84366
-1.38836 1.93433 2.38186
0.333034 2.92245 1.18194
1.61846 2.11845 2.27622
1.06937 2.31997 2.17466
2.71992 1.85352 1.86509
1.11023 2.79934 1.64503
-0.647299 2.71223 1.36626
1.95596 2.33638 2.09014
1.55451 1.87628 2.39749
1.28497 2.88051 1.52605
1.61975 3.01037 1.20206
0.396786 3.088 0.0955344
1.26546 0.877493 2.73142
0.281905 1.13472 2.86137
-1.69975 1.524 2.84237
1.77034 3.0456 0.86517
1.45791 2.47828 2.0469
0.83307 3.00344 -0.323378
2.5975 1.97136 1.94723
2.68206 2.67066 1.24791
2.00042 2.82811 0.0493047
1.59856 2.9055 -0.122579
2.73446 2.5849 0.657957
1.89687 3.02095 0.704267
-0.0039165 2.15913 2.22245
0.550169 3.07718 0.593483
0.93356 1.46862 2.64709
2.4324 2.30458 1.92472
-0.330713 2.94456 0.875565
1.18461 3.06272 0.214906
0.0562199 3.0594 0.493035
2.43483 2.81205 1.31888
-0.0133092 1.6482 2.6134
2.88509 2.21281 1.52166
1.62335 2.9132 1.47765
1.83119 1.04745 2.49967
-0.252146 2.66406 1.54895
2.44769 2.02067 2.03675
1.9576 3.00538 0.680193
-0.643039 2.78161 1.22234
-0.770329 2.805 1.14035
2.31581 2.14262 2.06384
2.43357 2.80785 0.610136
2.4653 2.26688 -0.345684
-1.26279 3.20028 -0.608545
1.65548 2.88307 1.53824
2.96254 2.25707 1.28233
-1.13723 3.09643 0.0847285
2.44572 2.80283 1.33121
-0.787024 3.06806 0.209428
1.63023 1.43938 2.51415
-0.631739 1.38687 2.80854
1.27869 3.07942 0.803784
1.17766 1.87325 2.44861
1.94333 2.78566 -0.109554
0.685046 3.04971 -0.166724
1.65883 2.95247 0.0751574
1.60719 2.9657 0.0763736
2.28427 2.89427 0.655259
-0.0517739 3.06128 0.429422
-0.263049 2.42888 1.89247
1.56653 2.38318 2.11757
1.04221 2.97261 -0.314767
0.643314 1.26344 2.76285
2.54118 1.84651 2.01894
2.36039 2.88626 0.827823
