ply
format ascii 1.0
comment Created by Open3D
element vertex 400
property double x
property double y
property double z
end_header
1.78568 -1.12629 -2.29137
1.5393 -2.22121 -1.60544
1.93664 -2.06266 -1.47057
2.31097 -1.16961 -1.72932
1.75722 -2.295 -1.40767
0.877845 -0.947127 -3.24735
1.73539 -2.23579 -1.46962
1.055 -1.70611 -2.4189
0.90755 -1.97435 -2.21684
1.42474 -1.17515 -2.61153
0.812437 -1.23687 -3.04212
1.799 -1.2588 -2.1895
1.47621 -2.75123 -1.18263
1.98128 -1.70874 -1.70001
1.76877 -2.31316 -1.38595
1.95189 -2.25288 -1.31736
2.26685 -1.12916 -1.79427
1.82325 -0.711901 -2.47791
1.6364 -2.12115 -1.63095
1.14644 -2.51159 -1.54263
1.77721 -1.09162 -2.32223
0.594111 -1.4883 -2.90169
1.8607 -1.78415 -1.74302
0.822167 -1.65059 -2.61495
1.18834 -1.64111 -2.39437
1.76807 -1.46977 -2.06578
1.32278 -2.34784 -1.6137
1.56836 -2.08439 -1.70872
0.431236 -1.74134 -2.67518
1.09616 -1.92499 -2.16604
1.66792 -1.44481 -2.17627
2.57429 -1.36948 -1.38194
0.865605 -1.70239 -2.53544
2.05318 -1.27416 -1.92786
1.86117 -0.557547 -2.49539
1.16072 -1.07376 -2.92637
0.834591 -2.11595 -2.09503
1.24319 -2.0513 -1.94862
0.828531 -1.47493 -2.79703
0.914968 -0.86308 -3.28227
0.771043 -1.53633 -2.76472
1.85921 -2.05557 -1.53118
1.77775 -2.19227 -1.4777
1.84737 -1.10582 -2.24082
1.42498 -0.374512 -3.04939
1.05016 -1.28285 -2.83694
1.62271 -1.69304 -2.01143
1.98903 -2.059 -1.43595
1.5289 -1.1719 -2.51542
0.578859 -1.27677 -3.12877
0.974718 -2.16469 -1.97742
1.64075 -1.61678 -2.06069
1.52289 -1.5185 -2.24379
1.90207 -1.18725 -2.13371
2.30115 -1.66722 -1.45781
2.24858 -1.78721 -1.42621
2.2912 -1.49774 -1.56783
0.764467 -0.82221 -3.41692
1.75762 -1.03237 -2.37957
1.30805 -1.11958 -2.76141
1.46925 -0.645617 -2.89896
2.4602 -1.34064 -1.49939
1.4878 -1.33223 -2.42965
1.85043 -1.2659 -2.13394
1.24386 -1.03332 -2.88471
2.21411 -1.50565 -1.63253
0.78445 -1.47446 -2.82249
1.5925 -0.635901 -2.7697
0.80799 -1.62362 -2.65161
1.6288 -0.68064 -2.7095
1.62996 -1.58302 -2.09794
0.748734 -0.93541 -3.34292
1.23368 -2.18454 -1.82126
0.886648 -2.20443 -1.97504
1.13151 -0.87467 -3.0976
2.19629 -1.64364 -1.56149
0.408057 -1.12426 -3.34507
0.406876 -1.32783 -3.1431
1.09293 -1.77316 -2.32558
0.91267 -2.05337 -2.12789
1.00773 -0.986661 -3.11948
1.24929 -1.86108 -2.13454
1.87711 -1.00881 -2.26742
1.00204 -1.32974 -2.82853
0.666144 -0.762678 -3.51878
1.0011 -1.52915 -2.6346
1.76174 -2.40876 -1.31398
1.24997 -2.31812 -1.68082
0.141669 -1.3005 -3.22965
1.91661 -1.8823 -1.62294
1.2244 -1.38634 -2.6082
1.33973 -2.62336 -1.35213
0.903145 -2.2411 -1.92807
1.48198 -0.79681 -2.80779
1.65941 -2.28736 -1.47415
0.677019 -2.08733 -2.19106
1.71478 -0.842405 -2.53458
2.72433 -1.37519 -1.24876
1.29044 -0.942955 -2.90663
1.29806 -0.988217 -2.86797
0.914777 -0.855719 -3.28761
1.26991 -1.57297 -2.39991
1.55614 -0.737357 -2.76111
0.600433 -1.16227 -3.22964
1.38464 -0.529559 -3.03918
1.83902 -0.531292 -2.53012
1.25829 -1.57209 -2.40958
0.718534 -1.9717 -2.30668
1.6738 -0.302041 -2.78623
0.944475 -2.13647 -2.02228
1.07154 -1.92916 -2.17617
1.32813 -0.433499 -3.13401
1.01601 -1.11741 -3.00772
1.6873 -1.83183 -1.84222
1.93626 -0.712544 -2.34947
1.3135 -0.213511 -3.20572
1.02707 -2.17099 -1.94505
1.04142 -0.942411 -3.12586
1.0728 -1.49492 -2.61976
1.66398 -1.72264 -1.95278
1.31714 -2.28834 -1.67343
2.65163 -1.41107 -1.295
1.63197 -1.00172 -2.52931
1.65566 -0.848875 -2.59496
1.549 -1.26134 -2.42904
1.02963 -1.46324 -2.68088
0.9069 -1.97555 -2.21585
0.712184 -0.945175 -3.35759
2.4475 -1.33013 -1.51643
1.31496 -1.03862 -2.81599
0.912309 -1.56484 -2.65426
1.30632 -2.20459 -1.76026
1.60478 -0.711081 -2.72148
1.48857 -0.114134 -3.02735
0.856257 -1.70503 -2.5377
1.67939 -0.711639 -2.63913
0.223389 -1.31547 -3.20191
0.667848 -1.07623 -3.27317
2.16056 -1.05805 -1.94033
1.39304 -0.427326 -3.06762
0.946441 -0.612687 -3.41236
0.478641 -1.61259 -2.80837
1.91605 -0.726708 -2.36641
0.747016 -1.08556 -3.21953
1.37525 -0.299276 -3.12265
1.19413 -2.4295 -1.60039
2.1111 -1.84702 -1.49596
1.33866 -2.63237 -1.34464
2.47928 -1.19698 -1.55091
1.04421 -1.06772 -3.02677
1.42007 -0.842871 -2.84458
1.93853 -1.2328 -2.068
1.84109 -0.933324 -2.34833
0.451495 -1.60643 -2.82423
0.64643 -2.00934 -2.2919
2.50752 -1.41006 -1.42162
1.83671 -1.9616 -1.62194
1.01061 -0.485401 -3.41841
0.444862 -1.55641 -2.88279
1.4857 -1.81244 -2.01327
2.0225 -1.38631 -1.88656
0.268955 -1.64476 -2.82667
0.949008 -1.41799 -2.77981
1.65519 -1.58914 -2.07128
1.82286 -0.823921 -2.42561
1.72053 -2.49152 -1.27163
1.90268 -1.79143 -1.70339
0.378429 -1.11154 -3.36677
1.97835 -0.62738 -2.33465
2.61263 -1.60001 -1.23747
1.93756 -1.84499 -1.63481
1.57955 -0.839166 -2.68155
2.05111 -1.91267 -1.49649
0.450314 -1.66174 -2.7615
2.17051 -1.89306 -1.41828
2.106 -2.07684 -1.34008
1.00469 -0.58419 -3.37859
0.954898 -1.03525 -3.12161
0.512419 -1.41326 -3.01563
0.770584 -1.35938 -2.94787
1.63608 -2.44725 -1.35401
1.9699 -1.83646 -1.61552
1.72604 -2.0815 -1.60369
2.07765 -1.8166 -1.54374
1.8119 -0.530443 -2.56189
0.858477 -1.43869 -2.81636
1.69996 -1.91211 -1.76481
1.29891 -0.38369 -3.18037
2.05508 -0.762289 -2.19403
1.35407 -2.38657 -1.56072
2.36992 -1.72592 -1.36599
1.59633 -2.33468 -1.4717
0.446128 -1.17078 -3.28732
0.855104 -1.1227 -3.11845
1.91241 -1.33283 -2.02806
2.68513 -1.30616 -1.31232
0.888374 -2.02952 -2.16577
1.79595 -2.18797 -1.4692
1.21053 -2.27543 -1.74355
1.4894 -0.160846 -3.02156
1.24636 -1.51164 -2.4756
0.899581 -0.800728 -3.33674
1.33555 -0.961064 -2.85159
1.25623 -2.47663 -1.5255
1.44858 -0.437572 -3.00436
0.494374 -1.48028 -2.95011
2.05999 -1.31477 -1.89604
2.58172 -1.51285 -1.3061
2.05965 -0.695722 -2.2156
1.63043 -1.77221 -1.93753
0.71176 -0.793869 -3.47012
1.67322 -1.66734 -1.99139
2.65037 -1.57719 -1.2181
1.75975 -2.06669 -1.5925
0.607376 -1.44328 -2.9441
2.07056 -0.815754 -2.15375
1.65372 -1.66644 -2.00836
0.946187 -1.61712 -2.57925
1.00148 -0.970299 -3.13691
1.97556 -2.23842 -1.31274
0.802347 -1.85599 -2.39944
0.394155 -1.16113 -3.31463
2.13093 -1.32455 -1.821
1.44013 -2.28579 -1.60632
1.88589 -0.824649 -2.35542
2.22073 -0.8126 -1.98834
0.916106 -1.92721 -2.26397
2.24653 -1.1717 -1.79288
1.54907 -0.869055 -2.69645
2.10194 -0.997607 -2.03322
0.494819 -1.35121 -3.08783
2.3728 -1.10571 -1.69841
0.960032 -2.03755 -2.12152
1.79899 -2.34351 -1.34345
0.668074 -0.787604 -3.5007
1.69438 -1.40168 -2.1855
0.611704 -1.42308 -2.96351
1.69542 -0.76282 -2.59672
1.97395 -1.08106 -2.12367
1.56565 -0.286088 -2.91437
2.5706 -1.21412 -1.4565
1.78854 -0.601394 -2.56312
1.8067 -1.36527 -2.10702
1.79708 -0.680859 -2.52101
1.14309 -1.87935 -2.18468
2.00873 -0.660275 -2.28743
1.22793 -1.06693 -2.87349
2.13915 -1.32739 -1.8113
1.27481 -1.42007 -2.53724
0.595596 -1.33638 -3.06092
2.31025 -1.66123 -1.45379
2.29394 -0.944751 -1.85328
1.12744 -1.3367 -2.72934
2.09967 -0.869557 -2.09741
2.51137 -1.13591 -1.54748
1.32641 -1.2455 -2.64446
1.33565 -1.48712 -2.42749
2.25979 -1.3296 -1.69382
1.65543 -2.43073 -1.35687
1.59567 -1.03775 -2.54316
1.91538 -1.59293 -1.84141
0.855302 -1.49767 -2.75792
1.21608 -2.29453 -1.72173
1.28198 -1.03722 -2.84734
1.33044 -1.9908 -1.95351
1.68601 -0.312004 -2.76985
2.0653 -1.74449 -1.60433
1.32577 -0.461642 -3.1266
0.798903 -1.56759 -2.71651
1.79063 -0.834322 -2.4559
1.09629 -1.31496 -2.77298
1.50552 -0.458226 -2.93504
2.47382 -1.10958 -1.59588
1.41201 -0.0544331 -3.11648
1.8344 -1.84123 -1.71928
2.02806 -1.58318 -1.74867
0.857657 -0.558225 -3.50923
1.58396 -1.08716 -2.52172
0.922456 -1.22776 -2.97876
1.47361 -0.853379 -2.78381
0.797249 -1.59304 -2.69022
0.224648 -1.45755 -3.04784
1.49439 -2.11924 -1.7259
0.66951 -0.81021 -3.48409
1.91646 -1.27995 -2.05939
1.34413 -1.32614 -2.5616
2.09451 -0.974089 -2.05303
1.29429 -0.952289 -2.89661
1.4476 -1.04551 -2.68509
1.37985 -2.54571 -1.40244
1.27544 -1.62948 -2.34211
1.19983 -1.81775 -2.21072
1.8585 -1.62792 -1.86503
1.96663 -1.99847 -1.49721
1.41624 -2.11965 -1.77529
0.498871 -1.10386 -3.32967
0.811978 -2.18316 -2.03015
2.29371 -1.13387 -1.76464
1.87668 -1.17894 -2.16478
1.10864 -0.596734 -3.281
1.44668 -2.35247 -1.54176
1.69006 -2.0248 -1.67662
1.04641 -0.657829 -3.30465
1.66289 -0.928148 -2.54202
1.23402 -0.309663 -3.26728
1.74076 -1.22085 -2.27324
1.41497 -0.903548 -2.81223
1.3486 -2.55453 -1.40953
1.11729 -1.04365 -2.9865
1.51001 -1.12377 -2.56876
1.34255 -0.365581 -3.14018
1.79884 -2.07971 -1.55452
1.04033 -0.923941 -3.14025
0.338697 -1.30811 -3.18375
0.825986 -1.4982 -2.77441
1.81106 -1.52667 -1.9837
0.542202 -1.82481 -2.54289
2.27995 -1.10769 -1.79168
1.55568 -0.26322 -2.93032
2.12353 -1.14353 -1.93318
1.95429 -1.54001 -1.84492
2.25964 -1.10242 -1.81508
0.863038 -1.4983 -2.75268
2.77447 -1.45835 -1.17144
0.946922 -2.03028 -2.13604
1.74959 -1.69387 -1.90601
1.34917 -2.25291 -1.68929
0.431144 -1.54001 -2.9055
1.89519 -0.927399 -2.2929
1.39989 -2.00505 -1.89421
2.25606 -1.53238 -1.57861
0.891782 -1.03466 -3.16791
2.62355 -1.59851 -1.22938
1.79887 -0.480861 -2.59323
0.372879 -1.45099 -3.02146
1.14959 -0.657524 -3.21253
1.49349 -0.302649 -2.99226
1.27808 -0.54979 -3.14032
0.920476 -0.653374 -3.41106
1.67239 -2.03618 -1.67939
1.98363 -1.33266 -1.95903
0.939957 -2.21068 -1.94442
2.33406 -1.80558 -1.34689
0.889936 -1.27423 -2.95748
1.11195 -1.54428 -2.54376
1.70935 -1.85595 -1.80487
1.50987 -1.75231 -2.04931
1.67238 -2.36688 -1.39993
1.85977 -1.32992 -2.08104
1.40302 -2.77179 -1.19707
0.302677 -1.56728 -2.90896
1.03747 -2.00984 -2.11028
0.851908 -0.812961 -3.36344
2.16888 -1.93399 -1.39201
1.75964 -1.51418 -2.0394
1.56396 -0.417858 -2.88268
0.750085 -1.61369 -2.69249
0.556394 -1.31386 -3.10129
0.603806 -1.34772 -3.04554
1.04442 -1.74131 -2.38911
0.609795 -1.94959 -2.37429
0.58231 -0.910393 -3.45667
2.1833 -1.46222 -1.68739
1.67738 -0.528534 -2.71739
0.431321 -1.00662 -3.44312
2.37266 -1.03873 -1.72933
1.52818 -0.546756 -2.87776
1.71048 -1.64484 -1.9786
2.28678 -1.50325 -1.56855
1.60991 -2.53648 -1.29447
0.509577 -1.21033 -3.22433
1.22568 -0.798111 -3.06143
2.24267 -1.17194 -1.79664
1.397 -0.802821 -2.89151
0.640872 -1.38301 -2.99176
1.68449 -0.799858 -2.58994
1.6566 -1.53984 -2.11038
1.23624 -2.2208 -1.78383
2.25827 -1.84785 -1.37989
1.4995 -1.61146 -2.18286
0.179018 -1.57892 -2.91732
1.46147 -1.46154 -2.34502
1.29026 -0.747398 -3.02943
2.67011 -1.37979 -1.29321
2.07815 -2.12352 -1.32682
1.82199 -2.19209 -1.44871
2.0988 -1.79388 -1.54253
1.84114 -1.37677 -2.06603
0.425155 -1.29126 -3.17491
1.96486 -2.19351 -1.35293
2.02286 -0.891365 -2.17163
2.31486 -1.53713 -1.52367
2.01191 -1.79877 -1.60942
1.55938 -2.46813 -1.37834
1.45916 -1.83909 -2.00846
0.919713 -1.92847 -2.26072
2.10566 -0.845198 -2.10176
1.55916 -1.59197 -2.15033
1.57315 -1.23438 -2.42658
1.83479 -1.33134 -2.10419
