ply
format ascii 1.0
comment Created by Open3D
element vertex 200
property double x
property double y
property double z
end_header
-0.0815359 2.98824 -0.785995
-0.14162 -0.353709 -3.13442
1.50313 0.567656 -3.10083
-2.34685 1.16006 -1.7711
-2.16807 -0.142263 -2.34091
-1.23272 -0.128486 -2.83274
-2.13415 1.79446 -1.44466
-2.77822 1.84277 -0.895454
-1.06942 1.94584 -2.3367
-0.162151 0.975291 -3.40311
1.06565 1.6667 -3.43945
-0.0440613 3.00389 -0.722081
-2.47553 0.592871 -1.95992
-2.78714 1.23692 -1.3905
0.922849 1.12371 -3.52296
0.996744 2.18693 -3.11221
-2.45867 0.120219 -2.12347
-1.65952 0.858781 -2.46957
-1.48726 1.3448 -2.40284
-2.87264 1.06899 -1.44416
-2.12198 -0.729602 -2.41359
0.708073 2.65947 -2.17125
-0.518205 2.86356 -1.05692
-1.19966 0.924809 -2.80019
1.31885 1.1437 -3.34236
-1.82788 1.53277 -1.96333
-0.776297 -0.853929 -2.87125
0.231598 2.44278 -2.7432
-0.752978 2.37934 -2.06548
0.155041 2.61008 -2.32009
0.728936 0.990817 -3.54271
-1.00736 -0.721602 -2.83718
-1.43673 1.18191 -2.52791
-1.60104 2.33209 -1.265
-1.72081 1.7235 -1.90308
0.397975 0.0745922 -3.31259
0.794633 1.38495 -3.56118
0.596514 2.52532 -2.63321
0.970207 0.590996 -3.3935
1.26833 0.026096 -3.06366
-2.10531 0.419768 -2.271
-0.292387 2.59708 -2.04634
-0.706801 2.51055 -1.85439
0.633171 2.64606 -2.25874
-1.70723 -0.0590363 -2.5889
-2.86528 1.5803 -1.07447
0.812321 0.911542 -3.51523
-2.33234 1.65295 -1.40857
0.0234061 3.01242 -0.685903
1.29372 0.772799 -3.29718
0.375522 2.81937 -1.59252
0.0240447 2.5018 -2.51077
-0.764575 0.845717 -3.10283
0.0232456 -0.29821 -3.17112
-1.3919 -0.981149 -2.67581
1.59735 0.0916114 -2.87409
-1.1654 0.630725 -2.8714
0.226281 1.92542 -3.33883
-0.480925 -0.302298 -3.08207
-0.261553 -0.203241 -3.15936
0.23066 1.27999 -3.5299
0.304735 2.88602 -1.2743
-1.32919 2.44491 -1.34207
0.207781 1.74518 -3.42506
-1.48593 2.05971 -1.77408
-1.84894 1.67839 -1.82094
-2.63925 1.37048 -1.39956
0.300396 -0.00107482 -3.28704
0.114064 1.3265 -3.49281
-2.24097 1.66866 -1.47198
0.0648 -0.225065 -3.19926
0.455586 1.46694 -3.55781
0.719508 0.241696 -3.33962
-0.427835 -0.116231 -3.14274
-1.71212 0.68374 -2.48099
-0.0701185 1.45254 -3.39975
-1.91854 1.09326 -2.16228
-3.01939 1.37912 -1.13725
-0.627711 -0.61535 -2.96536
0.0596323 2.49086 -2.55628
-2.41208 1.59315 -1.39595
1.1917 0.319221 -3.21353
0.0106597 1.72939 -3.34799
0.471443 2.44554 -2.80894
0.795362 1.55078 -3.54482
0.868735 1.49284 -3.53917
0.320975 1.53001 -3.52303
-2.65078 0.73014 -1.78045
-1.08262 -0.496023 -2.85129
0.33755 2.31247 -3.00113
-2.18112 0.174934 -2.27917
-0.320775 2.77941 -1.48457
-3.23831 1.50678 -0.918407
-0.164845 0.958976 -3.40166
0.549652 2.60571 -2.41372
-2.14886 0.827191 -2.10089
-1.14471 0.347883 -2.89799
-1.64311 -0.55671 -2.61865
1.32797 0.102999 -3.06061
-2.08677 -0.0675482 -2.37627
0.378269 2.81923 -1.59263
-1.66141 0.515362 -2.55477
-1.62978 2.40901 -1.11157
-0.118575 0.604146 -3.38315
-0.0827905 0.781518 -3.41828
0.38318 2.82448 -1.56617
-0.129637 1.16045 -3.41311
-1.24361 -0.378462 -2.80392
0.35203 1.855 -3.42004
-1.75203 1.44118 -2.10134
-2.7103 0.613151 -1.7951
-0.656629 1.88825 -2.78315
-2.38893 1.61551 -1.39522
-0.744876 2.14448 -2.43204
-0.397204 0.951221 -3.29858
-1.37701 -0.231451 -2.75716
0.883591 0.397466 -3.35711
-2.44132 0.520572 -2.01083
-0.0115903 1.82859 -3.28704
0.43672 0.807414 -3.51995
-0.913925 2.21958 -2.1569
0.221929 2.74889 -1.88948
1.1465 0.962205 -3.41581
1.19938 1.75452 -3.33271
-0.605771 -0.726654 -2.94153
-1.81788 1.90255 -1.62629
-1.78916 0.478874 -2.47392
0.673722 -0.0565856 -3.23619
-1.61217 2.34373 -1.23551
0.275671 0.390764 -3.40949
0.632697 -0.0124124 -3.25999
0.124743 2.89356 -1.24538
0.419192 2.61817 -2.37651
-1.68322 1.29835 -2.25463
-2.78042 1.42641 -1.25579
-1.20129 0.781736 -2.82744
-0.23861 2.36493 -2.57655
-0.739675 2.04746 -2.5526
0.952543 2.41332 -2.75329
-0.671603 1.50238 -3.01112
-2.03427 0.636211 -2.25806
0.0436186 2.28042 -2.90705
-0.253991 2.48981 -2.32834
-0.505621 1.44235 -3.15298
-0.141788 1.24237 -3.40107
-0.789656 -0.223681 -3.00479
-0.275371 2.84241 -1.29497
-1.25556 2.57705 -1.15623
-3.07737 1.80186 -0.757529
0.103207 0.979203 -3.49125
-0.415112 2.04361 -2.84755
-0.227056 -0.444072 -3.09362
0.774948 2.42866 -2.81532
0.867505 1.71006 -3.49375
0.688712 0.338641 -3.37836
0.384115 0.0264272 -3.29607
1.16832 1.1961 -3.43457
0.281497 0.878893 -3.5169
-1.6172 1.73569 -1.99328
-0.845464 0.292179 -3.05348
-0.735389 2.56058 -1.71409
0.524831 2.30069 -3.05999
-1.6584 0.260771 -2.59386
-0.153953 0.168843 -3.28292
-1.22235 0.0273427 -2.84803
0.579333 1.66751 -3.52976
-1.59419 2.16839 -1.51765
1.09792 2.1018 -3.14845
-0.209825 1.51248 -3.31268
0.236104 2.80342 -1.66848
-1.74986 0.951752 -2.36478
0.595389 2.45118 -2.80355
0.348055 0.880405 -3.52575
-2.00009 0.494591 -2.32379
-2.08563 0.370411 -2.29669
0.429342 2.41172 -2.86575
0.85097 1.01289 -3.5254
1.43509 0.220269 -3.03776
-1.97645 -1.47736 -2.47342
-0.194937 1.58423 -3.29713
1.23996 1.90159 -3.21897
-2.09786 -0.777254 -2.42553
0.587171 1.68411 -3.52541
-1.83663 -0.534076 -2.53334
-0.0795358 2.68835 -1.95367
-2.10434 2.1683 -1.03954
-0.304903 0.743715 -3.33435
-0.594144 2.40425 -2.18133
0.715783 0.177907 -3.3173
-0.429709 -0.358451 -3.07972
0.343281 0.223541 -3.36253
0.294067 0.204473 -3.35499
0.675708 0.989135 -3.5481
-1.29085 -0.0698848 -2.80844
-1.80748 1.29971 -2.14333
-0.315822 2.16122 -2.80126
-0.0409361 -0.357658 -3.14517
-0.954888 2.59496 -1.41345
0.743578 2.49329 -2.67842
0.677477 1.17665 -3.56984
