ply
format ascii 1.0
comment Created by Open3D
element vertex 250
property double x
property double y
property double z
end_header
2.44211 -2.31892 0.310907
2.66422 -1.9412 -1.89899
-0.173181 -2.39212 -1.95353
0.906411 -2.93897 -1.32178
2.66568 -2.43262 -0.196812
0.5812 -3.0917 -0.323369
-1.05722 -3.17107 0.636981
0.114003 -3.00875 -0.802519
2.35119 -2.31359 0.439374
1.49837 -3.05933 -0.959789
2.12247 -2.632 -1.80907
0.549916 -3.0412 -0.841063
2.23308 -2.94007 -1.03377
0.901352 -3.05692 -0.00121863
2.3828 -2.86592 -0.754698
2.77135 -2.58754 -0.806834
0.463051 -3.07932 0.0291316
-0.994651 -3.00581 -0.499309
0.0403261 -3.08423 0.19689
0.16481 -2.44376 -1.95103
2.40037 -2.49106 -1.81661
-0.704285 -3.00387 -0.546261
1.26466 -3.07863 -0.419942
-0.291318 -3.04672 -0.439253
0.218975 -2.6709 -1.65576
2.1332 -2.86427 -0.300898
0.598729 -3.06314 0.118192
2.89348 -2.30221 -1.42719
-0.0256508 -2.74641 -1.46089
1.49581 -3.01006 -1.21161
2.44929 -2.22542 0.419704
2.84289 -2.01745 -1.68268
2.79655 -2.19699 -0.118024
2.13288 -2.07237 -2.16936
2.64782 -1.91424 -1.91977
-1.07025 -3.16773 0.554967
-0.124483 -2.47075 -1.8643
2.4055 -1.9948 -2.06971
1.7843 -2.94758 -0.174732
-0.0545036 -2.77243 -1.40208
0.0255049 -2.75955 -1.45042
0.304793 -3.08407 -0.360986
2.36557 -2.71895 -1.58525
2.74063 -2.6414 -0.950083
0.485021 -2.47192 -1.97287
2.73347 -2.5286 -1.45723
-0.944345 -2.48666 -1.70251
2.77064 -2.5496 -1.34114
-0.396037 -3.0981 0.134612
2.25262 -2.87875 -0.525178
2.05722 -2.29271 -2.08931
0.458631 -2.73515 -1.61192
-1.05041 -2.62159 -1.46643
2.9435 -2.28513 -0.647056
0.733434 -2.99735 -1.09659
-1.32337 -2.66986 -1.35243
0.387833 -2.91567 -1.2193
2.35282 -2.37661 0.352146
1.38124 -2.77901 -1.70719
0.513434 -3.08727 -0.435529
0.428537 -3.07582 -0.541169
-0.511334 -3.0206 -0.515673
0.290132 -2.65348 -1.69964
2.63396 -2.58229 -0.407154
2.99922 -2.25608 -0.989157
2.25471 -2.20372 -2.06455
1.64947 -2.95155 -1.38531
-1.07049 -3.04653 -0.325962
2.27648 -2.59775 0.107431
0.997603 -3.09094 -0.4158
1.74834 -2.96214 -1.34417
-0.153128 -2.52946 -1.77963
2.48174 -2.39228 0.155701
-0.136177 -2.89862 -1.08127
-0.233965 -2.77019 -1.35487
-1.01119 -3.15651 0.496839
-1.17039 -2.61678 -1.46214
2.34518 -2.89161 -1.12433
2.0457 -2.97046 -1.17474
0.727569 -3.08037 -0.650976
0.798723 -3.05262 0.0845944
1.84289 -2.41335 -2.06171
2.4753 -2.77841 -0.59622
0.0150788 -3.08935 0.0416961
0.449221 -3.04339 -0.784234
2.9274 -2.40051 -0.97035
-0.612873 -3.08584 -0.0784588
2.36614 -2.43865 0.246681
-0.155833 -2.78767 -1.34112
1.60683 -3.04159 -1.05348
-0.237988 -2.40061 -1.9322
-0.865671 -2.98535 -0.592443
2.24031 -2.86213 -0.445374
1.97511 -2.99789 -1.08551
2.09872 -2.72078 -1.71356
-0.281998 -2.75748 -1.36736
1.92418 -2.73686 0.233541
2.65705 -2.36778 -0.0840419
1.47135 -2.49758 -2.02965
1.06343 -2.9914 0.227827
2.2189 -2.91754 -1.22801
2.65781 -2.63091 -0.574809
2.40324 -2.83658 -0.657345
2.07886 -2.62962 0.279156
2.38814 -2.6166 -1.70383
1.08122 -3.05197 -0.0766076
0.755392 -3.08393 -0.16382
-1.35434 -2.6602 -1.36956
-0.99429 -3.04213 -0.344402
0.0875933 -3.01319 -0.771476
0.241818 -2.60515 -1.75901
1.38667 -2.52676 -2.00359
-0.0222677 -2.93399 -1.0186
2.13891 -2.50092 0.42743
-1.22974 -2.82071 -1.03571
1.68786 -2.97293 -1.32163
-0.9125 -2.9095 -0.837782
2.68119 -2.35573 -0.109349
2.53719 -2.79787 -0.899694
2.45299 -2.61262 -1.6643
-0.966948 -3.15387 0.539221
2.1072 -2.51279 -1.92419
0.582657 -3.05724 -0.764791
2.48719 -2.74852 -1.41689
-0.88004 -3.12515 0.237585
-1.2222 -2.91324 -0.794076
0.433841 -2.46531 -1.97206
0.630636 -2.63691 -1.7968
0.570979 -3.09014 -0.404897
-0.809187 -2.64677 -1.45757
-0.233582 -2.94525 -0.906436
-1.17941 -3.00002 -0.516308
2.2174 -2.8545 -1.43051
-1.19351 -2.44402 -1.74328
0.278341 -2.50271 -1.90104
-0.15127 -2.88219 -1.12063
-1.0736 -2.81497 -1.06479
0.106461 -2.97017 -0.949437
2.42186 -2.26579 -1.95161
-0.931581 -3.12068 0.158504
2.47996 -2.07474 -1.99867
2.99775 -2.25933 -1.00585
-0.71526 -2.47093 -1.75812
2.25911 -2.93376 -0.943628
2.2988 -2.88089 -0.622052
2.45731 -1.99468 -2.03882
1.47255 -2.99029 -0.0576548
-0.374109 -3.08235 -0.124894
2.22679 -2.33175 -2.00856
2.00956 -2.89022 -0.228438
-1.00934 -2.5974 -1.51431
1.96569 -2.85456 -0.0801283
-0.786559 -2.68679 -1.38707
2.9099 -2.43057 -1.0472
2.35419 -2.4324 0.271274
2.729 -2.65548 -1.05208
-0.864564 -2.99639 -0.549868
0.872852 -2.99769 0.323679
1.3912 -3.02595 -0.15012
-0.94764 -2.80164 -1.11472
1.79785 -2.37732 -2.09459
0.914784 -2.70658 -1.75298
2.44297 -2.03982 -2.03345
2.3736 -2.8883 -0.967371
0.0263591 -2.73834 -1.49049
-0.951081 -3.10583 0.0269568
-0.904984 -3.13104 0.287141
2.2306 -2.75352 -1.61371
2.15136 -2.70553 0.0557558
-0.15476 -2.65105 -1.5949
2.20158 -2.65268 -1.75799
-0.515408 -3.09551 0.0384489
0.278874 -2.8856 -1.25832
2.40589 -2.07811 -2.04187
2.78606 -1.83022 -1.79829
2.52597 -2.69331 -1.48168
2.69087 -2.50819 -1.54932
1.851 -3.02842 -0.980756
-0.679804 -2.46658 -1.76995
1.25966 -3.08561 -0.537018
-0.709208 -2.60275 -1.55303
0.583049 -3.01291 0.434667
2.26638 -2.66019 0.00671962
1.43486 -2.85868 -1.5811
1.71354 -2.8671 -1.56481
2.47708 -1.88266 -2.05563
0.161608 -2.85949 -1.28167
0.411407 -3.07594 -0.530499
2.37472 -2.86021 -1.23844
1.48773 -3.07275 -0.807685
2.17828 -2.76704 -1.61789
2.22103 -2.17471 -2.092
1.30067 -3.07898 -0.806373
2.90322 -2.43534 -1.11238
-0.335776 -2.91959 -0.9534
2.4467 -1.86792 -2.07851
-1.23412 -2.42493 -1.76936
2.7056 -2.49448 -1.54564
1.06532 -3.04951 -0.987301
0.986504 -2.89448 -1.44486
-1.49168 -2.08339 -2.22051
-1.64192 -1.97442 -2.3622
-1.25723 -1.91189 -2.39803
-1.79056 -1.55563 -2.83435
-0.791865 -2.29554 -1.9828
-1.41402 -2.25999 -1.99631
-0.836453 -1.73087 -2.55628
-1.32586 -2.20118 -2.07096
-1.44521 -1.59069 -2.72959
-0.958566 -2.08269 -2.21694
-0.52157 -1.88012 -2.43163
-1.29864 -1.99639 -2.30986
-1.34988 -1.47318 -2.81995
-1.55488 -1.51206 -2.82175
-1.26694 -1.41501 -2.85628
-1.63126 -1.76558 -2.58781
-0.924968 -1.88665 -2.4167
-1.45034 -1.98119 -2.3351
-0.660839 -2.01585 -2.30076
-0.227216 -2.31351 -2.03626
-1.56514 -1.7387 -2.60473
-0.225788 -2.28213 -2.07121
-0.653848 -1.91976 -2.39161
-1.71517 -1.78131 -2.58623
-1.00607 -1.34473 -2.8756
-1.51152 -1.63205 -2.70113
-0.687618 -1.85865 -2.44549
-0.688492 -2.27724 -2.01656
-1.0054 -1.40024 -2.83348
-1.76364 -1.72366 -2.65678
-1.23258 -1.51858 -2.76439
-0.29054 -2.34046 -1.9958
-1.49748 -1.61342 -2.71658
-1.55955 -1.82004 -2.52028
-0.603303 -2.27431 -2.03006
-1.04202 -1.75744 -2.53895
-1.52142 -2.21946 -2.05323
-1.36091 -1.60766 -2.70197
-1.07333 -2.32509 -1.9195
-0.693568 -2.12507 -2.18752
-0.990547 -1.61859 -2.65748
-1.31706 -2.07854 -2.21818
-1.07139 -1.60232 -2.6769
-1.47885 -1.44442 -2.86793
-1.29535 -2.27985 -1.96993
-1.16785 -1.9987 -2.30424
-1.7215 -2.07779 -2.25048
-1.55993 -1.44615 -2.88312
-1.16268 -1.91881 -2.38755
-0.744833 -2.21851 -2.07969
