ply
format ascii 1.0
comment Created by Open3D
element vertex 200
property double x
property double y
property double z
end_header
-1.52972 -0.901679 -2.53001
1.16787 2.12387 -2.02362
-0.630883 2.67346 -2.15671
1.53924 -0.789694 -2.64526
2.34536 0.28576 -2.14901
1.76862 1.1653 -2.25268
0.908481 -1.16457 -2.77131
1.21377 -1.93417 -2.58881
0.259951 -0.00838423 -3.21287
0.453847 1.67951 -3.08738
-0.874473 2.12825 -3.23252
-1.58457 -0.92797 -2.4849
2.02917 -0.48474 -2.44306
1.72007 -1.33921 -2.54548
-0.417048 2.34482 -2.97548
-1.22533 1.63508 -3.35963
2.34605 -0.151672 -2.24537
1.39458 0.219162 -2.75634
0.953989 0.0573709 -2.98005
1.90007 -1.27899 -2.49686
2.68495 0.629529 -1.80424
-1.54865 0.630133 -3.08109
-1.05366 -0.931252 -2.75829
1.0993 0.68252 -2.90882
-0.77499 2.45671 -2.75369
0.977074 -0.521254 -2.88424
1.87457 1.79753 -1.68249
-0.90574 0.815254 -3.47288
-0.312413 -0.192739 -3.21865
-1.06379 0.416162 -3.30372
-0.186062 2.30143 -2.95511
1.95878 1.57533 -1.80737
1.04825 0.244038 -2.9484
0.135551 -1.20593 -2.85124
0.765353 -0.583178 -2.93726
0.552878 2.37016 -2.28339
-0.468218 2.17298 -3.20787
-1.25901 0.925913 -3.35029
-0.166078 2.53234 -2.52312
-0.137981 2.75501 -1.84017
1.94015 0.0210558 -2.44975
-0.794451 -0.0267782 -3.22272
-0.483358 -0.362745 -3.14261
-1.46071 0.648213 -3.15445
2.01661 0.687857 -2.25403
1.48591 -1.74978 -2.56749
-0.20819 2.37004 -2.86133
1.13277 -1.24307 -2.70698
-1.65011 -0.914782 -2.44663
-0.544505 2.58156 -2.48624
-1.55235 -0.0217375 -2.86631
-0.848595 0.511159 -3.40325
0.902616 1.17898 -2.95342
1.02065 2.22197 -2.04121
2.36017 1.35646 -1.62776
-0.475579 2.7998 -1.6599
1.27037 0.884145 -2.75778
-0.428323 1.43765 -3.55752
1.37715 1.86137 -2.112
1.17375 1.999 -2.17201
0.00965048 1.86015 -3.26979
-1.6256 -0.302821 -2.70399
-0.115575 -1.04307 -2.90587
-0.282332 1.5652 -3.50575
0.351365 -0.679372 -3.00213
0.866449 -0.693552 -2.88437
1.531 -1.30508 -2.59913
0.664819 2.32916 -2.2423
0.0589867 1.74428 -3.30551
1.07192 -1.15369 -2.73735
0.952953 2.23201 -2.09766
-0.264328 1.92867 -3.35079
0.218186 2.50549 -2.32466
1.24145 1.848 -2.26209
1.54277 0.274888 -2.6643
0.0958713 1.51471 -3.37187
1.36417 -0.245097 -2.76232
1.7399 -1.70982 -2.52215
1.6446 1.83964 -1.86469
-0.856365 0.567374 -3.41866
1.22525 -1.27211 -2.68057
-0.216865 2.67267 -2.15838
-0.145816 1.4031 -3.49428
-1.0695 1.0017 -3.45628
-0.573281 2.08693 -3.30444
-0.594865 2.15402 -3.24274
-0.21085 1.79588 -3.40383
2.0292 -0.77051 -2.45325
1.8829 1.43601 -1.98508
-0.836761 1.10727 -3.54148
2.147 0.092549 -2.3161
-1.03522 -0.494255 -2.95229
1.76783 -2.04327 -2.51004
0.465323 1.68439 -3.07643
-1.33178 0.717495 -3.26028
1.68089 -0.30259 -2.60742
1.43276 1.04329 -2.58621
2.27694 0.973489 -1.9326
-0.22995 2.75386 -1.87212
2.24886 0.323772 -2.20082
-1.55429 -0.0199446 -2.86555
1.62633 0.430655 -2.59274
0.0691643 -1.35866 -2.80078
0.639769 1.86242 -2.81901
0.515384 1.82589 -2.95004
-1.56831 -0.0366701 -2.84894
0.320415 1.62103 -3.20661
1.91987 1.25416 -2.07195
-0.458159 1.59878 -3.53492
1.01281 -0.343449 -2.90146
2.14841 -0.743384 -2.40329
0.105927 0.558737 -3.37922
1.1942 -1.26884 -2.6884
-0.077546 0.158978 -3.32222
0.616379 1.48036 -3.06134
1.91853 1.0759 -2.17102
0.00584374 2.54475 -2.3944
2.06092 -0.397783 -2.42257
-0.205491 1.30451 -3.52201
0.137634 2.19403 -2.89827
-0.0705376 -0.157122 -3.22248
-1.31426 0.111773 -3.07182
-0.516308 2.48363 -2.73369
-1.05666 2.09908 -3.17823
1.68887 1.88819 -1.76919
0.655193 -0.904429 -2.88478
1.72228 0.317416 -2.54631
0.404567 2.54663 -2.06905
0.128884 -1.23723 -2.841
0.48 2.21512 -2.59155
0.415115 2.51723 -2.12584
-1.50298 -0.433795 -2.73717
-1.25152 0.608751 -3.27741
1.08889 -0.13649 -2.89793
1.56421 -1.50978 -2.5722
1.19425 0.764733 -2.83506
-0.551193 0.458173 -3.43142
0.00973579 0.285227 -3.34268
-1.42594 1.27044 -3.26569
0.411741 0.875016 -3.2924
1.75274 -0.0434566 -2.56278
-0.622428 0.883052 -3.53355
-0.682197 0.229656 -3.34167
0.361873 1.09531 -3.30857
0.276832 1.56839 -3.2549
1.54033 1.58862 -2.19226
-1.1586 -0.619505 -2.84709
-0.300843 -1.18044 -2.84087
1.4255 -2.18612 -2.54551
0.276318 1.89546 -3.08045
-0.151549 0.675564 -3.4609
1.27544 2.08695 -1.95886
-1.28522 1.19676 -3.36763
-0.737341 2.02431 -3.35286
0.193255 2.4679 -2.42372
0.587874 2.37302 -2.244
-0.668763 2.40214 -2.89385
0.210084 2.06567 -2.98481
0.704697 -0.467295 -2.98097
1.28402 1.35094 -2.57879
-0.530077 -0.494525 -3.08382
-0.954186 1.26414 -3.52472
1.78831 0.574384 -2.45325
0.901909 1.97457 -2.47333
1.67093 1.11031 -2.36249
-0.485783 1.89336 -3.42851
0.297578 -0.961916 -2.92109
-1.24003 1.75873 -3.30226
0.140911 1.34611 -3.38727
-1.4176 -0.048971 -2.94733
1.37787 0.053677 -2.76742
-1.16733 1.07041 -3.42261
0.161649 2.11094 -2.97405
1.83037 0.0848516 -2.5075
1.96214 0.0722818 -2.43036
-1.00214 1.02886 -3.48574
-0.295595 2.35369 -2.92427
-0.387252 2.74998 -1.90358
3.04331 1.09826 -1.31867
0.0822315 1.31214 -3.41912
-1.20664 1.98205 -3.1829
2.69885 0.673668 -1.77502
-0.502856 1.88766 -3.43415
2.38534 0.790605 -1.93943
-1.03425 -0.000566913 -3.15923
0.550866 -1.58211 -2.72101
0.682074 1.65429 -2.9261
-0.415222 -0.0325742 -3.27386
0.253441 2.51782 -2.26822
1.37199 1.91642 -2.0598
0.517516 2.30169 -2.43082
0.563894 2.27577 -2.42634
-0.143667 2.2736 -2.97223
1.77028 1.08755 -2.28952
1.15114 -0.284824 -2.85374
-0.309529 0.651488 -3.47813
1.09764 2.19346 -2.00139
-0.467556 -0.839121 -2.95309
-1.33774 1.05886 -3.32154
-0.252287 2.20315 -3.10962
