ply
format ascii 1.0
comment Created by Open3D
element vertex 400
property double x
property double y
property double z
end_header
0.357578 -2.88291 -1.12629
0.0467675 -2.22367 -2.22121
-0.32956 -2.40926 -2.06266
-0.411286 -2.85691 -1.16961
-0.247167 -2.23791 -2.295
1.67549 -2.91695 -0.947127
-0.187927 -2.26628 -2.23579
0.964426 -2.45642 -1.70611
0.925808 -2.20928 -1.97435
0.839191 -2.85407 -1.17515
1.57662 -2.72558 -1.23687
0.276125 -2.8203 -1.2588
-0.207594 -1.88009 -2.75123
-0.198891 -2.60307 -1.70874
-0.270695 -2.23072 -2.31316
-0.448681 -2.31171 -2.25288
-0.334165 -2.87165 -1.12916
0.462917 -3.04138 -0.711901
-0.0038542 -2.31037 -2.12115
0.280149 -1.90146 -2.51159
0.385385 -2.89874 -1.09162
1.6317 -2.4719 -1.4883
-0.0832137 -2.54822 -1.78415
1.26769 -2.43041 -1.65059
0.852795 -2.53336 -1.64111
0.210512 -2.71094 -1.46977
0.205713 -2.0764 -2.34784
0.0992525 -2.31724 -2.08439
1.58671 -2.19657 -1.74134
0.756517 -2.30673 -1.92499
0.35946 -2.71825 -1.44481
-0.843121 -2.79748 -1.36948
1.18075 -2.4049 -1.70239
-0.0886171 -2.81502 -1.27416
0.448462 -3.08055 -0.557547
1.2485 -2.89001 -1.07376
0.891265 -2.07155 -2.11595
0.498812 -2.25695 -2.0513
1.39194 -2.56366 -1.47493
1.67394 -2.9679 -0.86308
1.40974 -2.50016 -1.53633
-0.231952 -2.39737 -2.05557
-0.212168 -2.30195 -2.19227
0.278214 -2.89078 -1.10582
1.14863 -3.16385 -0.374512
1.26344 -2.74859 -1.28285
0.274866 -2.56973 -1.69304
-0.391085 -2.42182 -2.059
0.697576 -2.85977 -1.1719
1.80306 -2.62169 -1.27677
0.709017 -2.08748 -2.16469
0.296943 -2.61731 -1.61678
0.509754 -2.66344 -1.5185
0.163796 -2.85373 -1.18725
-0.596333 -2.65799 -1.66722
-0.581502 -2.59847 -1.78721
-0.511497 -2.72874 -1.49774
1.87557 -2.95669 -0.82221
0.439785 -2.92544 -1.03237
1.02768 -2.87754 -1.11958
1.01095 -3.08879 -0.645617
-0.679396 -2.79985 -1.34064
0.665992 -2.77005 -1.33223
0.200468 -2.81738 -1.2659
1.16025 -2.91934 -1.03332
-0.411242 -2.71999 -1.50565
1.44111 -2.55049 -1.47446
0.832404 -3.08454 -0.635901
1.30364 -2.44631 -1.62362
0.764171 -3.06764 -0.68064
0.330913 -2.63602 -1.58302
1.83437 -2.89324 -0.93541
0.415485 -2.16017 -2.18454
0.769609 -2.02352 -2.20443
1.39024 -2.99043 -0.87467
-0.44887 -2.65715 -1.64364
2.07678 -2.65386 -1.12426
1.9348 -2.51021 -1.32783
0.871613 -2.41725 -1.77316
0.85929 -2.15 -2.05337
1.49323 -2.91838 -0.986661
0.625968 -2.39273 -1.86108
0.275993 -2.93062 -1.00881
1.29152 -2.70862 -1.32974
2.01712 -2.95919 -0.762678
1.15506 -2.57083 -1.52915
-0.316616 -2.17486 -2.40876
0.304654 -2.07238 -2.31812
2.18353 -2.38388 -1.3005
-0.207653 -2.50284 -1.8823
0.978496 -2.71006 -1.38634
0.00876529 -1.90344 -2.62336
0.724731 -2.00197 -2.2411
0.937487 -3.03333 -0.79681
-0.130999 -2.21576 -2.28736
1.07059 -2.02804 -2.08733
0.579689 -3.00475 -0.842405
-1.04339 -2.8094 -1.37519
1.14282 -2.96778 -0.942955
1.1101 -2.94583 -0.988217
1.67785 -2.97154 -0.855719
0.799033 -2.59495 -1.57297
0.85204 -3.05276 -0.737357
1.85913 -2.70827 -1.16227
1.16994 -3.12811 -0.529559
0.488685 -3.08945 -0.531292
0.814085 -2.59358 -1.57209
1.12299 -2.13915 -1.9717
0.786607 -3.15372 -0.302041
0.762123 -2.09781 -2.13647
0.781095 -2.29647 -1.92916
1.27695 -3.15521 -0.433499
1.40835 -2.84521 -1.11741
0.109546 -2.49575 -1.83183
0.292181 -3.03047 -0.712544
1.338 -3.19557 -0.213511
0.649113 -2.1016 -2.17099
1.47392 -2.94671 -0.942411
1.09387 -2.61104 -1.49492
0.204214 -2.55743 -1.72264
0.251934 -2.11465 -2.28834
-0.959282 -2.79069 -1.41107
0.634517 -2.94247 -1.00172
0.664189 -3.00564 -0.848875
0.622286 -2.8129 -1.26134
1.16761 -2.62372 -1.46324
0.925568 -2.20812 -1.97555
1.87058 -2.87776 -0.945175
-0.658367 -2.80292 -1.33013
1.06139 -2.92102 -1.03862
1.23175 -2.52195 -1.56484
0.320982 -2.1684 -2.20459
0.789627 -3.05913 -0.711081
1.08808 -3.19323 -0.114134
1.18896 -2.39989 -1.70503
0.678642 -3.05365 -0.711639
2.10613 -2.42205 -1.31547
1.84224 -2.78672 -1.07623
-0.155724 -2.89977 -1.05805
1.18411 -3.15416 -0.427326
1.74367 -3.08214 -0.612687
1.64737 -2.32427 -1.61259
0.318455 -3.02815 -0.726708
1.74833 -2.80477 -1.08556
1.2356 -3.1805 -0.299276
0.287272 -1.97602 -2.4295
-0.434967 -2.55057 -1.84702
0.00422906 -1.89738 -2.63237
-0.656456 -2.84977 -1.19698
1.40188 -2.87861 -1.06772
1.00728 -3.01556 -0.842871
0.0915468 -2.83305 -1.2328
0.35867 -2.96237 -0.933324
1.67778 -2.31629 -1.60643
1.16352 -2.07771 -2.00934
-0.767848 -2.77832 -1.41006
-0.151865 -2.44563 -1.9616
1.70257 -3.13179 -0.485401
1.72388 -2.35301 -1.55641
0.373047 -2.47415 -1.81244
-0.0961206 -2.76412 -1.38631
1.80858 -2.18894 -1.64476
1.29457 -2.63667 -1.41799
0.294221 -2.63501 -1.58914
0.426205 -3.00413 -0.823921
-0.317422 -2.11578 -2.49152
-0.140916 -2.54987 -1.79143
2.11308 -2.64826 -1.11154
0.251942 -3.04975 -0.62738
-0.972382 -2.72243 -1.60001
-0.21408 -2.52605 -1.84499
0.779232 -3.01305 -0.839166
-0.392177 -2.50853 -1.91267
1.63426 -2.2711 -1.66174
-0.53191 -2.53766 -1.89306
-0.54159 -2.43675 -2.07684
1.6786 -3.09945 -0.58419
1.5321 -2.88253 -1.03525
1.77004 -2.49471 -1.41326
1.53957 -2.62934 -1.35938
-0.199455 -2.11431 -2.44725
-0.250585 -2.53528 -1.83646
-0.0865149 -2.35448 -2.0815
-0.377531 -2.56071 -1.8166
0.53032 -3.09274 -0.530443
1.38443 -2.5985 -1.43869
0.0458541 -2.44996 -1.91211
1.33039 -3.16733 -0.38369
0.0982535 -3.00457 -0.762289
0.146126 -2.06107 -2.38657
-0.709889 -2.64169 -1.72592
-0.088126 -2.16942 -2.33468
2.00903 -2.63995 -1.17078
1.60043 -2.80973 -1.1227
0.081775 -2.78633 -1.33283
-0.970725 -2.82663 -1.30616
0.903256 -2.15961 -2.02952
-0.231044 -2.30881 -2.18797
0.376901 -2.08885 -2.27543
1.0834 -3.18973 -0.160846
0.869204 -2.63182 -1.51164
1.72333 -2.99553 -0.800728
1.072 -2.96075 -0.961064
0.190401 -1.96698 -2.47663
1.1001 -3.1487 -0.437572
1.73647 -2.43562 -1.48028
-0.115932 -2.79734 -1.31477
-0.901998 -2.7491 -1.51285
0.110276 -3.02306 -0.695722
0.217151 -2.52293 -1.77221
1.95046 -2.95704 -0.793869
0.22498 -2.59127 -1.66734
-1.01277 -2.73542 -1.57719
-0.118262 -2.3704 -2.06669
1.65231 -2.51127 -1.44328
0.0588262 -2.98704 -0.815754
0.250765 -2.58948 -1.66644
1.15475 -2.49286 -1.61712
1.50998 -2.92629 -0.970299
-0.468688 -2.32518 -2.23842
1.12932 -2.26401 -1.85599
2.06509 -2.62251 -1.16113
-0.219154 -2.79444 -1.32455
0.117515 -2.15416 -2.28579
0.332008 -2.99906 -0.824649
-0.164326 -2.97626 -0.8126
0.953084 -2.24865 -1.92721
-0.320777 -2.85629 -1.1717
0.811323 -3.00203 -0.869055
-0.0485914 -2.924 -0.997607
1.83354 -2.53332 -1.35121
-0.476868 -2.87878 -1.10571
0.821296 -2.17899 -2.03755
-0.322112 -2.22204 -2.34351
2.00297 -2.94777 -0.787604
0.347277 -2.74349 -1.40168
1.66298 -2.52806 -1.42308
0.637313 -3.035 -0.76282
0.105866 -2.89746 -1.08106
0.953686 -3.16786 -0.286088
-0.787789 -2.84759 -1.21412
0.54771 -3.07709 -0.601394
0.212358 -2.76742 -1.36527
0.511893 -3.05335 -0.680859
0.736512 -2.35309 -1.87935
0.197072 -3.03784 -0.660275
1.16359 -2.90014 -1.06693
-0.231827 -2.79339 -1.32739
0.89267 -2.69553 -1.42007
1.74325 -2.58555 -1.33638
-0.60561 -2.66158 -1.66123
-0.311593 -2.93253 -0.944751
1.13271 -2.72715 -1.3367
-0.00159717 -2.96778 -0.869557
-0.681576 -2.87004 -1.13591
0.932006 -2.80783 -1.2455
0.77205 -2.66094 -1.48712
-0.400198 -2.79562 -1.3296
-0.211113 -2.13002 -2.43073
0.669976 -2.9266 -1.03775
-0.0523065 -2.65645 -1.59293
1.34535 -2.55493 -1.49767
0.357547 -2.07735 -2.29453
1.10688 -2.91987 -1.03722
0.440575 -2.32211 -1.9908
0.76639 -3.15077 -0.312004
-0.325957 -2.59482 -1.74449
1.27338 -3.1483 -0.461642
1.35595 -2.48577 -1.56759
0.470419 -3.00275 -0.834322
1.1856 -2.73599 -1.31496
1.01082 -3.13995 -0.458226
-0.620797 -2.87771 -1.10958
1.20524 -3.20212 -0.0544331
-0.0814005 -2.51283 -1.84123
-0.197559 -2.67055 -1.58318
1.87495 -3.08786 -0.558225
0.663095 -2.90316 -1.08716
1.45403 -2.75858 -1.22776
0.926451 -3.01045 -0.853379
1.33853 -2.46601 -1.59304
1.9963 -2.314 -1.45755
0.163706 -2.27709 -2.11924
1.99021 -2.93704 -0.81021
0.101069 -2.81135 -1.27995
0.860885 -2.76176 -1.32614
-0.0293336 -2.93276 -0.974089
1.13301 -2.96341 -0.952289
0.875035 -2.92226 -1.04551
0.0159748 -1.96737 -2.54571
0.754247 -2.558 -1.62948
0.71481 -2.41162 -1.81775
0.00461536 -2.63294 -1.62792
-0.331928 -2.4493 -1.99847
0.25389 -2.25675 -2.11965
2.00168 -2.70719 -1.10386
0.861378 -2.00969 -2.18316
-0.374111 -2.86969 -1.13387
0.203716 -2.85775 -1.17894
1.53609 -3.10394 -0.596734
0.067234 -2.11314 -2.35247
-0.00950063 -2.3806 -2.0248
1.59682 -3.07667 -0.657829
0.62164 -2.97332 -0.928148
1.43773 -3.1829 -0.309663
0.376523 -2.83832 -1.22085
0.988012 -2.98908 -0.903548
0.0430832 -1.95029 -2.55453
1.32173 -2.90182 -1.04365
0.748653 -2.88412 -1.12377
1.27112 -3.16977 -0.365581
-0.172758 -2.37118 -2.07971
1.48487 -2.95612 -0.923941
2.01176 -2.49075 -1.30811
1.37774 -2.54586 -1.4982
0.122078 -2.6833 -1.52667
1.4147 -2.18149 -1.82481
-0.345256 -2.87907 -1.10769
0.972014 -3.17208 -0.26322
-0.134595 -2.86852 -1.14353
-0.0773346 -2.68645 -1.54001
-0.314355 -2.88127 -1.10242
1.33618 -2.5567 -1.4983
-1.13352 -2.79018 -1.45835
0.840833 -2.17998 -2.03028
0.110608 -2.5849 -1.69387
0.240498 -2.14852 -2.25291
1.74963 -2.35936 -1.54001
0.281225 -2.96143 -0.927399
0.349534 -2.32928 -2.00505
-0.479029 -2.71152 -1.53238
1.60947 -2.87064 -1.03466
-0.985827 -2.72443 -1.59851
0.561701 -3.10568 -0.480861
1.87283 -2.40016 -1.45099
1.45872 -3.08448 -0.657524
1.05979 -3.1719 -0.302649
1.3168 -3.12428 -0.54979
1.76111 -3.06286 -0.653374
0.00495306 -2.37006 -2.03618
-0.0173916 -2.78788 -1.33266
0.710263 -2.03956 -2.21068
-0.698035 -2.60283 -1.80558
1.46197 -2.72053 -1.27423
1.01244 -2.58498 -1.54428
0.0675408 -2.48493 -1.85595
0.381441 -2.51672 -1.75231
-0.19265 -2.17245 -2.36688
0.156462 -2.78657 -1.32992
-0.145629 -1.83854 -2.77179
1.84292 -2.27097 -1.56728
0.758593 -2.22579 -2.00984
1.77592 -2.9807 -0.812961
-0.54933 -2.51793 -1.93399
0.197819 -2.68633 -1.51418
0.932473 -3.14425 -0.417858
1.37349 -2.43427 -1.61369
1.79951 -2.58637 -1.31386
1.72657 -2.58048 -1.34772
0.950841 -2.42787 -1.74131
1.24769 -2.11007 -1.94959
2.03248 -2.85599 -0.910393
-0.35066 -2.73699 -1.46222
0.735395 -3.10757 -0.528534
2.12966 -2.73964 -1.00662
-0.454904 -2.90055 -1.03873
0.954299 -3.11547 -0.546756
0.189591 -2.60857 -1.64484
-0.507868 -2.72613 -1.50325
-0.223051 -2.05371 -2.53648
1.91962 -2.64027 -1.21033
1.29807 -3.03145 -0.798111
-0.315389 -2.85622 -1.17194
1.05678 -3.03244 -0.802821
1.66233 -2.56866 -1.38301
0.640249 -3.02248 -0.799858
0.320874 -2.66365 -1.53984
0.387203 -2.13551 -2.2208
-0.621105 -2.57256 -1.84785
0.48321 -2.60382 -1.61146
1.93627 -2.18944 -1.57892
0.624765 -2.69159 -1.46154
1.22978 -3.05448 -0.747398
-0.973612 -2.80249 -1.37979
-0.531272 -2.40768 -2.12352
-0.263952 -2.31274 -2.19209
-0.393342 -2.57481 -1.79388
0.159019 -2.76279 -1.37677
1.94437 -2.54563 -1.29126
-0.432699 -2.34603 -2.19351
0.105194 -2.96595 -0.891365
-0.559458 -2.71425 -1.53713
-0.284603 -2.56067 -1.79877
-0.128016 -2.07728 -2.46813
0.388416 -2.45198 -1.83909
0.948235 -2.24891 -1.92847
-0.00275625 -2.97509 -0.845198
0.418018 -2.62301 -1.59197
0.603466 -2.82824 -1.23438
0.190497 -2.78528 -1.33134
