ply
format ascii 1.0
comment Created by Open3D
element vertex 200
property double x
property double y
property double z
end_header
2.33694 1.52394 1.33053
0.183628 2.41633 -2.0242
1.91509 1.74186 -2.34417
-0.307667 3.02158 0.875024
-1.07813 2.98793 -0.33243
-0.390126 2.85415 -1.12345
0.249253 2.83304 1.33172
-0.2172 2.77803 2.03754
1.19199 2.97871 0.310761
1.219 3.02237 -1.39208
2.52484 2.56775 -1.66588
2.36148 1.45787 1.35821
-0.784363 3.07569 0.495886
-0.594369 2.99266 1.38648
2.03929 2.55476 -1.95961
2.81704 2.50224 -1.12477
-1.10189 3.05655 0.109565
0.0211866 3.09534 -0.0932075
0.485341 3.08847 0.141004
-0.765939 3.03333 1.30104
-1.47926 2.84851 -0.747193
2.82823 2.06746 -0.123331
2.01283 1.94176 1.32803
0.419424 3.1159 -0.500792
2.27426 2.19954 -2.05149
0.335439 2.99044 0.699967
-0.641184 2.41967 -1.81934
2.46138 2.71509 -0.340373
1.6727 2.71715 0.560014
2.4661 2.47685 0.0547105
1.81958 2.63954 -1.94572
-0.69374 2.56014 -1.5967
0.416094 3.11046 -0.0576246
0.961585 2.55236 1.47072
0.536735 2.93925 0.791242
0.879298 2.37889 -2.16908
2.16159 2.73166 -1.75986
2.73597 2.45027 -0.421304
1.64533 2.27312 -2.22087
1.35151 1.68656 -2.51481
-0.626618 3.06157 0.00730176
2.12552 2.50902 0.452545
1.76453 2.56518 0.739949
2.78572 2.17337 -0.143819
-0.680548 2.9486 -0.680524
-0.439438 2.88972 1.82155
1.80792 2.54874 -2.02063
0.0107124 2.87423 1.37652
2.40444 1.39462 1.34884
1.97087 2.07078 -2.22931
2.63829 1.84842 0.498778
2.33428 2.66679 -0.0538422
0.687714 3.08637 -0.96371
0.336299 2.36922 -2.10217
-1.16099 2.5733 -1.44577
1.5768 1.37484 -2.53847
0.231664 3.06697 -0.735489
2.17055 3.03169 -1.00192
-0.00169681 2.57936 -1.78009
0.225362 2.54615 -1.88617
1.71958 2.9908 -1.49999
2.58884 1.65942 0.768141
1.23225 2.49375 1.3447
2.03778 3.05683 -1.15025
0.916898 2.8056 0.941115
0.407351 2.93354 0.88304
-0.398362 2.95613 1.38031
0.755991 2.39137 -2.14586
1.67436 3.04032 -1.38757
0.0913945 2.87729 1.29845
0.422641 2.38922 -2.09837
2.00792 2.94154 -1.52743
1.21376 2.26942 -2.25958
0.182707 2.651 -1.73556
-0.142171 3.08275 -0.175015
1.63661 3.10695 -1.15821
-0.0191456 3.06831 0.369545
-0.677999 2.96603 1.74785
-0.350893 2.47942 -1.81533
2.35642 2.67924 -0.106873
-0.0870973 2.89145 1.39172
1.54978 1.9309 -2.39136
1.88765 3.10199 -1.00719
2.62682 2.63356 -0.507225
2.28427 2.76661 -1.65264
2.28611 2.70457 -1.72279
1.96417 3.00769 -1.39698
-0.822872 3.07334 0.779223
-0.568919 2.67845 -1.43186
2.47473 2.81911 -0.629745
-0.857877 3.03913 -0.101209
2.14821 2.14037 0.91431
-0.758217 2.95455 2.07273
1.20474 3.01802 -1.39938
2.72906 2.32881 -0.216288
-0.376329 3.07156 0.373472
0.0360926 2.99412 -0.929341
-1.01003 2.79173 -1.02623
1.44678 1.67329 -2.49968
-0.964175 2.99188 -0.353393
2.63994 1.84693 0.497155
-0.224279 3.06312 -0.346007
0.97493 2.47123 1.62408
0.963334 2.87494 -1.62218
1.12581 2.93381 -1.55806
2.64245 1.82511 0.513585
1.38095 3.06576 -1.30646
-0.590481 2.76528 -1.24753
2.21115 3.00449 -1.15996
0.338234 3.02909 0.521958
-0.946283 3.08395 0.733394
1.48714 3.07978 -0.214309
-0.0556919 2.88448 1.39291
1.5639 2.92989 0.196004
1.03385 3.06486 -1.21696
-0.572244 2.84577 -1.06103
1.43823 2.23688 -2.26645
-0.808419 3.07531 0.404176
1.93784 3.0957 -0.899991
1.49215 2.73129 -1.88315
1.46597 2.83158 0.497106
2.53896 2.14465 0.360495
2.04081 2.30001 -2.11023
2.65743 2.43569 -1.62151
-0.425018 2.41637 -1.87832
0.56252 2.82974 1.11595
-0.346696 3.06071 -0.250114
0.942005 2.12787 -2.34836
0.958234 2.53897 1.50135
1.05687 2.6141 -1.97555
0.95341 2.18205 -2.31466
2.47546 1.73928 0.886698
2.64935 2.37607 -0.116427
0.300569 3.0687 0.308311
-0.470446 2.93901 1.57585
0.315205 3.09652 -0.60068
2.07592 2.82451 -0.0331636
1.51482 2.99271 0.0632651
2.89788 2.31309 -0.750984
1.22597 3.15368 -0.571279
-0.420617 3.07473 0.104522
2.24804 2.90019 -0.434003
2.11757 2.67607 0.198504
1.31036 3.15431 -0.781412
1.43294 3.08692 -1.24439
-0.151423 2.71385 -1.52132
2.19182 1.98577 1.04148
1.34653 2.34642 1.49521
-0.461427 2.82531 2.25732
1.40534 2.94442 -1.58548
1.76846 3.04054 -0.291317
0.0543094 2.40592 -2.00695
2.80757 2.46468 -0.684006
2.4413 2.7329 -1.56669
1.27401 2.34484 -2.20929
0.831349 2.35978 -2.18005
2.23424 2.37031 -1.99542
1.44713 2.83605 -1.75582
0.627141 2.95533 0.688351
0.210561 2.93244 -1.21672
1.75995 2.48637 0.869466
2.5947 2.75727 -0.772781
-0.407602 3.01804 -0.521261
0.595412 2.69035 -1.79923
-0.263422 2.90548 -1.04641
2.23276 2.909 -1.45875
0.886032 2.69775 1.21807
2.82323 2.44944 -1.25114
1.57825 3.13432 -0.99531
2.55098 1.98053 0.518402
0.0159642 3.09102 0.0733502
2.70871 2.562 -0.567205
1.49198 2.80633 -1.79602
-0.494409 3.06581 -0.0369717
-0.646933 3.05631 -0.0478644
2.58442 2.69141 -0.538834
1.91059 2.56454 -1.9878
1.59916 1.62989 -2.47429
-1.94053 2.59721 -1.30215
1.63911 3.13473 -0.951633
2.77445 2.36721 -1.48798
-1.49785 2.83056 -0.795436
2.24949 2.90606 -1.45056
-1.13033 2.83961 -0.857469
2.31329 2.34487 0.44796
0.480226 2.6095 1.78054
0.942058 2.98115 -1.41041
1.81212 2.72615 0.419474
1.15945 2.23562 -2.2817
-0.0119784 2.53273 -1.83927
0.965546 2.49142 -2.08207
0.918674 2.50741 -2.06233
1.7855 2.67288 -1.92138
-0.386974 2.88459 -1.04303
0.203653 3.05161 0.443022
1.9121 2.98334 -0.247381
0.246321 2.36751 -2.08708
1.59495 2.38449 1.18905
2.81282 2.39432 -0.546449
1.93176 2.7432 -1.82494
