ply
format ascii 1.0
comment Created by Open3D
element vertex 400
property double x
property double y
property double z
end_header
1.60593 -2.67757 0.48789
1.38051 -2.74836 -0.795191
1.91363 -2.48008 0.396807
2.69816 -1.4635 -0.805805
1.61113 -2.67532 0.495646
2.76279 -1.37483 1.45619
2.28366 -2.24698 1.22498
2.26062 -2.11634 -0.0483661
2.19445 -2.17801 -0.103874
2.46724 -1.80632 -0.629749
1.72554 -2.51823 -1.07521
2.24512 -2.05472 -0.868073
1.84208 -2.42648 -1.09473
2.24092 -2.29653 1.66315
1.6486 -2.67563 0.882688
2.33766 -2.19599 1.35198
2.64773 -1.71679 1.06613
2.25263 -2.26114 1.01357
1.87632 -2.39816 -1.09481
1.49027 -2.68903 -1.17148
1.58659 -2.63639 -0.326019
2.59137 -1.81633 0.989101
2.15035 -2.15835 -0.761526
1.43071 -2.7617 1.24583
1.57883 -2.70979 0.954552
1.81359 -2.49245 -0.209318
1.92393 -2.35775 -1.09729
1.66069 -2.66983 0.885835
2.60409 -1.69366 0.155655
2.27758 -2.19633 0.668789
2.63206 -1.56681 -1.01516
2.23163 -2.0678 -0.900437
2.33302 -2.20252 1.38922
2.74147 -1.40064 -0.405476
2.25783 -2.24568 0.912528
2.18651 -2.12403 -0.725817
1.36595 -2.76249 -0.317774
2.45622 -1.81362 -0.739266
2.15789 -2.16914 -0.518995
2.23552 -2.21738 0.499727
2.64691 -1.55043 -0.601903
1.87356 -2.56203 1.08281
2.76838 -1.41091 0.442741
1.7904 -2.56799 0.442557
2.72501 -1.50379 0.419767
2.64118 -1.70506 1.61923
1.87894 -2.44955 -0.147114
1.52902 -2.70384 0.255775
2.65118 -1.53939 -1.03752
1.6658 -2.5725 -0.560382
2.3983 -2.12743 1.52094
1.43426 -2.73378 -0.120519
1.91804 -2.53668 1.63636
1.84535 -2.57686 1.03924
1.7204 -2.52347 -1.14792
2.35013 -1.96034 -0.526264
2.51453 -1.73664 -0.739075
2.20892 -2.14504 -0.254318
1.74597 -2.58353 0.29854
1.78211 -2.61636 1.15929
2.64427 -1.54935 -1.03042
2.03549 -2.2706 -0.716575
2.03726 -2.25641 -1.10524
2.45555 -2.04346 1.68477
2.23621 -2.30206 1.39588
2.78385 -1.37065 1.16528
2.28151 -2.25556 1.68319
2.24276 -2.24564 0.77868
1.76229 -2.49022 -1.0981
2.0364 -2.26882 -0.732407
2.6283 -1.57855 -1.1712
2.36694 -2.14213 1.05873
2.12298 -2.17804 -0.916736
2.55891 -1.70129 -0.373565
1.87131 -2.55556 0.937687
2.33669 -2.15757 0.876006
2.2184 -2.11626 -0.427177
1.61765 -2.6254 -0.189696
2.66816 -1.51398 -0.668909
2.58358 -1.82298 1.68279
1.48568 -2.74025 1.32221
1.98406 -2.49255 1.7144
2.19392 -2.27338 0.61647
1.72965 -2.62972 1.63461
2.73086 -1.49876 0.495795
2.19799 -2.33543 1.34036
2.63674 -1.57334 -0.486009
2.67802 -1.53478 -0.134492
2.31993 -1.98636 -0.632316
2.31703 -2.13432 0.524751
1.78929 -2.60122 0.881882
2.51158 -1.79771 -0.12146
1.38291 -2.78403 1.04795
2.48889 -1.98364 1.05331
2.22127 -2.09505 -0.627204
2.20898 -2.15478 -0.172237
2.18373 -2.34084 1.19868
2.38548 -2.06656 0.610063
1.46241 -2.74795 1.31932
2.02288 -2.26969 -1.10565
2.75678 -1.38059 -0.253533
2.75138 -1.47118 0.745984
1.48045 -2.7086 -0.130214
2.70738 -1.56936 0.723201
1.99792 -2.29779 -0.847291
2.58858 -1.68259 -0.130624
2.5651 -1.75922 0.183834
1.69505 -2.65993 1.16376
2.25582 -2.04307 -0.870738
2.75194 -1.40655 -1.28872
1.67514 -2.60936 0.0785878
1.66257 -2.56478 -1.0466
2.42681 -1.98537 0.401806
1.50155 -2.73908 0.766907
2.08989 -2.42521 1.33923
2.11204 -2.39911 1.15782
2.03786 -2.31664 -0.176084
1.84874 -2.50828 0.2209
2.33335 -2.02209 -0.148917
2.30681 -2.02313 -0.39803
2.08996 -2.4274 1.46472
1.96628 -2.32137 -1.17226
1.76277 -2.62762 1.26652
1.44605 -2.74405 0.234307
2.09103 -2.2361 -0.49378
1.86981 -2.40412 -0.976762
2.47637 -1.89504 0.232475
1.56201 -2.68298 0.197898
2.54812 -1.79844 0.279533
2.07186 -2.32156 0.119317
1.7884 -2.46972 -0.96332
2.63916 -1.73905 1.29876
1.75076 -2.51894 -0.455363
2.44202 -1.88352 -0.189024
2.29583 -2.11409 0.214536
1.46875 -2.72476 0.0679459
2.7561 -1.4382 0.435691
2.25432 -2.10442 -0.195091
2.74199 -1.48651 0.642053
2.32316 -2.21545 1.49695
2.53154 -1.71283 -0.750686
1.64272 -2.68078 1.35961
1.7089 -2.53166 -1.12403
1.53924 -2.65465 -1.14613
1.56575 -2.71649 1.08141
2.72309 -1.48178 0.16571
2.16788 -2.16195 -0.488632
2.6443 -1.55299 -1.12294
2.37669 -1.9224 -0.598884
1.70784 -2.63897 0.749668
2.64998 -1.61064 0.108951
1.81757 -2.47141 -0.433103
2.0269 -2.40416 0.491114
1.7431 -2.50995 -0.733687
2.04644 -2.45143 1.71876
2.33702 -2.06342 0.185036
2.25455 -2.04423 -0.875667
2.43594 -1.89756 -0.140318
2.77758 -1.38675 1.19676
2.56825 -1.71095 -0.154163
2.59876 -1.74458 0.472163
2.38432 -1.9779 -0.0241123
1.50248 -2.67844 -1.11686
2.29183 -1.99863 -1.07814
1.60495 -2.68905 0.693361
2.73401 -1.40636 -0.603905
1.98648 -2.30691 -0.874557
2.57236 -1.84795 0.980976
2.78 -1.38517 0.463629
1.80634 -2.49208 -0.275814
1.64323 -2.57946 -0.816305
2.30261 -1.98667 -1.11366
2.66054 -1.69082 1.06807
2.49525 -1.7649 -0.696451
2.72121 -1.49702 0.277278
2.36821 -1.92837 -0.652674
2.7378 -1.4983 0.672642
1.83095 -2.46212 -0.422136
2.32426 -1.9992 -0.436384
2.33707 -2.20006 1.4981
1.77644 -2.59124 0.621179
1.56015 -2.64203 -0.563295
1.80178 -2.52623 0.0695581
2.43765 -1.83462 -0.790072
1.39572 -2.77467 0.434637
1.83749 -2.53738 0.442161
1.86021 -2.55259 0.793176
2.49979 -1.92131 0.649676
2.47272 -1.80809 -0.51669
1.89413 -2.55644 1.45798
2.05402 -2.24153 -1.19415
2.07004 -2.35025 0.338471
1.96955 -2.50557 1.18481
2.22991 -2.30142 1.7583
2.76903 -1.36118 -0.181422
2.34896 -2.13195 0.779097
1.95496 -2.5105 1.08735
1.81173 -2.56137 0.522566
2.39981 -1.9599 -0.0158887
1.49828 -2.71881 0.243379
2.03064 -2.42702 0.729041
1.90053 -2.55133 1.23826
2.74509 -1.39296 -0.427679
2.69746 -1.50045 -0.132703
1.49748 -2.74027 0.74534
2.75714 -1.4068 0.101215
2.28253 -2.11047 0.0840891
2.57794 -1.84366 1.04088
1.45791 -2.74139 0.30086
1.46664 -2.72898 0.130758
2.49571 -1.78974 -0.383768
2.52165 -1.72316 -1.15921
2.58371 -1.82669 0.957578
2.33667 -2.13241 0.673505
2.41122 -1.96781 0.142998
1.82385 -2.49188 -0.132194
2.66149 -1.62184 0.367886
2.15805 -2.14697 -0.828885
1.7168 -2.63267 0.725456
1.62758 -2.62553 -0.0969514
1.88092 -2.56032 1.57601
2.62284 -1.72671 0.657829
2.55763 -1.81621 0.512454
2.77191 -1.37536 -1.28578
2.43924 -2.05241 1.05931
1.53693 -2.67783 -0.116192
2.64654 -1.70893 0.913009
2.58354 -1.8302 0.993641
2.60358 -1.72527 0.387162
1.50819 -2.72932 1.38594
2.70489 -1.58278 1.34519
1.41054 -2.73174 -0.594479
1.60239 -2.62125 -0.423515
2.66792 -1.66648 0.911715
2.43865 -2.03706 0.904383
2.24764 -2.27247 1.0843
1.86295 -2.52469 0.488752
2.52923 -1.94064 1.41494
1.76748 -2.5256 -0.206178
1.49585 -2.72892 0.422037
2.61927 -1.67432 0.199454
2.05784 -2.30672 -0.107834
2.70629 -1.45063 -0.85154
2.51768 -1.84581 0.295408
2.55581 -1.8171 0.498249
2.41564 -2.0931 1.18084
2.35925 -2.09545 0.592541
2.43433 -1.83357 -1.16127
1.46242 -2.75632 0.82228
2.11491 -2.22026 -0.4214
2.09801 -2.33409 0.403362
1.68265 -2.55215 -1.15424
2.72283 -1.43579 -0.378373
2.60624 -1.69709 0.208519
2.18813 -2.14659 -0.436059
2.4681 -1.81143 -0.549118
1.99676 -2.49228 1.5422
1.80987 -2.46251 -0.667523
1.82792 -2.53721 0.372299
2.37552 -1.92992 -0.527869
2.43502 -2.07624 1.32021
2.53721 -1.90872 1.02516
1.77935 -2.49547 -0.496686
2.77196 -1.40681 1.18312
1.53484 -2.67368 -0.212542
2.12305 -2.17536 -1.01534
1.59192 -2.61407 -0.92882
2.64422 -1.71467 1.51074
1.70182 -2.56034 -0.346694
1.41589 -2.77378 1.00235
2.08242 -2.21395 -1.08018
2.23588 -2.16767 0.13918
1.36941 -2.78347 0.353638
1.48205 -2.73958 1.35645
1.46397 -2.69787 -0.817373
2.07231 -2.284 -0.193542
2.39185 -2.13457 1.57929
1.91222 -2.51004 0.692908
2.16023 -2.1687 -0.498376
2.54456 -1.9153 1.38181
1.77758 -2.48129 -0.812727
2.42667 -2.06514 1.02159
1.55097 -2.70637 0.505921
2.63511 -1.74459 1.12663
2.01259 -2.48006 1.60422
1.88476 -2.52411 0.642003
2.63667 -1.60826 -0.10572
1.76737 -2.54708 0.0419244
2.01308 -2.48223 1.49497
2.4551 -1.93599 0.316777
2.38311 -2.06808 0.60027
2.40577 -2.11695 1.40501
2.20502 -2.17751 -0.0240487
2.30922 -1.99848 -0.63344
2.34464 -2.18233 1.75113
2.7006 -1.5131 0.0518451
2.41533 -1.88377 -0.497605
2.34986 -1.95885 -0.546219
1.86119 -2.42212 -0.670486
2.0129 -2.32399 -0.313354
2.14785 -2.35844 1.01565
2.19353 -2.20875 0.125497
1.50481 -2.67812 -1.14698
1.71005 -2.5303 -0.883905
1.44807 -2.73647 0.0926876
2.74837 -1.38596 -0.450901
1.59704 -2.69708 0.794434
2.43309 -2.0074 0.614242
2.70254 -1.57078 0.625549
2.35527 -2.0249 0.0633356
1.65838 -2.64207 0.3806
2.69921 -1.5608 0.462384
1.68978 -2.62032 0.331548
2.77477 -1.4018 0.526052
1.57326 -2.63417 -0.550051
2.0863 -2.32805 0.273148
2.71877 -1.45478 -0.212761
1.61802 -2.59619 -0.992587
2.68893 -1.51508 -0.139279
2.67886 -1.64696 1.36494
1.91852 -2.42466 -0.0905662
2.70941 -1.51715 0.246398
1.68724 -2.54633 -0.96419
1.38187 -2.77957 0.400944
1.68054 -2.57109 -0.403397
1.69733 -2.54387 -1.23257
1.78155 -2.56837 0.382559
2.73835 -1.46813 0.340783
2.51716 -1.95697 1.55325
2.40675 -1.91924 -0.265512
2.15471 -2.37603 1.47276
1.8137 -2.60154 1.32525
1.72242 -2.62894 0.715295
2.24819 -2.087 -0.405038
2.25394 -2.04259 -0.938097
1.70705 -2.57002 -0.164735
2.76728 -1.4254 0.615367
2.11678 -2.18185 -0.997367
2.35224 -2.07175 0.366614
2.54753 -1.91025 1.41537
2.65994 -1.64562 0.542337
2.08285 -2.3105 0.108421
2.6767 -1.52789 -0.231585
2.03836 -2.40381 0.569228
2.10166 -2.21855 -0.581546
2.01458 -2.43095 0.646529
2.75834 -1.40376 0.0946392
2.31442 -2.11541 0.369315
1.97741 -2.39519 0.0692258
2.47697 -1.92327 0.434022
2.46161 -2.03466 1.68376
2.59222 -1.67869 -0.115492
2.22211 -2.13492 -0.224287
1.84618 -2.51043 0.224528
2.70791 -1.45368 -0.534566
2.70418 -1.55256 1.53465
2.72634 -1.4196 -0.604322
2.72149 -1.45139 -0.192573
1.44765 -2.74883 0.360893
2.75008 -1.39345 -1.13173
1.8504 -2.5799 1.48787
1.8903 -2.4507 -0.0484651
2.77242 -1.38683 1.29199
2.37246 -2.09497 0.705035
2.6517 -1.71102 1.11919
1.90818 -2.39779 -0.470276
2.74669 -1.48967 0.949121
2.68574 -1.63386 1.31376
2.38066 -2.14923 1.51839
2.68229 -1.64525 1.09572
2.58015 -1.8532 1.37823
1.74809 -2.60081 0.524942
2.75963 -1.36837 1.50321
2.54991 -1.7305 -0.221445
1.63204 -2.63352 0.0535563
1.46876 -2.75272 1.1401
1.55004 -2.64581 -1.1071
2.54178 -1.91949 1.34204
2.66873 -1.65886 1.48642
1.92674 -2.47249 0.415347
1.53424 -2.72238 1.34965
1.78419 -2.47297 -0.967251
2.7223 -1.49986 1.5183
1.55776 -2.65191 -0.368523
2.56232 -1.72131 -0.142107
1.53451 -2.72655 0.834259
2.34187 -2.00067 -0.241152
2.41005 -2.10498 1.25259
2.73135 -1.45922 0.102962
1.69089 -2.60903 0.196236
1.53595 -2.72247 0.71596
2.51458 -1.96372 1.47056
2.70417 -1.56982 0.651507
2.23302 -2.30609 1.59739
1.55122 -2.71528 0.709709
1.84742 -2.48381 -0.0360412
2.63855 -1.70962 1.62867
2.14961 -2.37064 1.76981
2.15128 -2.37086 1.22928
2.29548 -1.99455 -1.0969
