ply
format ascii 1.0
comment Created by Open3D
element vertex 400
property double x
property double y
property double z
end_header
-0.68907 3.07463 -1.02027
0.35729 3.02377 1.00286
-0.25236 3.17245 -0.956942
0.93586 2.97365 -0.792737
-0.93152 2.96425 -0.389984
-0.71792 3.05368 -0.719587
0.62584 3.09827 -1.39563
-0.34287 3.11766 -0.422334
0.26294 3.03067 1.06214
0.87191 2.95501 1.26384
-0.66387 3.08354 -1.41667
0.16386 3.15643 -0.64643
0.78256 2.995 -0.0310208
0.30296 3.03539 0.730265
0.3378 3.0622 0.23244
-0.88786 2.97004 -1.54492
-0.59245 3.11073 -1.26602
0.93107 2.92897 0.678787
0.11773 3.19997 -1.76651
0.93823 2.94584 0.00218496
-0.19961 3.12243 -0.305696
-0.07809 3.10187 -0.019106
0.37618 3.05363 0.288061
0.15297 3.17053 -0.803874
0.11665 3.20488 -1.65672
-0.39179 3.09157 -0.204481
0.95157 2.96681 -0.796994
-0.49035 3.01145 0.855521
0.58936 3.06609 -0.352528
-0.64762 2.98945 0.761978
-0.93774 2.97354 -0.870137
0.4384 3.06625 0.0134562
0.73825 3.05846 -1.14375
0.39004 3.03594 0.53953
0.61726 3.09581 -0.960845
0.38995 3.13997 -0.787979
0.09715 3.03832 1.19123
-0.62619 2.9962 0.654364
-0.26949 3.18854 -1.35886
0.63615 3.0961 -1.25203
0.62681 3.04891 -0.23833
-0.81985 2.97373 0.175568
0.74257 2.97401 0.641339
0.21791 3.08427 0.0977858
0.26327 3.0375 0.754568
0.59836 3.1015 -1.57161
-0.61726 3.01111 0.359811
0.42326 3.10307 -0.396807
-0.77655 2.96553 1.06341
0.32662 3.12304 -0.458453
0.97534 2.92263 1.04325
0.57587 3.11527 -1.20159
0.85423 2.97138 0.0232921
0.73599 2.97855 1.24302
0.90598 2.93618 0.615586
-0.28295 3.09767 -0.119232
-0.75985 3.02765 -0.477127
-0.98728 2.95057 -0.77885
0.15947 3.19274 -1.13496
0.38912 3.16001 -1.12544
0.99889 2.91416 0.384171
-0.78199 2.99484 -0.0255973
0.59538 3.10186 -0.950995
-0.93567 2.97447 -0.968807
-0.82088 2.97074 0.233204
0.81658 2.95997 0.546332
-0.72952 2.97573 0.680802
-0.28953 3.14682 -0.679339
0.54171 3.03794 0.158675
-0.59615 3.00798 0.496304
-0.53374 3.02173 0.436278
0.58569 3.11048 -1.46881
-0.50041 3.12624 -0.935721
0.93353 2.93652 1.1513
0.3945 3.02881 0.674792
-0.79613 3.01338 -0.427757
-0.47202 3.14657 -1.36713
-0.58799 3.10141 -1.63407
-0.13716 3.0706 0.323042
-0.73005 2.99112 0.283069
-0.35821 3.03195 0.690879
-0.64185 2.98816 0.950988
-0.15435 3.04296 0.77395
-0.35292 3.06879 0.126402
0.3922 3.02184 0.902657
0.0921 3.20715 -1.39069
-0.38008 3.14753 -0.87158
-0.04327 3.05666 0.563302
-0.23766 3.18675 -1.17561
-0.78617 3.03224 -0.762007
-0.17676 3.03521 1.10269
0.25995 3.07314 0.190509
0.70487 3.06997 -1.06084
0.5648 3.02199 0.339949
-0.35478 3.03 0.74797
-0.29791 3.17906 -1.19246
0.17625 3.04654 0.671172
-0.78089 3.04149 -1.13893
-0.96633 2.92326 0.418232
0.12694 3.05235 0.601755
-0.2424 3.04508 0.622254
-0.1214 3.05658 0.533689
0.77345 3.02975 -0.602073
-0.54671 3.11314 -0.906971
-0.42673 3.15615 -1.5501
-0.30213 3.05887 0.326372
0.31407 3.03368 0.749597
-0.66955 3.0261 -0.0585838
-0.49016 3.05031 0.111857
0.8006 3.01532 -0.49378
0.10803 3.20737 -1.46485
0.35213 3.03552 0.626398
0.86762 2.95096 0.418501
0.66827 3.07369 -0.810224
-0.67511 3.00404 0.273551
-0.70214 3.05304 -0.612475
0.42219 3.04675 0.302246
0.8223 2.96793 0.287531
0.9691 2.95824 -1.00021
-0.93436 2.93967 0.193125
0.44595 3.14388 -1.03472
-0.76355 3.02913 -1.59924
0.55481 3.0492 -0.030052
-0.85046 2.95809 1.24436
-0.42772 3.01707 1.12215
0.84741 2.99803 -1.47698
0.34262 3.13055 -0.571215
-0.9176 2.97151 -1.33881
-0.22104 3.03309 1.11051
-0.86108 2.98325 -1.55858
-0.38086 3.0221 1.16615
-0.65465 2.98613 0.993308
-0.41843 3.13953 -0.858781
0.47735 3.14514 -1.36336
-0.32262 3.18019 -1.38951
0.10708 3.14218 -0.45549
0.02543 3.2035 -1.22165
0.38997 3.04046 0.461288
-0.08175 3.2076 -1.63645
0.95267 2.92667 0.444141
0.99454 2.93772 -0.323904
-0.18381 3.19507 -1.73772
0.67063 3.07021 -1.61143
-0.70556 2.99669 0.284398
0.15879 3.03955 0.866934
0.97667 2.93295 -0.000452548
0.69328 2.98654 0.566647
0.92495 2.97947 -0.953873
0.25303 3.04266 0.655198
-0.77223 2.97545 0.405922
-0.9833 2.92 -1.49678
-0.17747 3.20174 -1.5102
0.06262 3.20554 -1.72107
-0.44979 3.08429 -0.227271
0.54611 3.12318 -1.15883
0.95544 2.92451 0.940565
0.94081 2.97224 -0.889823
-0.61738 3.08779 -1.66402
0.94144 2.97101 -1.0383
-0.35698 3.17041 -1.62561
-0.05213 3.20408 -1.24731
0.84228 3.00193 -0.513211
0.94229 2.97122 -0.989808
-0.72128 2.99273 0.291314
0.16071 3.1283 -0.338959
-0.87653 3.00016 -0.878128
0.84061 3.01549 -1.17607
-0.82976 2.96278 1.25912
-0.31781 3.16082 -0.916644
0.88342 2.98992 -0.589982
-0.37455 3.17009 -1.44907
-0.83117 3.01693 -0.807191
0.1611 3.19327 -1.14746
-0.20988 3.19566 -1.32558
-0.60163 3.04257 -0.0717431
-0.45339 3.10637 -0.502124
-0.35442 3.08082 -0.0206899
-0.11343 3.04422 0.779741
0.2412 3.17197 -0.930637
0.46846 3.064 -0.0184626
-0.2319 3.13166 -0.434729
0.47538 3.08943 -0.344439
0.41207 3.12656 -0.661392
0.05212 3.06158 0.483682
-0.52294 3.03979 0.179937
0.20098 3.0532 0.52678
0.81179 2.963 1.19329
0.94998 2.92424 0.832293
0.13543 3.20479 -1.60028
0.96357 2.92145 0.883134
-0.52212 3.12835 -1.10923
-0.11715 3.20392 -1.68412
0.6839 3.06674 -1.58296
-0.74028 2.9881 0.295083
-0.56211 3.004 0.745404
-0.45115 3.03286 0.458028
-0.90698 2.96081 -0.105104
-0.1062 3.13509 -0.380317
0.7557 2.9694 0.725633
0.03713 3.20823 -1.67232
-0.19107 3.2002 -1.52674
-0.24938 3.08438 0.0670549
-0.50946 3.02225 0.497188
0.61293 3.05461 -0.271536
-0.49347 3.03196 0.370637
-0.99127 2.91937 0.268439
-0.71411 2.97587 0.86547
0.58754 3.08178 -0.565325
0.038 3.18144 -0.877258
-0.88769 2.97572 -0.28758
0.74314 3.05085 -0.855062
-0.6574 2.98591 0.881946
0.40066 3.03042 0.623696
0.94039 2.9312 0.403518
0.44722 3.15214 -1.49265
-0.92893 2.9727 -0.610608
0.59117 3.03734 0.031742
-0.84635 2.9552 1.1648
0.0308 3.03888 1.09632
-0.18598 3.19994 -1.39856
-0.24826 3.0354 0.844681
0.0942 3.0828 0.191244
0.98572 2.95144 -0.811822
-0.57163 3.04679 -0.0430557
0.30353 3.08065 0.0502965
0.19913 3.16167 -0.740503
-0.89733 2.98343 -0.557165
-0.92155 2.96351 -0.280948
0.46337 3.04373 0.261382
0.51582 3.09555 -0.52502
-0.35745 3.065 0.167125
-0.41382 3.06483 0.0765231
0.95049 2.96573 -0.694096
-0.85121 3.01043 -0.868688
-0.39817 3.07046 0.034125
-0.93855 2.93957 0.160202
-0.82326 2.95525 1.00709
-0.34976 3.17528 -1.43403
0.5016 3.13404 -1.1185
0.27322 3.15487 -0.753352
-0.22629 3.09891 -0.0749957
0.53047 3.01486 0.583073
-0.74772 2.97734 1.25982
-0.51819 3.08946 -0.452082
0.22009 3.03313 1.0844
-0.31982 3.10609 -0.258943
0.0803 3.15747 -0.608918
0.54639 3.05481 -0.0821658
-0.65428 3.08593 -1.45365
-0.37197 3.0497 0.351086
-0.22399 3.19327 -1.6607
-0.95729 2.92279 0.866722
0.41242 3.14385 -0.90813
0.15845 3.09587 0.00994192
-0.58473 2.99884 0.812975
0.77187 3.03162 -0.629976
-0.82472 2.96316 0.38939
0.9625 2.94518 -0.192241
0.89295 2.93876 0.67166
-0.28673 3.1691 -0.974238
-0.87038 3.00023 -1.2337
-0.14338 3.04357 0.769672
-0.76458 3.0385 -1.47264
0.30042 3.13105 -0.510991
0.64314 2.99226 0.68332
-0.58484 2.99704 0.95709
-0.54716 3.06459 -0.210909
-0.30852 3.02792 0.995465
-0.5164 3.04133 0.174125
-0.93033 2.93982 0.222908
0.71022 3.06599 -1.3905
0.02082 3.20276 -1.20482
0.28434 3.09896 -0.135149
-0.61801 2.99447 1.1732
0.89127 2.97457 -0.289673
-0.82539 2.95631 1.07417
0.14929 3.1966 -1.77636
-0.90142 2.93681 0.91337
0.61567 2.99263 0.902565
0.42874 3.15595 -1.25986
-0.07492 3.09494 0.05811
-0.73428 3.05618 -0.923573
-0.66247 2.9896 0.654251
-0.40683 3.10484 -0.385451
0.38166 3.02481 0.8239
-0.55106 3.12055 -1.51782
-0.18308 3.20086 -1.4424
0.09227 3.20299 -1.25811
-0.47241 3.02072 0.640306
0.46425 3.01343 1.14246
-0.64097 2.98835 0.992241
0.51375 3.00846 1.18226
-0.84337 2.98483 -0.175136
0.00608 3.15419 -0.558416
0.25878 3.03101 1.04512
-0.82721 3.02209 -1.00477
0.34156 3.03723 0.613351
-0.42426 3.01737 1.11632
0.52429 3.1311 -1.24311
-0.64277 3.08441 -1.57262
0.22928 3.04718 0.599733
-0.16589 3.19257 -1.14196
0.70299 2.99951 0.243308
-0.34733 3.16959 -1.69045
0.55953 3.01347 0.513183
0.05172 3.10665 -0.0641982
-0.82018 3.00672 -1.53788
0.00164 3.19856 -1.12286
0.5483 3.04523 0.0403899
-0.45373 3.14806 -1.18447
0.79453 2.97002 0.407067
-0.91561 2.95635 -0.0690348
-0.38619 3.08667 -0.138402
0.51886 3.13088 -1.51845
-0.59772 3.07865 -0.556953
-0.32005 3.13373 -0.571505
-0.96343 2.92064 0.640165
0.84103 2.99624 -0.383471
0.92743 2.96169 -0.287722
-0.94637 2.92932 1.04077
-0.98793 2.9427 -1.1874
-0.7142 3.06573 -1.34586
0.52544 3.01991 0.494833
0.37552 3.167 -1.60393
0.43756 3.14839 -1.09259
-0.2866 3.12979 -0.477955
0.62766 2.9916 0.828885
0.40572 3.02041 1.20083
0.95959 2.92266 0.552908
-0.09254 3.15906 -0.631475
-0.47618 3.09238 -0.382417
-0.62631 2.99149 1.08813
0.79846 3.00822 -0.346291
-0.59921 2.99494 0.940728
0.84845 3.01095 -0.839732
-0.37801 3.02219 0.970165
0.00615 3.116 -0.158116
0.13794 3.05025 0.632309
0.11836 3.05843 0.505935
0.96715 2.93291 1.22259
0.61067 3.0876 -0.75362
0.68014 3.08043 -1.23088
-0.62204 3.09812 -1.07334
-0.81129 3.01157 -0.490612
-0.56206 3.09888 -0.72774
0.51195 3.11716 -0.824904
0.54317 3.0723 -0.299226
-0.30429 3.0735 0.134782
0.02831 3.07635 0.286237
-0.45433 3.08248 -0.214932
-0.20736 3.09716 -0.0393576
0.78375 2.96278 0.980778
-0.4748 3.06688 -0.0677479
-0.31195 3.18089 -1.58881
-0.70732 3.02212 -0.141577
-0.31556 3.18158 -1.3998
0.88832 2.99554 -1.05984
-0.93578 2.97407 -0.825809
0.70065 2.99844 0.272462
0.19814 3.19809 -1.37043
0.4149 3.1594 -1.27279
0.62205 3.09892 -1.10511
-0.28446 3.13434 -0.526406
0.88445 2.96973 -0.137228
0.89372 2.99327 -0.920632
-0.10326 3.17534 -0.82728
0.88693 2.9722 -0.20661
-0.86781 3.00428 -0.914303
0.79047 3.00226 -0.197113
-0.075 3.08003 0.231012
0.19434 3.1929 -1.75334
-0.80308 3.03236 -1.12373
-0.23954 3.05698 0.428634
-0.93809 2.95107 -0.123178
-0.9515 2.93829 -1.503
0.35536 3.02427 1.16299
-0.02996 3.08391 0.193825
-0.79702 2.97978 0.177738
0.45225 3.10146 -0.439007
-0.69135 3.0685 -0.859177
0.31006 3.04795 0.476908
-0.62939 3.0966 -1.10686
-0.23054 3.19504 -1.54827
0.26247 3.03118 0.999121
-0.32518 3.11777 -0.396722
0.81177 2.97408 0.213907
0.25083 3.04491 0.614108
-0.61053 3.10426 -1.36322
0.66183 3.00389 0.327744
-0.33828 3.16464 -1.03127
-0.83793 3.00035 -0.446107
0.69758 2.97995 0.7824
0.6359 3.06523 -0.504556
0.02525 3.04008 0.978834
-0.4513 3.14286 -1.69178
0.50874 3.10298 -0.604223
-0.43907 3.12768 -0.745015
-0.25569 3.04745 0.561697
0.76184 2.97126 0.591177
0.77866 3.02821 -0.606153
