ply
format ascii 1.0
comment Created by Open3D
element vertex 400
property double x
property double y
property double z
end_header
2.89553 -0.68907 -1.45265
1.429 0.35729 -2.84726
2.91992 -0.25236 -1.5666
2.66324 0.93586 -1.54214
2.3718 -0.93152 -1.82028
2.6681 -0.71792 -1.65045
3.17767 0.62584 -1.20395
2.50315 -0.34287 -1.90588
1.39196 0.26294 -2.89405
1.19584 0.87191 -2.98318
3.18213 -0.66387 -1.17865
2.68903 0.16386 -1.77484
2.13972 0.78256 -2.09585
1.62997 0.30296 -2.66272
2.00094 0.3378 -2.32966
3.19256 -0.88786 -1.00771
3.09483 -0.59245 -1.30441
1.59112 0.93107 -2.55107
3.51183 0.11773 -1.01361
2.08148 0.93823 -2.08457
2.42405 -0.19961 -1.99173
2.20686 -0.07809 -2.17984
1.95555 0.37618 -2.36293
2.81033 0.15297 -1.67348
3.43767 0.11665 -1.09472
2.33066 -0.39179 -2.04148
2.66141 0.95157 -1.53429
1.52447 -0.49035 -2.73436
2.41733 0.58936 -1.91878
1.57506 -0.64762 -2.65266
2.71789 -0.93774 -1.48733
2.15865 0.4384 -2.17768
2.97141 0.73825 -1.3539
1.76523 0.39004 -2.52824
2.86849 0.61726 -1.50965
2.77748 0.38995 -1.66311
1.30609 0.09715 -2.99075
1.65593 -0.62619 -2.58134
3.2155 -0.26949 -1.29378
3.07459 0.63615 -1.30395
2.32443 0.62681 -1.98738
1.9786 -0.81985 -2.22689
1.64945 0.74257 -2.55644
2.11176 0.21791 -2.25005
1.61428 0.26327 -2.6814
3.30439 0.59836 -1.0818
1.87475 -0.61726 -2.3836
2.47479 0.42326 -1.91362
1.345 -0.77655 -2.84889
2.5325 0.32662 -1.88415
1.32892 0.97534 -2.8043
3.05248 0.57587 -1.35318
2.08461 0.85423 -2.11755
1.2272 0.73599 -2.9851
1.64091 0.90598 -2.51148
2.27469 -0.28295 -2.10607
2.47825 -0.75985 -1.80349
2.6371 -0.98728 -1.53564
3.06015 0.15947 -1.45507
3.03027 0.38912 -1.43866
1.78897 0.99889 -2.33227
2.13577 -0.78199 -2.09957
2.8658 0.59538 -1.52089
2.78832 -0.93567 -1.41822
1.93573 -0.82088 -2.26553
1.7067 0.81658 -2.47933
1.62276 -0.72952 -2.58556
2.7055 -0.28953 -1.74477
2.03595 0.54171 -2.26035
1.77602 -0.59615 -2.4779
1.82819 -0.53374 -2.44518
3.23805 0.58569 -1.16084
2.87224 -0.50041 -1.54893
1.26234 0.93353 -2.89053
1.66454 0.3945 -2.61884
2.43325 -0.79613 -1.82831
3.19167 -0.47202 -1.25825
3.34849 -0.58799 -1.03756
1.94282 -0.13716 -2.39967
1.91488 -0.73005 -2.3152
1.65539 -0.35821 -2.63244
1.4405 -0.64185 -2.7854
1.60443 -0.15435 -2.69896
2.08058 -0.35292 -2.25934
1.49849 0.3922 -2.77504
3.25116 0.0921 -1.28443
2.84194 -0.38008 -1.60934
1.76307 -0.04327 -2.5597
3.08466 -0.23766 -1.42209
2.68294 -0.78617 -1.6053
1.3665 -0.17676 -2.92594
2.03833 0.25995 -2.30775
2.92093 0.70487 -1.42067
1.89649 0.5648 -2.37725
1.61364 -0.35478 -2.67143
3.09113 -0.29791 -1.40474
1.67964 0.17625 -2.62882
2.956 -0.78089 -1.34531
1.77132 -0.96633 -2.36279
1.73283 0.12694 -2.58384
1.7132 -0.2424 -2.5932
1.78395 -0.1214 -2.5387
2.56809 0.77345 -1.71663
2.84265 -0.54671 -1.56
3.32782 -0.42673 -1.13565
1.93217 -0.30213 -2.39373
1.61509 0.31407 -2.67518
2.1812 -0.66955 -2.09835
2.0778 -0.49016 -2.23599
2.48131 0.8006 -1.783
3.30376 0.10803 -1.23215
1.70351 0.35213 -2.58937
1.79072 0.86762 -2.38257
2.74634 0.66827 -1.60051
1.93075 -0.67511 -2.31761
2.59191 -0.70214 -1.72574
1.94066 0.42219 -2.3681
1.89533 0.8223 -2.30196
2.79905 0.9691 -1.38454
1.9421 -0.93436 -2.21522
2.95472 0.44595 -1.4914
3.27275 -0.76355 -1.01109
2.17736 0.55481 -2.13486
1.21179 -0.85046 -2.97158
1.33991 -0.42772 -2.92687
3.16431 0.84741 -1.07554
2.61754 0.34262 -1.80972
3.04786 -0.9176 -1.15449
1.35947 -0.22104 -2.92997
3.21156 -0.86108 -1.00739
1.31235 -0.38086 -2.96154
1.40914 -0.65465 -2.81389
2.82723 -0.41843 -1.61273
3.18799 0.47735 -1.25991
3.23127 -0.32262 -1.2662
2.54394 0.10708 -1.89978
3.12906 0.02543 -1.40138
1.82375 0.38997 -2.47611
3.42526 -0.08175 -1.11097
1.75541 0.95267 -2.38352
2.30632 0.99454 -1.84825
3.48801 -0.18381 -1.0305
3.31042 0.67063 -1.03151
1.91788 -0.70556 -2.32008
1.53627 0.15879 -2.7623
2.07423 0.97667 -2.07359
1.71112 0.69328 -2.51248
2.78129 0.92495 -1.43231
1.68819 0.25303 -2.61478
1.81693 -0.77223 -2.39099
3.12314 -0.9833 -1.00637
3.33184 -0.17747 -1.1961
3.48364 0.06262 -1.04968
2.34163 -0.44979 -2.02022
3.02784 0.54611 -1.389
1.40286 0.95544 -2.73302
2.73089 0.94081 -1.47249
3.36004 -0.61738 -1.00676
2.83501 0.94144 -1.36663
3.3913 -0.35698 -1.09234
3.14761 -0.05213 -1.38365
2.48558 0.84228 -1.75979
2.80087 0.94229 -1.40107
1.91019 -0.72128 -2.32217
2.45172 0.16071 -1.97236
2.74236 -0.87653 -1.5005
2.96388 0.84061 -1.30067
1.20467 -0.82976 -2.98534
2.8832 -0.31781 -1.58687
2.53137 0.88342 -1.69701
3.26624 -0.37455 -1.21694
2.70406 -0.83117 -1.56252
3.06936 0.1611 -1.4466
3.197 -0.20988 -1.32234
2.20215 -0.60163 -2.10069
2.55159 -0.45339 -1.84148
2.1931 -0.35442 -2.16384
1.60123 -0.11343 -2.70395
2.90098 0.2412 -1.58486
2.17963 0.46846 -2.15352
2.52182 -0.2319 -1.90702
2.42811 0.47538 -1.941
2.67849 0.41207 -1.74314
1.82285 0.05212 -2.50688
2.02222 -0.52294 -2.27669
1.78645 0.20098 -2.53143
1.25138 0.81179 -2.93894
1.47923 0.94998 -2.65627
3.3977 0.13543 -1.13456
1.44131 0.96357 -2.69025
2.99642 -0.52212 -1.42773
3.45637 -0.11715 -1.07466
3.28783 0.6839 -1.04919
1.90425 -0.74028 -2.32156
1.59707 -0.56211 -2.65123
1.82068 -0.45115 -2.46843
2.16793 -0.90698 -2.01929
2.48577 -0.1062 -1.94792
1.58658 0.7557 -2.61278
3.45107 0.03713 -1.08605
3.34245 -0.19107 -1.18331
2.13357 -0.24938 -2.2284
1.78549 -0.50946 -2.48862
2.35194 0.61293 -1.96793
1.88184 -0.49347 -2.406
1.87449 -0.99127 -2.25412
1.49228 -0.71411 -2.71624
2.57889 0.58754 -1.7794
2.86993 0.038 -1.6293
2.3075 -0.88769 -1.9008
2.7619 0.74314 -1.55266
1.48773 -0.6574 -2.73499
1.70181 0.40066 -2.58385
1.78734 0.94039 -2.358
3.28436 0.44722 -1.17344
2.53378 -0.92893 -1.67025
2.12528 0.59117 -2.17017
1.266 -0.84635 -2.91328
1.3736 0.0308 -2.92403
3.25163 -0.18598 -1.27377
1.54907 -0.24826 -2.74363
2.04464 0.0942 -2.3151
2.66103 0.98572 -1.51294
2.18485 -0.57163 -2.12396
2.14278 0.30353 -2.21391
2.75925 0.19913 -1.71202
2.50358 -0.89733 -1.71563
2.29418 -0.92155 -1.89686
1.96742 0.46337 -2.33707
2.56013 0.51582 -1.81764
2.04911 -0.35745 -2.28546
2.11305 -0.41382 -2.22127
2.58789 0.95049 -1.60629
2.74295 -0.85121 -1.51444
2.14701 -0.39817 -2.19527
1.96531 -0.93855 -2.19187
1.37756 -0.82326 -2.8018
3.25927 -0.34976 -1.23125
3.007 0.5016 -1.4252
2.76353 0.27322 -1.69813
2.24429 -0.22629 -2.13823
1.71953 0.53047 -2.54412
1.21447 -0.74772 -2.99613
2.50425 -0.51819 -1.86491
1.37796 0.22009 -2.91154
2.37944 -0.31982 -2.01324
2.66324 0.0803 -1.8021
2.21818 0.54639 -2.10198
3.20997 -0.65428 -1.1542
1.90821 -0.37197 -2.40472
3.43228 -0.22399 -1.08369
1.45386 -0.95729 -2.67959
2.86518 0.41242 -1.58089
2.18208 0.15845 -2.19614
1.54564 -0.58473 -2.69536
2.58914 0.77187 -1.69822
1.81993 -0.82472 -2.37061
2.21849 0.9625 -1.94662
1.60308 0.89295 -2.55295
2.92978 -0.28673 -1.552
2.99384 -0.87038 -1.24913
1.60789 -0.14338 -2.69637
3.18986 -0.76458 -1.10723
2.57531 0.30042 -1.85266
1.63267 0.64314 -2.59903
1.44246 -0.58484 -2.79599
2.31613 -0.54716 -2.01786
1.43716 -0.30852 -2.84496
2.02742 -0.5164 -2.27367
1.92115 -0.93033 -2.23639
3.15121 0.71022 -1.18475
3.11663 0.02082 -1.41276
2.28686 0.28434 -2.09573
1.28783 -0.61801 -2.94699
2.30817 0.89127 -1.89851
1.33087 -0.82539 -2.84998
3.51641 0.14929 -1.00426
1.43079 -0.90142 -2.72249
1.4779 0.61567 -2.75432
3.12245 0.42874 -1.34074
2.14736 -0.07492 -2.22954
2.81411 -0.73428 -1.50798
1.65134 -0.66247 -2.57659
2.46801 -0.40683 -1.9229
1.55628 0.38166 -2.72145
3.27982 -0.55106 -1.1333
3.28328 -0.18308 -1.24342
3.15447 0.09227 -1.37524
1.68321 -0.47241 -2.58874
1.32298 0.46425 -2.93866
1.41146 -0.64097 -2.8147
1.29132 0.51375 -2.96329
2.23443 -0.84337 -1.98675
2.62521 0.00608 -1.83549
1.40424 0.25878 -2.88226
2.84742 -0.82721 -1.42646
1.71394 0.34156 -2.58135
1.34425 -0.42426 -2.92296
3.09303 0.52429 -1.33501
3.29302 -0.64277 -1.069
1.73061 0.22928 -2.57876
3.06498 -0.16589 -1.45
1.94893 0.70299 -2.29302
3.43657 -0.34733 -1.04591
1.76797 0.55953 -2.49372
2.24213 0.05172 -2.15134
3.21352 -0.82018 -1.03863
3.05571 0.00164 -1.46774
2.12474 0.5483 -2.18186
3.06356 -0.45373 -1.38847
1.81228 0.79453 -2.38796
2.13927 -0.91561 -2.04164
2.28047 -0.38619 -2.08474
3.28757 0.51886 -1.14016
2.57076 -0.59772 -1.78311
2.62 -0.32005 -1.81177
1.61254 -0.96343 -2.51787
2.38982 0.84103 -1.84751
2.29768 0.92743 -1.89078
1.33541 -0.94637 -2.80728
2.92042 -0.98793 -1.24118
3.11947 -0.7142 -1.21613
1.7855 0.52544 -2.4853
3.37356 0.37552 -1.10526
2.99882 0.43756 -1.45367
2.55106 -0.2866 -1.87513
1.52927 0.62766 -2.70149
1.28664 0.40572 -2.98487
1.67567 0.95959 -2.4576
2.68031 -0.09254 -1.78727
2.45705 -0.47618 -1.91623
1.34588 -0.62631 -2.88473
2.372 0.79846 -1.88227
1.45255 -0.59921 -2.78294
2.72284 0.84845 -1.53528
1.451 -0.37801 -2.82302
2.31515 0.00615 -2.09154
1.70974 0.13794 -2.60396
1.80489 0.11836 -2.52039
1.20938 0.96715 -2.93838
2.71615 0.61067 -1.65037
3.04856 0.68014 -1.30783
2.94967 -0.62204 -1.43174
2.47642 -0.81129 -1.78259
2.70583 -0.56206 -1.67665
2.78746 0.51195 -1.62087
2.38403 0.54317 -1.96086
2.07799 -0.30429 -2.2686
1.97291 0.02831 -2.37771
2.33162 -0.45433 -2.02766
2.21785 -0.20736 -2.16219
1.40149 0.78375 -2.78852
2.21652 -0.4748 -2.12071
3.37269 -0.31195 -1.12577
2.23707 -0.70732 -2.03685
3.23952 -0.31556 -1.25991
2.86759 0.88832 -1.36875
2.68692 -0.93578 -1.51905
1.92756 0.70065 -2.31288
3.23043 0.19814 -1.29235
3.13403 0.4149 -1.33403
2.9727 0.62205 -1.40984
2.58854 -0.28446 -1.84409
2.19695 0.88445 -2.00288
2.76755 0.89372 -1.46558
2.83028 -0.10326 -1.66033
2.24776 0.88693 -1.95557
2.77086 -0.86781 -1.47784
2.2623 0.79047 -1.98354
2.01456 -0.075 -2.34126
3.49752 0.19434 -1.01792
2.9388 -0.80308 -1.3496
1.85852 -0.23954 -2.4647
2.17382 -0.93809 -1.99962
3.14047 -0.9515 -1.0149
1.31612 0.35536 -2.96084
2.0436 -0.02996 -2.31771
1.98134 -0.79702 -2.2327
2.50349 0.45225 -1.88264
2.77729 -0.69135 -1.56223
1.818 0.31006 -2.49245
2.9723 -0.62939 -1.40696
3.35403 -0.23054 -1.16444
1.43688 0.26247 -2.84985
2.48512 -0.32518 -1.92407
1.95174 0.81177 -2.25425
1.71884 0.25083 -2.58732
3.15898 -0.61053 -1.2311
1.89232 0.66183 -2.35582
2.96696 -0.33828 -1.50852
2.43701 -0.83793 -1.80612
1.5539 0.69758 -2.66038
2.52422 0.6359 -1.81067
1.45752 0.02525 -2.8418
3.41861 -0.4513 -1.02607
2.62139 0.50874 -1.76689
2.73841 -0.43907 -1.6848
1.75769 -0.25569 -2.55205
1.68297 0.76184 -2.51902
2.56988 0.77866 -1.71265
