ply
format ascii 1.0
comment Created by Open3D
element vertex 400
property double x
property double y
property double z
end_header
1.68684 2.66134 -1.02027
2.39077 1.88549 1.00286
2.06481 2.42171 -0.956942
2.76444 1.44094 -0.792737
1.43736 2.75472 -0.389984
1.65163 2.66692 -0.719587
2.63335 1.74827 -1.39563
1.96207 2.44696 -0.422334
2.32893 1.95708 1.06214
2.70604 1.47298 1.26384
1.71096 2.64982 -1.41667
2.3478 2.11607 -0.64643
2.67114 1.56443 -0.0310208
2.36057 1.93212 0.730265
2.40416 1.92644 0.23244
1.47232 2.72795 -1.54492
1.78069 2.61855 -1.26602
2.72946 1.41273 0.678787
2.34597 2.17947 -1.76651
2.74645 1.4196 0.00218496
2.06674 2.34904 -0.305696
2.13813 2.24857 -0.019106
2.42524 1.89324 0.288061
2.35007 2.13374 -0.803874
2.34868 2.18371 -1.65672
1.90903 2.46311 -0.204481
2.77071 1.42499 -0.796994
1.78269 2.47614 0.855521
2.5848 1.75131 -0.352528
1.65592 2.5718 0.761978
1.43953 2.76569 -0.870137
2.47816 1.85817 0.0134562
2.68468 1.64063 -1.14375
2.42253 1.87094 0.53953
2.62554 1.7526 -0.960845
2.49603 1.94456 -0.787979
2.21712 2.07972 1.19123
1.67585 2.56142 0.654364
2.06408 2.4452 -1.35886
2.6391 1.73944 -1.25203
2.59913 1.71268 -0.23833
1.52302 2.68247 0.175568
2.62802 1.57787 0.641339
2.33499 2.02682 0.0977858
2.334 1.96168 0.754568
2.6162 1.76999 -1.57161
1.69271 2.56564 0.359811
2.4935 1.89491 -0.396807
1.54784 2.64605 1.06341
2.43928 1.97737 -0.458453
2.75628 1.37694 1.04325
2.61003 1.79563 -1.20159
2.70511 1.49705 0.0232921
2.62657 1.58573 1.24302
2.71682 1.43557 0.615586
1.9903 2.39046 -0.119232
1.60357 2.67817 -0.477127
1.38826 2.78448 -0.77885
2.37037 2.14485 -1.13496
2.50961 1.95932 -1.12544
2.76694 1.3543 0.384171
1.56472 2.67062 -0.0255973
2.61434 1.77235 -0.950995
1.44165 2.76489 -0.968807
1.52018 2.68108 0.233204
2.67042 1.51561 0.546332
1.58831 2.62001 0.680802
2.02041 2.42986 -0.679339
2.5312 1.7651 0.158675
1.70542 2.5485 0.496304
1.75927 2.5141 0.436278
2.61359 1.7853 -1.46881
1.85674 2.56443 -0.935721
2.73654 1.41633 1.1513
2.42064 1.86274 0.674792
1.56783 2.69373 -0.427757
1.89119 2.55873 -1.36713
1.77725 2.6088 -1.63407
2.07426 2.26823 0.323042
1.59882 2.63126 0.283069
1.89062 2.39721 0.690879
1.65909 2.56681 0.950988
2.04255 2.26084 0.77395
1.92041 2.41951 0.126402
2.41409 1.85944 0.902657
2.33292 2.20267 -1.39069
1.95688 2.4944 -0.87158
2.13079 2.19198 0.563302
2.08532 2.42143 -1.17561
1.58821 2.70003 -0.762007
2.02123 2.27121 1.10269
2.35685 1.98923 0.190509
2.66922 1.67238 -1.06084
2.53624 1.7375 0.339949
1.89167 2.3934 0.74797
2.03728 2.45859 -1.19246
2.27886 2.0296 0.671172
1.59848 2.70283 -1.13893
1.38376 2.75035 0.418232
2.2481 2.06857 0.601755
1.9818 2.3246 0.622254
2.07548 2.24717 0.533689
2.68927 1.59545 -0.602073
1.81474 2.58791 -0.906971
1.92999 2.53348 -1.5501
1.94931 2.37659 0.326372
2.36722 1.92305 0.749597
1.66633 2.61322 -0.0585838
1.8103 2.50349 0.111857
2.69826 1.56605 -0.49378
2.34434 2.19157 -1.46485
2.39543 1.89745 0.626398
2.70014 1.47315 0.418501
2.64596 1.70089 -0.810224
1.64681 2.60155 0.273551
1.66234 2.65531 -0.612475
2.45291 1.85585 0.302246
2.6801 1.51719 0.287531
2.77705 1.40654 -1.00021
1.41797 2.73935 0.193125
2.53839 1.90773 -1.03472
1.60201 2.68183 -1.59924
2.54842 1.7638 -0.030052
1.49032 2.69305 1.24436
1.83095 2.43583 1.12215
2.71913 1.52072 -1.47698
2.4559 1.97136 -0.571215
1.45233 2.75002 -1.33881
1.98842 2.30102 1.11051
1.5006 2.71835 -1.55858
1.86764 2.40625 1.16615
1.64861 2.57442 0.993308
1.92411 2.51585 -0.858781
2.56149 1.88641 -1.36336
2.02061 2.47686 -1.38951
2.29758 2.14614 -0.45549
2.2832 2.24724 -1.22165
2.42568 1.87418 0.461288
2.21031 2.32592 -1.63645
2.7431 1.39583 0.444141
2.78053 1.37404 -0.323904
2.12928 2.38923 -1.73772
2.64517 1.69676 -1.61143
1.62007 2.61789 0.284398
2.26157 2.037 0.866934
2.76452 1.3833 -0.000452548
2.60202 1.62158 0.566647
2.76084 1.45276 -0.953873
2.3304 1.97257 0.655198
1.55791 2.65001 0.405922
1.36946 2.76005 -1.49678
2.13848 2.38946 -1.5102
2.31094 2.22238 -1.72107
1.86288 2.49897 -0.227271
2.59458 1.82226 -1.15883
2.74354 1.39234 0.940565
2.76694 1.43644 -0.889823
1.74685 2.61995 -1.66402
2.76652 1.43512 -1.0383
1.9894 2.49424 -1.62561
2.22877 2.30249 -1.24731
2.71827 1.5271 -0.513211
2.76727 1.43467 -0.989808
1.60616 2.6262 0.291314
2.32568 2.0984 -0.338959
1.50163 2.74123 -0.878128
2.72668 1.53787 -1.17607
1.50828 2.68173 1.25912
2.01031 2.45976 -0.916644
2.73886 1.48952 -0.589982
1.97674 2.50644 -1.44907
1.54556 2.72102 -0.807191
2.37189 2.14407 -1.14746
2.11126 2.40808 -1.32558
1.726 2.57684 -0.0717431
1.87594 2.51713 -0.502124
1.92786 2.42908 -0.0206899
2.07238 2.2328 0.779741
2.41347 2.07237 -0.930637
2.49783 1.83532 -0.0184626
2.05044 2.3784 -0.434729
2.5207 1.84841 -0.344439
2.50219 1.91944 -0.661392
2.20172 2.12801 0.483682
1.77968 2.51923 0.179937
2.30105 2.01683 0.52678
2.66918 1.52114 1.19329
2.73949 1.39601 0.832293
2.36189 2.17037 -1.60028
2.74713 1.38443 0.883134
1.84288 2.58127 -1.10923
2.18268 2.34835 -1.68412
2.6521 1.68492 -1.58296
1.58945 2.63636 0.295083
1.72668 2.52162 0.745404
1.82554 2.46357 0.458028
1.45228 2.73494 -0.105104
2.14175 2.29194 -0.380317
2.63404 1.56532 0.725633
2.29481 2.24231 -1.67232
2.12777 2.39799 -1.52674
2.00465 2.35732 0.0670549
1.77681 2.4973 0.497188
2.59334 1.72653 -0.271536
1.79498 2.49286 0.370637
1.36337 2.76524 0.268439
1.59931 2.60921 0.86547
2.5946 1.76369 -0.565325
2.27649 2.22274 -0.877258
1.47646 2.73184 -0.28758
2.68276 1.6318 -0.855062
1.64651 2.57621 0.881946
2.42614 1.85952 0.623696
2.73763 1.40771 0.403518
2.54513 1.91267 -1.49265
1.44516 2.75887 -0.610608
2.56575 1.7297 0.031742
1.49118 2.6881 1.1648
2.17059 2.12704 1.09632
2.13119 2.39421 -1.39856
1.9708 2.3219 0.844681
2.24648 2.11326 0.191244
2.78399 1.38998 -0.811822
1.7502 2.55861 -0.0430557
2.39297 1.96372 0.0502965
2.37644 2.09483 -0.740503
1.4751 2.74411 -0.557165
1.44389 2.74715 -0.280948
2.4799 1.82459 0.261382
2.55362 1.82415 -0.52502
1.91453 2.42004 0.167125
1.87455 2.45977 0.0765231
2.76919 1.42499 -0.694096
1.5268 2.73059 -0.868688
1.88959 2.45269 0.034125
1.41493 2.74225 0.160202
1.50755 2.67181 1.00709
1.99794 2.49258 -1.43403
2.57078 1.86142 -1.1185
2.42403 2.03763 -0.753352
2.03125 2.35127 -0.0749957
2.50692 1.75673 0.583073
1.57658 2.63402 1.25982
1.81816 2.551 -0.452082
2.30038 1.98912 1.0844
1.97019 2.42249 -0.258943
2.28945 2.17589 -0.608918
2.54644 1.77372 -0.0821658
1.71944 2.64473 -1.45365
1.89344 2.41949 0.351086
2.0996 2.41637 -1.6607
1.38982 2.74363 0.866722
2.51466 1.93141 -0.90813
2.30115 2.07707 0.00994192
1.70703 2.53397 0.812975
2.68947 1.59789 -0.629976
1.5121 2.67844 0.38939
2.76315 1.40196 -0.192241
2.70943 1.4466 0.67166
2.03814 2.44364 -0.974238
1.50603 2.73694 -1.2337
2.05075 2.25351 0.769672
1.60791 2.68918 -1.47264
2.42641 2.00156 -0.510991
2.57062 1.66108 0.68332
1.70568 2.53277 0.95709
1.78009 2.5539 -0.210909
1.9229 2.35922 0.995465
1.7854 2.51569 0.174125
1.42093 2.73661 0.222908
2.67018 1.66578 -1.3905
2.27942 2.24997 -1.20482
2.39235 1.99024 -0.135149
1.68041 2.55441 1.1732
2.73356 1.47312 -0.289673
1.50679 2.67406 1.07417
2.3659 2.15477 -1.77636
1.43924 2.71404 0.91337
2.55145 1.68077 0.902565
2.53476 1.92843 -1.25986
2.13547 2.24143 0.05811
1.64183 2.68026 -0.923573
1.64553 2.5824 0.654251
1.90778 2.48313 -0.385451
2.40874 1.86899 0.8239
1.8169 2.59622 -1.51782
2.13389 2.39281 -1.4424
2.3301 2.19961 -1.25811
1.80193 2.47002 0.640306
2.45909 1.80255 1.14246
1.65985 2.56631 0.992241
2.49058 1.76403 1.18226
1.51424 2.70694 -0.175136
2.23465 2.22605 -0.558416
2.32624 1.96026 1.04512
1.55201 2.72187 -1.00477
2.38916 1.90613 0.613351
1.83361 2.4336 1.11632
2.58475 1.84329 -1.24311
1.7265 2.63552 -1.57262
2.31681 1.99256 0.599733
2.14019 2.37479 -1.14196
2.61806 1.62389 0.243308
1.99564 2.48684 -1.69045
2.52649 1.7352 0.513183
2.23331 2.16016 -0.0641982
1.54612 2.70603 -1.53788
2.26288 2.26057 -1.12286
2.54101 1.76559 0.0403899
1.90518 2.54685 -1.18447
2.66194 1.5383 0.407067
1.44302 2.73789 -0.0690348
1.90953 2.45568 -0.138402
2.58075 1.84698 -1.51845
1.75428 2.59959 -0.556953
1.98958 2.44219 -0.571505
1.38396 2.74645 0.640165
2.71336 1.52397 -0.383471
2.75002 1.43844 -0.287722
1.40216 2.74053 1.04077
1.38223 2.77937 -1.1874
1.66278 2.67282 -1.34586
2.50694 1.76386 0.494833
2.50494 1.97388 -1.60393
2.53565 1.91684 -1.09259
2.01044 2.41575 -0.477955
2.5592 1.67156 0.828885
2.42264 1.84887 1.20083
2.74517 1.3881 0.552908
2.16835 2.29923 -0.631475
1.84993 2.52335 -0.382417
1.67244 2.55817 1.08813
2.69173 1.56254 -0.346291
1.69404 2.54145 0.940728
2.729 1.52912 -0.839732
1.86972 2.4043 0.970165
2.20769 2.199 -0.158116
2.25439 2.05931 0.632309
2.24633 2.07895 0.505935
2.75776 1.39 1.22259
2.61507 1.75145 -0.75362
2.65913 1.69726 -1.23088
1.75086 2.63055 -1.07334
1.55584 2.70317 -0.490612
1.7938 2.58868 -0.72774
2.56617 1.84216 -0.824904
2.55652 1.78837 -0.299226
1.95813 2.38846 0.134782
2.19533 2.15529 0.286237
1.85838 2.5009 -0.214932
2.04339 2.33665 -0.0393576
2.6492 1.54081 0.980778
1.83288 2.50435 -0.0677479
2.02865 2.46981 -1.58881
1.63681 2.63711 -0.141577
2.02658 2.47285 -1.3998
2.74631 1.49003 -1.05984
1.44129 2.76468 -0.825809
2.61565 1.62479 0.272462
2.4015 2.12128 -1.37043
2.52741 1.94065 -1.27279
2.63113 1.75141 -1.10511
2.01517 2.41746 -0.526406
2.72532 1.47451 -0.137228
2.74852 1.48461 -0.920632
2.17229 2.31832 -0.82728
2.72882 1.47451 -0.20661
1.51072 2.73798 -0.914303
2.68187 1.56397 -0.197113
2.12488 2.23094 0.231012
2.39514 2.1203 -1.75334
1.57634 2.71206 -1.12373
1.99223 2.33099 0.428634
1.42339 2.75005 -0.123178
1.40487 2.7505 -1.503
2.38976 1.8872 1.16299
2.15947 2.20184 0.193825
1.54344 2.6706 0.177738
2.51285 1.87328 -0.439007
1.6809 2.65862 -0.859177
2.37447 1.93598 0.476908
1.74458 2.63468 -1.10686
2.09622 2.42225 -1.54827
2.32896 1.95777 0.999121
1.97466 2.43453 -0.396722
2.677 1.52899 0.213907
2.33044 1.97572 0.614108
1.76333 2.62675 -1.36322
2.59205 1.65609 0.327744
1.99854 2.47694 -1.03127
1.52906 2.71407 -0.446107
2.6004 1.61388 0.7824
2.61709 1.7178 -0.504556
2.16751 2.13181 0.978834
1.90322 2.54146 -1.69178
2.55387 1.83441 -0.604223
1.90114 2.52207 -0.745015
1.97407 2.33567 0.561697
2.6397 1.56229 0.591177
2.69186 1.59067 -0.606153
