ply
format ascii 1.0
comment Created by Open3D
element vertex 250
property double x
property double y
property double z
end_header
1.82683 1.90672 -2.11306
1.33248 0.247506 -3.55467
2.3079 -1.45634 -1.45643
2.66442 -0.260365 -2.00981
1.87747 1.64586 -2.61313
2.91256 0.35311 -1.18036
3.33488 0.143837 0.661064
2.90151 -0.315268 -1.09155
1.84349 1.95416 -1.96383
2.68434 0.392572 -2.27289
2.11587 0.0534832 -3.19769
2.84975 -0.0822342 -1.45976
2.42605 0.763378 -2.86895
2.83 0.798407 -1.22916
2.33538 1.06898 -2.8043
1.987 1.23642 -3.09027
2.93574 0.562078 -0.873496
3.11885 -0.73776 -0.0449793
3.02646 0.443029 -0.444009
2.29496 -1.2476 -1.72694
1.92489 0.201873 -3.3943
3.06047 -0.601481 -0.299027
2.76732 0.684261 -1.76845
3.02863 -0.265374 -0.563313
2.51858 -0.960706 -1.63003
2.39762 1.28084 -2.33581
2.89757 0.712865 -0.922578
1.661 0.791205 -3.5106
2.64601 -0.945537 -1.335
2.62714 0.186286 -2.4144
1.73774 1.98973 -2.03687
1.38163 0.533232 -3.57636
1.62448 1.76694 -2.62686
1.55137 -0.274796 -3.32682
1.30834 0.218842 -3.54981
3.33103 0.0704309 0.622283
2.37919 -1.34943 -1.45404
1.42754 -0.0388062 -3.46555
2.54981 1.17953 -2.00241
2.67917 -0.913758 -1.28152
2.64965 -0.905455 -1.37076
2.95579 0.157019 -0.986571
2.16366 0.384672 -3.26684
2.04035 1.10852 -3.1621
2.26141 -1.0709 -1.99425
1.91224 0.690723 -3.44318
2.55536 -1.71006 -0.720881
1.93013 0.807223 -3.40566
3.12003 0.133359 -0.144286
2.38101 1.17494 -2.56663
1.78483 -0.237609 -3.25758
2.53807 -0.776847 -1.80121
2.71651 -1.57407 -0.519073
1.66369 1.44105 -3.07574
2.76266 -0.179604 -1.74929
2.81956 -1.64259 -0.246098
2.74311 -0.491194 -1.54024
1.9018 1.89102 -2.0286
2.40366 -0.296648 -2.5845
2.91684 0.222832 -1.19454
2.9177 0.0868938 -1.19023
3.04164 -0.460181 -0.433656
2.48644 -0.954536 -1.70891
2.02255 1.47206 -2.74118
1.61202 1.19947 -3.32059
1.66118 -0.107222 -3.38104
2.53432 0.134965 -2.62877
3.17952 -0.64164 0.11167
2.12416 1.6692 -2.15498
2.8299 0.528724 -1.56018
2.52761 0.22782 -2.68274
2.44534 -1.29416 -1.39075
1.88561 1.81307 -2.25023
2.83027 -0.696421 -1.04606
2.71254 -0.983791 -1.11293
3.30673 0.0585406 0.543155
2.73456 -1.64289 -0.422251
2.354 0.75425 -3.00253
2.48597 0.541499 -2.8134
2.86172 0.178849 -1.49008
2.84831 0.804946 -1.09674
1.94465 -0.333696 -3.09485
2.23793 1.24315 -2.76557
3.0305 0.304742 -0.518903
2.87298 -0.0970711 -1.34745
1.76799 1.18372 -3.27822
3.14099 -0.167202 -0.101971
1.95628 1.82026 -2.11332
2.71548 -0.924574 -1.16847
2.64301 0.381377 -2.41082
2.32924 -1.47743 -1.39457
3.07101 -0.736457 -0.198073
2.36998 1.22972 -2.50602
2.52951 0.572634 -2.70932
2.21101 0.122878 -3.13686
2.70866 -1.02358 -1.08089
2.33176 1.57055 -1.82858
1.81964 1.725 -2.52719
2.09854 -0.523441 -2.80078
2.74362 1.0723 -1.20581
2.39942 0.598264 -2.97127
2.05956 1.35694 -2.86932
2.30633 1.15627 -2.7564
2.19905 1.69037 -1.90298
2.05457 0.295044 -3.33834
2.78844 0.845627 -1.41384
2.87801 0.583812 -1.21833
2.81527 -1.6756 -0.230658
3.16016 -0.611079 0.0419762
2.91199 -0.305978 -1.05302
2.44592 -1.03485 -1.6988
2.14411 -0.550902 -2.72416
2.84583 -0.575304 -1.10301
2.06692 1.83347 -1.83806
2.96166 -1.32145 -0.153819
2.55042 0.210483 -2.62392
2.99631 -0.966342 -0.296623
1.80232 1.71827 -2.55917
2.23412 1.04015 -3.00027
2.0399 0.365017 -3.36428
3.29737 0.118557 0.534751
1.9975 -0.0574773 -3.23474
2.86213 -0.000522153 -1.44198
2.17598 0.5941 -3.265
3.24164 -0.0720937 0.289989
3.06 -1.11663 -0.0297965
2.2646 -1.10146 -1.95278
2.40239 -0.829467 -2.02977
2.90994 0.281924 -1.22134
2.69607 -1.42046 -0.705858
2.90087 -0.611524 -0.872745
3.14737 -0.862402 0.0895879
2.33034 0.43073 -3.08145
2.55897 -1.89533 -0.544171
2.33325 -1.13481 -1.79531
2.81554 -0.738199 -1.05523
2.92552 -1.25163 -0.291931
2.85963 -0.440076 -1.16771
1.69476 0.0880798 -3.45369
3.24404 -0.166316 0.283154
1.49458 0.069145 -3.49441
1.61486 1.18557 -3.33008
2.49467 -1.61853 -0.930071
2.41828 0.850219 -2.83372
2.37082 1.12561 -2.66143
1.4188 0.0168054 -3.48721
2.65483 1.08977 -1.69641
3.09083 -0.061538 -0.315268
1.79417 -0.0684596 -3.34757
2.44907 1.26674 -2.20029
2.68325 -1.58967 -0.575773
2.42784 1.35557 -2.07048
2.73368 -1.34735 -0.687815
1.79795 1.1146 -3.31616
1.9533 1.83217 -2.08809
2.05259 1.02151 -3.21703
3.08321 -0.700947 -0.175141
2.78927 1.03508 -1.00068
2.70175 0.97045 -1.69504
2.88684 -1.21712 -0.417829
1.91657 -0.389909 -3.07343
2.41882 -0.618538 -2.23654
1.46599 0.0163353 -3.48058
2.35121 0.895988 -2.92935
2.62719 -0.938658 -1.39196
3.22827 -0.284025 0.221497
3.25395 -0.0470584 0.338303
2.22197 0.284145 -3.1849
2.25161 1.56229 -2.10733
2.5718 -1.13767 -1.29893
2.12314 0.143289 -3.23202
3.13643 -0.0149168 -0.108951
2.73269 -0.590052 -1.47378
1.51025 -0.00931361 -3.4634
1.20433 0.391226 -3.56962
2.11209 0.561022 -3.32478
1.89683 0.590135 -3.46208
2.58674 0.584363 -2.55474
2.48328 -1.6071 -0.964068
2.77077 0.588614 -1.83643
2.63048 -1.44036 -0.833713
2.86295 0.95127 -0.710707
2.18361 1.58824 -2.21866
2.4764 -0.157351 -2.56387
2.43273 0.0231821 -2.77244
1.30451 0.00573807 -3.49344
2.72832 -0.681078 -1.39209
2.92144 0.0851462 -1.17048
2.3134 0.67838 -3.08898
2.70514 0.508488 -2.17512
2.24495 0.250634 -3.14902
1.63805 -0.151715 -3.36639
2.74656 0.398072 -2.02978
1.80147 1.05908 -3.35112
2.89321 -0.712292 -0.817111
1.29493 -0.031929 -3.48106
2.54692 -1.94204 -0.525009
1.88073 0.600722 -3.46896
2.75532 0.110562 -1.95068
2.6011 -0.31422 -2.13877
2.24361 -2.48458 -0.537945
2.15975 -2.69663 -0.487726
2.02453 -2.50017 -0.79805
1.75931 -3.19726 -0.584819
2.32868 -1.85825 -0.975824
2.41058 -2.24451 -0.493515
1.7617 -2.38969 -1.18994
2.33348 -2.25618 -0.597071
1.73248 -2.90409 -0.796485
2.14255 -2.16262 -0.950687
1.85342 -2.0892 -1.38555
2.11853 -2.44756 -0.727156
1.59585 -2.92896 -0.904979
1.67258 -3.04983 -0.753175
1.52178 -2.91318 -0.981451
1.94444 -2.88769 -0.596204
1.93644 -2.31827 -1.06363
2.13128 -2.55977 -0.62168
2.01773 -2.05682 -1.22154
2.23788 -1.56125 -1.45075
1.90496 -2.86386 -0.653261
2.20553 -1.59091 -1.46755
1.91874 -2.13316 -1.26525
1.97575 -2.93533 -0.532641
1.40291 -2.77837 -1.18408
1.78663 -2.9176 -0.734807
1.86314 -2.20148 -1.26096
2.28998 -1.82481 -1.07352
1.45882 -2.7397 -1.16875
1.9257 -3.02544 -0.52756
1.62035 -2.81063 -0.970588
2.27777 -1.56465 -1.38168
1.76512 -2.92308 -0.751853
1.98687 -2.78634 -0.62066
2.27054 -1.7848 -1.14748
1.82718 -2.49669 -1.02402
2.38894 -2.35759 -0.437281
1.73427 -2.83018 -0.848357
2.41308 -1.97384 -0.723593
2.13527 -1.97694 -1.14653
1.67682 -2.57208 -1.11171
2.20601 -2.37859 -0.671643
1.67537 -2.63733 -1.0577
1.59017 -3.04683 -0.828578
2.40867 -2.15077 -0.573394
2.09635 -2.36459 -0.825981
2.28033 -2.64651 -0.376158
1.60658 -3.10733 -0.774928
2.01389 -2.43464 -0.866524
2.24062 -1.91381 -1.05764
