ply
format ascii 1.0
comment Created by Open3D
element vertex 200
property double x
property double y
property double z
end_header
-0.880519 -2.30719 -1.85891
2.21294 -2.10488 0.801335
2.70956 -1.95746 -1.01164
-0.669842 -2.8645 1.15594
0.416478 -2.45762 1.99681
1.28008 -2.44874 1.38764
-1.06067 -2.909 0.523846
-1.82501 -2.79698 0.873165
0.0861945 -3.21516 -0.213234
1.77532 -3.06667 -0.0485483
2.18617 -3.0028 -1.39539
-0.909712 -2.25542 -1.90583
-0.355313 -2.72638 1.66182
-1.21593 -2.8093 1.36416
2.4099 -2.80848 -0.911254
1.6859 -3.09279 -1.74768
-0.0179678 -2.56665 1.99516
0.336638 -2.92182 0.969476
0.167267 -3.08394 0.505393
-1.15147 -2.78555 1.54766
0.761264 -2.15542 2.37386
0.664234 -2.80161 -1.99956
-0.889081 -2.60317 -1.42079
0.794499 -3.01517 0.64269
2.50457 -2.53356 -1.23574
-0.412726 -3.0106 0.557824
1.89973 -1.88062 1.5589
0.879787 -3.27688 -1.42618
-0.115693 -3.14329 -0.775103
0.471553 -3.09903 -1.54695
2.37321 -2.82332 -0.678691
1.6837 -2.0233 1.62987
0.355863 -3.06054 0.598217
-1.12394 -2.87679 -0.25106
-0.479771 -3.03413 0.342364
2.44683 -2.26454 0.148533
2.24287 -3.03619 -0.991261
0.976038 -3.10076 -1.76053
2.59291 -2.39186 -0.601881
2.79789 -1.71367 -0.480074
0.147459 -2.70427 1.5592
0.0352066 -3.07196 -1.25683
-0.292932 -3.04851 -0.928432
0.687014 -2.8864 -1.92383
0.81081 -2.50107 1.64552
-1.63287 -2.80977 1.14044
2.43855 -2.72522 -0.688685
-1.13385 -2.88049 0.757167
-0.899608 -2.20763 -1.96539
2.62931 -2.29875 -0.972012
0.0070209 -2.60902 -1.95422
0.575858 -3.22582 -1.35129
1.2856 -3.01515 0.428307
2.30685 -2.09778 0.650544
1.4727 -1.91096 2.05897
2.82727 -1.48486 -0.788714
0.997222 -2.88444 0.828546
1.51882 -3.41068 -0.983226
1.95957 -2.23093 1.00241
2.09235 -2.25637 0.788783
1.94687 -3.17675 -0.519369
-0.280477 -2.4466 -1.99531
-0.967586 -2.88918 -0.511771
1.64942 -3.37676 -0.834713
-0.587045 -3.041 -0.07392
-0.588323 -3 0.453049
-1.18629 -2.83375 1.16842
2.40826 -2.24148 0.266346
1.8336 -3.22286 -0.472694
-1.04562 -2.89888 0.690143
2.31628 -2.14343 0.575066
2.00897 -3.21482 -0.803999
2.57273 -2.2524 -0.192114
1.94602 -2.36001 0.846597
0.39446 -2.85065 1.12799
1.60716 -3.30102 -0.439762
-0.128015 -2.93779 0.951031
-1.58625 -2.80067 1.39716
1.93954 -2.02599 1.30368
0.632198 -3.23817 -1.36274
-1.16069 -2.86874 0.853269
2.72173 -2.01941 -0.602463
1.4914 -3.39035 -0.693678
1.06052 -3.2308 -1.5907
2.15622 -3.11907 -1.10698
2.22091 -3.05282 -1.12109
1.87939 -3.2792 -0.755312
-0.640565 -2.74537 1.66804
1.54692 -2.19232 1.53255
1.17555 -3.34564 -1.37587
0.221743 -2.6 1.78139
-0.446658 -2.78406 -1.44273
-1.91887 -2.80316 1.43553
1.78027 -3.05736 -0.0357279
0.763106 -3.00767 -1.8137
-0.179753 -2.83252 1.28844
1.15668 -2.73346 1.00997
1.09567 -2.21222 1.94233
2.79474 -1.73191 -0.575666
0.452844 -2.49363 1.89278
0.00873126 -2.60793 -1.95608
0.550774 -2.7872 1.21691
-1.27998 -2.82199 -0.305206
1.95665 -2.82267 0.16968
1.91981 -2.93527 0.0284757
-0.00886421 -2.58998 -1.96705
1.71594 -3.16698 -0.196381
1.36872 -2.28928 1.56128
1.67828 -3.37896 -1.01376
-0.233493 -3.02729 0.585855
-0.61109 -2.71248 1.79251
0.652509 -3.33956 -0.405167
-1.15817 -2.87186 0.821329
0.245835 -3.26894 -0.567488
1.58071 -3.0708 0.121344
1.19323 -2.39261 1.55025
2.60721 -2.28921 -0.413359
-0.267991 -2.70803 1.69387
1.39178 -3.41216 -0.754095
2.27446 -2.8176 -0.34739
-0.0724626 -3.18118 -0.537444
0.153372 -2.84273 -1.75247
2.53899 -2.55061 -0.977733
2.14989 -2.92351 -1.56681
1.98686 -1.93649 1.36014
-0.805597 -2.97621 0.249764
0.439373 -2.75879 1.32164
2.61277 -2.02549 0.0285142
-1.1557 -2.86667 -0.255311
2.29795 -2.56349 0.0355103
2.58525 -2.0841 0.0314196
-0.406623 -2.50135 -1.8754
0.657418 -3.03968 -1.73392
-0.0244328 -3.02842 0.656031
-1.3905 -2.81835 1.21072
0.877618 -2.95349 0.745167
0.532948 -3.29863 -1.0599
0.375249 -3.29794 -0.487573
1.31279 -2.98206 -1.92248
0.975718 -3.28836 -0.0985577
0.0801996 -2.79076 1.35906
0.957993 -3.376 -1.15673
0.298124 -3.19793 -1.17015
1.1947 -3.29023 -0.156168
1.66329 -3.21003 -0.245134
1.6943 -2.34256 1.15936
-0.57848 -2.66597 -1.54596
-1.11237 -2.8022 -0.681756
-2.07132 -2.79284 1.09566
1.98537 -3.02725 -0.228896
0.763407 -3.37919 -0.674878
2.17767 -2.05765 0.918189
1.24631 -3.10565 -1.79628
2.08983 -3.14502 -1.27462
2.53706 -2.3479 -0.230263
2.44972 -2.23059 0.188831
2.45713 -2.68933 -1.14975
2.1508 -2.91772 -0.284967
-0.364701 -3.06491 0.272865
1.45923 -2.69488 0.855692
-0.427639 -2.98768 -0.962474
1.32817 -3.30709 -1.49375
0.695677 -2.66837 1.39364
2.06758 -2.51551 0.476503
1.22505 -2.54482 1.27645
1.96888 -3.26052 -1.03342
-0.873207 -2.96185 -0.107636
1.80744 -3.03007 -1.75714
1.44052 -3.32806 -0.392942
-0.013808 -2.7096 -1.83211
0.17107 -2.93551 0.955785
1.12521 -3.18112 -1.68435
2.19423 -2.89862 -0.332504
0.209331 -2.7434 1.44046
0.198805 -2.6867 1.5824
1.09055 -3.2689 -1.52913
2.42117 -2.77524 -0.783892
2.7868 -1.74024 -0.735718
1.2277 -1.71283 2.78671
1.4056 -3.35207 -0.454717
2.02841 -2.90994 -1.71265
0.805013 -2.12718 2.39069
1.9628 -3.2638 -1.05097
0.9165 -2.24046 2.05344
0.0522102 -2.97344 -1.48536
-1.49036 -2.82021 0.188822
1.7529 -2.94121 0.201432
0.0426157 -3.17793 -0.889163
2.58463 -2.20133 -0.149318
2.01301 -2.17684 1.00347
2.38129 -2.4073 0.0938176
2.35672 -2.41044 0.141031
2.34718 -2.84729 -0.638526
1.20344 -2.48783 1.38598
-0.171889 -2.99841 0.728057
0.73489 -3.37398 -0.832973
2.27968 -2.07051 0.733278
-0.773511 -2.87826 -0.872231
1.10564 -3.05673 -1.83775
2.2771 -2.96953 -0.76416
