ply
format ascii 1.0
comment Created by Open3D
element vertex 400
property double x
property double y
property double z
end_header
1.2389 -2.27789 1.80633
0.23243 -1.89193 2.5413
0.99395 -2.50968 1.63823
-0.693358 -2.83029 1.25695
1.24319 -2.28344 1.79976
1.18068 -3.20125 0.040793
1.50178 -2.92685 0.970992
0.360956 -2.68566 1.49953
0.358306 -2.62962 1.58961
-0.328653 -2.72077 1.49535
-0.198028 -2.12362 2.43435
-0.362998 -2.53537 1.85906
-0.285765 -2.20936 2.34873
1.90912 -2.9625 0.800459
1.56432 -2.37606 1.60102
1.57337 -2.98438 0.856059
1.03283 -3.11949 0.544557
1.33557 -2.86973 1.09333
-0.30735 -2.23505 2.31958
-0.143313 -1.92705 2.66272
0.53019 -2.12989 2.18096
1.02667 -3.07915 0.676291
-0.200992 -2.48618 1.90812
1.9681 -2.24222 1.52482
1.65872 -2.32835 1.60446
0.507251 -2.32826 1.9665
-0.339832 -2.27015 2.27936
1.56133 -2.38664 1.59272
0.256022 -2.9386 0.986442
1.00541 -2.82691 1.20675
-0.808309 -2.7622 1.45948
-0.381275 -2.52099 1.88838
1.60931 -2.98703 0.843692
-0.391221 -2.91466 0.99678
1.24095 -2.85604 1.12989
-0.195242 -2.51744 1.85567
0.650027 -1.95145 2.31678
-0.416037 -2.696 1.55795
0.00906855 -2.53161 1.79496
0.881246 -2.76716 1.31541
-0.466773 -2.83284 1.23669
1.62697 -2.59228 1.37104
0.330748 -3.0672 0.577501
1.10399 -2.42041 1.70844
0.364435 -3.04555 0.674615
1.5012 -3.19128 0.258957
0.524401 -2.38919 1.88921
1.072 -2.17685 1.95606
-0.844708 -2.77037 1.44445
0.281139 -2.15541 2.232
1.67109 -3.05003 0.704179
0.788195 -2.03854 2.18364
2.07674 -2.70958 1.06612
1.60361 -2.56261 1.40962
-0.256417 -2.10936 2.47593
-0.140641 -2.66234 1.59222
-0.465642 -2.7326 1.48361
0.211208 -2.61319 1.63458
0.99928 -2.36068 1.80022
1.73995 -2.52953 1.39258
-0.832369 -2.76728 1.45042
-0.0825998 -2.41089 1.99828
-0.42128 -2.35212 2.18024
1.75824 -3.10782 0.542209
1.68469 -2.92022 0.939512
0.925199 -3.17776 0.179591
1.89735 -2.99404 0.749526
1.13045 -2.82201 1.19898
-0.239566 -2.14844 2.4165
-0.0971534 -2.409 2.00454
-0.93519 -2.73868 1.54808
1.29113 -2.95599 0.95243
-0.317628 -2.44217 2.00654
-0.180914 -2.81977 1.26418
1.5007 -2.56725 1.43842
1.14979 -2.90414 1.0614
0.0481401 -2.58975 1.69506
0.633757 -2.17684 2.09886
-0.54594 -2.83425 1.23597
1.62375 -3.17494 0.336265
2.00974 -2.30065 1.46027
2.10668 -2.77317 0.97976
1.01689 -2.75844 1.31093
2.16488 -2.55227 1.174
0.425564 -3.06102 0.631446
1.66211 -2.88386 1.00134
-0.354836 -2.8458 1.19979
-0.0827411 -2.92715 0.985078
-0.21172 -2.62441 1.67188
0.844255 -2.82808 1.22006
1.49445 -2.492 1.5173
0.0901792 -2.83549 1.22736
1.82135 -2.17307 1.64982
1.18357 -3.0323 0.801993
-0.133007 -2.5579 1.77654
0.285709 -2.6277 1.60184
1.54722 -2.85081 1.0789
0.868991 -2.88914 1.10954
2.01661 -2.27988 1.47169
-0.411964 -2.34162 2.19388
-0.27452 -2.94655 0.901455
0.621377 -3.11041 0.479807
0.756861 -2.07503 2.16023
0.657811 -3.0895 0.581447
-0.172353 -2.36259 2.09234
0.0104847 -2.87906 1.1224
0.31979 -2.9218 1.03402
1.78544 -2.45775 1.44028
-0.373272 -2.54231 1.84889
-1.14503 -2.79681 1.44192
0.841048 -2.26714 1.94261
-0.136589 -2.07918 2.469
0.643784 -2.8779 1.13831
1.53126 -2.23422 1.7346
1.72921 -2.80267 1.09438
1.5569 -2.79078 1.15956
0.399191 -2.50382 1.76698
0.872919 -2.42886 1.75976
0.213862 -2.71698 1.4587
0.00834476 -2.65535 1.58804
1.8373 -2.82167 1.03349
-0.431043 -2.29061 2.27959
1.84145 -2.52954 1.3514
1.0928 -2.10435 2.01327
0.0779116 -2.48805 1.8493
-0.202229 -2.24759 2.2666
0.445575 -2.87795 1.13863
1.00482 -2.19473 1.96237
0.423648 -2.92937 1.02214
0.645082 -2.58085 1.6185
-0.140417 -2.18804 2.3278
1.2437 -3.15092 0.44849
0.325061 -2.23871 2.12134
0.0891224 -2.78047 1.34457
0.575525 -2.7573 1.361
0.936313 -2.09689 2.07666
0.340274 -3.06123 0.606118
0.231847 -2.65516 1.56365
0.542022 -3.09003 0.546233
1.70964 -2.9966 0.802312
-0.490691 -2.74123 1.4666
1.97522 -2.44156 1.36781
-0.229406 -2.1039 2.47266
-0.14963 -1.96903 2.61354
1.77332 -2.33608 1.54866
0.138001 -3.001 0.783135
0.0292001 -2.54382 1.77218
-0.909676 -2.75467 1.49978
-0.226609 -2.66764 1.59226
1.41921 -2.40411 1.62756
0.166732 -2.95493 0.932207
0.305627 -2.29404 2.05985
1.01142 -2.61292 1.50969
0.0852968 -2.18838 2.25395
2.07601 -2.82323 0.933353
0.516883 -2.77973 1.32647
-0.376635 -2.54066 1.85252
0.138634 -2.78529 1.33309
0.960996 -3.18039 0.178523
0.00843896 -2.86325 1.16136
0.550784 -2.99258 0.872428
0.287452 -2.77299 1.35113
-0.104587 -1.94408 2.62459
-0.579618 -2.53529 1.90938
1.41977 -2.30991 1.71353
-0.55611 -2.87989 1.10197
-0.188596 -2.34992 2.11544
1.03893 -3.06767 0.710119
0.333899 -3.07495 0.543376
0.452139 -2.31149 2.0005
0.0715237 -2.09806 2.36922
-0.618108 -2.53742 1.91535
1.01941 -3.12554 0.519547
-0.411525 -2.72746 1.48924
0.240663 -3.01935 0.740631
-0.267671 -2.65314 1.62549
0.574569 -3.09345 0.541616
0.307402 -2.30612 2.04449
-0.039693 -2.66046 1.58424
1.7001 -3.00623 0.786564
1.27057 -2.43902 1.64102
0.336852 -2.07124 2.30829
0.763687 -2.36624 1.85763
-0.44516 -2.67604 1.604
1.29038 -2.09317 1.94662
1.07789 -2.45777 1.67562
1.37877 -2.53473 1.50976
0.807828 -2.96804 0.949015
-0.232715 -2.74301 1.43952
1.9395 -2.66551 1.17569
-0.508161 -2.35142 2.20954
0.845709 -2.61838 1.53368
1.66423 -2.68498 1.25779
1.99532 -2.96711 0.758676
-0.224906 -2.96398 0.847036
1.05229 -2.89529 1.08619
1.58693 -2.65797 1.31287
1.16393 -2.45089 1.65966
0.282366 -2.78453 1.32937
1.07595 -2.14936 1.97954
1.22403 -2.65706 1.4097
1.74802 -2.63818 1.28025
-0.414588 -2.91295 1.0008
-0.101766 -2.93743 0.952034
1.51441 -2.22747 1.74699
0.0401627 -3.0054 0.746394
0.465855 -2.72455 1.42509
1.08671 -3.08071 0.675697
1.14543 -2.12478 1.97599
0.992385 -2.10512 2.04917
-0.133389 -2.77989 1.35404
-0.832193 -2.67452 1.68113
1.00641 -3.0698 0.702009
0.965446 -2.86818 1.14118
0.41875 -2.82069 1.25502
0.570259 -2.34923 1.92595
0.389989 -3.00667 0.810613
-0.265613 -2.48084 1.93096
1.39343 -2.40757 1.63298
0.710501 -2.19995 2.05115
2.04532 -2.67112 1.12191
0.695072 -3.03835 0.760819
0.628203 -2.97702 0.919451
-1.16177 -2.80856 1.4109
1.23254 -3.00285 0.864968
0.740647 -2.12345 2.11869
0.898831 -3.09396 0.614582
1.03884 -3.07579 0.687004
0.468201 -2.97992 0.897743
2.05351 -2.32879 1.41578
1.19547 -3.18156 0.28227
0.388643 -1.94591 2.42236
0.4361 -2.12695 2.21447
0.872974 -3.10362 0.575861
1.09343 -2.97576 0.929414
1.40236 -2.87814 1.06837
1.10549 -2.48579 1.63776
1.4625 -3.11311 0.578576
0.536614 -2.29287 1.99998
1.23368 -2.17573 1.8992
0.28077 -2.95471 0.945812
0.447918 -2.53046 1.72147
-0.740317 -2.82816 1.26763
0.466456 -2.91441 1.05908
0.616941 -2.97342 0.927583
1.36077 -3.00823 0.84239
0.873795 -2.86869 1.1468
-0.761648 -2.61824 1.78919
1.59618 -2.20919 1.72736
0.126479 -2.51755 1.79609
0.886715 -2.65061 1.48334
-0.239261 -2.07948 2.5091
-0.347357 -2.90957 1.01596
0.302176 -2.94926 0.962627
0.0619856 -2.56707 1.72981
-0.257712 -2.73468 1.45926
1.9564 -2.76004 1.06377
0.103398 -2.25011 2.1706
1.02057 -2.43834 1.7118
-0.162267 -2.6788 1.56334
1.46718 -3.04297 0.75548
1.11321 -3.05569 0.74505
0.271914 -2.25415 2.11778
0.95993 -3.17803 0.203279
0.65703 -2.1063 2.16363
-0.403038 -2.42713 2.05354
0.00413197 -2.04113 2.46253
1.41223 -3.18071 0.320956
0.448974 -2.21813 2.10951
1.76949 -2.19539 1.65904
-0.430591 -2.3884 2.12485
0.550685 -2.70227 1.4532
1.23184 -2.05833 1.99847
2.03957 -2.30202 1.44311
0.169551 -1.95594 2.49707
0.360757 -2.52608 1.74281
1.72578 -3.05418 0.682047
1.26073 -2.55918 1.51596
0.0258799 -2.53676 1.78393
1.41881 -3.11661 0.571257
-0.00388573 -2.20263 2.26396
1.20931 -2.98848 0.896534
1.28119 -2.23513 1.82994
1.10033 -3.12322 0.539883
1.99979 -2.78121 1.02002
1.23058 -2.52896 1.55745
-0.0142554 -2.91015 1.03947
0.758231 -2.33447 1.89428
1.90741 -2.76622 1.07642
0.541568 -2.88018 1.13455
0.861918 -2.88582 1.11608
1.56548 -3.03758 0.752107
0.423574 -2.65129 1.54773
-0.204458 -2.61702 1.68436
1.90608 -3.0461 0.643807
0.0607505 -2.97063 0.870095
-0.167481 -2.7098 1.50298
-0.158285 -2.65878 1.60097
0.0695759 -2.2887 2.13009
0.29162 -2.46167 1.84554
1.40801 -2.79407 1.19068
0.56837 -2.67001 1.5013
-0.131024 -1.94183 2.63903
-0.0253572 -2.13983 2.35126
0.967952 -2.08365 2.07731
-0.438429 -2.91094 1.00595
1.51169 -2.31915 1.67101
0.833612 -2.92053 1.04998
0.576321 -3.07092 0.632196
0.390842 -2.76974 1.35178
1.11797 -2.3035 1.82198
0.433318 -3.04135 0.705742
1.05831 -2.32093 1.82335
0.396092 -3.08324 0.527127
0.341285 -2.08377 2.29303
0.775743 -2.61882 1.54501
-0.196308 -2.93469 0.949956
-0.0649953 -2.0523 2.47533
-0.0985624 -2.93197 0.969054
1.24817 -3.17559 0.330983
0.551393 -2.42913 1.8339
0.226464 -3.00856 0.774989
-0.0808518 -2.11025 2.40843
1.26732 -2.07621 1.96967
0.41081 -2.19215 2.15016
-0.31358 -2.07999 2.53904
1.05516 -2.40325 1.74006
0.277382 -3.03783 0.681715
1.59103 -3.1259 0.525119
0.0489827 -2.74444 1.41847
1.8045 -2.87197 0.97614
1.86692 -2.58037 1.29232
1.38165 -2.41053 1.63405
0.0462122 -2.61419 1.65464
-0.430516 -2.53052 1.88243
0.6074 -2.25221 2.02602
0.48499 -3.09505 0.503715
-0.383163 -2.42539 2.05101
0.671878 -2.82297 1.24057
1.4444 -3.1231 0.549733
0.550154 -3.03667 0.743919
0.627974 -2.58701 1.6129
-0.168435 -2.90994 1.02794
1.07507 -2.63524 1.46865
-0.00768302 -2.48099 1.87664
1.15941 -2.63059 1.45665
0.0328642 -3.00482 0.746917
0.703594 -2.79808 1.28202
0.659595 -2.50153 1.72023
0.630361 -2.9151 1.06186
1.75183 -3.11127 0.534318
0.0207088 -2.88379 1.11098
0.228919 -2.62768 1.60899
0.877638 -2.42748 1.76016
-0.468769 -2.87689 1.11152
1.34354 -3.20107 0.16185
-0.5485 -2.8758 1.1146
-0.181306 -2.9394 0.93657
1.20264 -2.12561 1.95383
-1.01656 -2.81474 1.35251
1.98667 -2.6339 1.18717
0.606288 -2.4148 1.83921
1.04361 -3.18942 0.131727
0.966298 -2.89769 1.08822
1.07449 -3.12962 0.512518
0.217598 -2.35691 2.00234
0.80439 -3.14029 0.394707
1.19678 -3.1714 0.344389
1.68329 -3.03822 0.726644
1.01674 -3.13902 0.463636
1.37847 -3.13462 0.514837
1.19989 -2.40019 1.70145
1.21865 -3.20349 0.0122329
-0.0354688 -2.84073 1.21437
0.841506 -2.22826 1.98207
1.86423 -2.26091 1.56445
-0.123056 -1.98287 2.58489
1.38747 -3.10916 0.595136
1.35983 -3.18666 0.281888
1.00303 -2.52304 1.62057
2.01286 -2.34668 1.42418
-0.141237 -2.18425 2.33315
1.30097 -3.20284 0.122393
0.508212 -2.09995 2.21968
0.0249483 -2.86193 1.16504
1.57478 -2.2725 1.6854
0.123214 -2.70627 1.48529
1.42884 -3.01635 0.817479
0.0720661 -2.99408 0.794046
0.937379 -2.29936 1.8812
1.47158 -2.25554 1.74085
1.52418 -3.11301 0.572608
0.597627 -3.07605 0.618153
1.85933 -2.94769 0.842659
1.45915 -2.26744 1.73561
0.64275 -2.38385 1.86754
1.512 -3.19129 0.258511
2.05686 -2.90925 0.823758
1.59517 -2.83175 1.09396
-0.59841 -2.53502 1.91474
