ply
format ascii 1.0
comment Created by Open3D
element vertex 250
property double x
property double y
property double z
end_header
3.23474 -0.691841 0.704075
3.08441 1.24371 1.84717
2.01494 2.26452 -0.616828
3.02149 1.41988 -0.246533
3.46076 -0.269625 1.0063
2.95852 0.613677 -0.933541
2.15906 0.246735 -2.61853
2.66028 1.1962 -1.09619
3.18001 -0.784055 0.588756
3.41906 0.913425 0.0387378
3.39607 1.44165 1.04563
2.91308 1.09954 -0.750775
3.69621 0.731077 0.709139
3.0845 0.20561 -0.775116
3.70203 0.410899 0.766122
3.66431 0.292145 1.23052
2.87773 0.319472 -1.14634
2.08007 1.26294 -2.08611
2.66027 0.297126 -1.54519
2.23279 2.16353 -0.373409
3.41818 1.33822 1.33882
2.22883 1.21467 -1.83699
3.30102 0.485676 -0.347946
2.47485 0.990841 -1.56643
2.44745 1.90669 -0.54564
3.56018 0.0652796 0.407424
2.93115 0.190686 -1.06172
3.49907 0.787863 1.68673
2.38129 1.81396 -0.846544
3.38227 1.1418 0.149818
3.15532 -0.810817 0.717045
3.23576 0.997151 1.87592
3.32382 -0.422433 1.198
2.93121 1.68561 1.45489
3.05343 1.26401 1.85463
2.15171 0.327009 -2.5983
2.10499 2.17828 -0.647977
3.00206 1.49377 1.67501
3.44899 0.0710226 0.0438481
2.3872 1.77226 -0.903068
2.41856 1.79009 -0.815871
2.811 0.735067 -1.13695
3.5895 1.1694 1.11787
3.69858 0.444432 1.23033
2.42203 2.08717 -0.124081
3.61182 0.902826 1.45907
1.6931 2.2889 -1.36681
3.64579 0.785882 1.4374
2.44966 0.495618 -1.87795
3.63998 0.239529 0.574879
3.07914 1.66998 1.25854
2.62448 1.80017 -0.401424
1.74797 2.12332 -1.60083
3.48912 0.0398562 1.45915
2.97663 1.27339 -0.49264
1.64607 2.11081 -1.88241
2.73235 1.48438 -0.684941
3.23723 -0.692917 0.590086
3.13862 1.60442 0.346607
2.92293 0.739278 -0.945769
2.87234 0.863077 -0.970528
2.34147 1.12771 -1.7021
2.47025 1.92242 -0.464862
3.57848 -0.0389442 0.982205
3.50205 0.337451 1.63874
3.10361 1.57011 1.45079
3.41571 1.24623 0.36238
2.07135 1.13137 -2.22778
3.39424 -0.404533 0.507618
3.17428 0.568255 -0.568408
3.47448 1.17819 0.421505
2.13834 2.11757 -0.72946
3.32219 -0.547509 0.754696
2.44482 1.51835 -1.14331
2.29181 1.78454 -1.06179
2.17399 0.360879 -2.52516
1.68208 2.15649 -1.69567
3.71468 0.772525 0.854249
3.62981 0.927033 0.594689
3.03281 0.871881 -0.695445
3.02578 0.15715 -0.885199
3.07175 1.7313 1.01888
3.67024 0.219441 0.826639
2.65586 0.451042 -1.51295
2.8617 1.07861 -0.852242
3.5885 0.365718 1.50421
2.33349 0.761476 -1.96955
3.30012 -0.58858 0.607667
2.34658 1.74976 -1.01288
3.46209 0.963878 0.167037
1.98835 2.26643 -0.680205
2.13128 1.30594 -1.94032
3.61726 0.166143 0.544971
3.61466 0.870327 0.493428
3.45744 1.37408 0.949526
2.25657 1.80937 -1.08946
3.32916 -0.388723 0.114069
3.3977 -0.382724 0.991245
2.95225 1.83235 0.670058
3.10541 -0.070322 -0.694801
3.67483 0.913578 0.777515
3.63694 0.118059 1.03674
3.68475 0.308705 0.76235
3.31543 -0.497481 0.273721
3.51652 1.25674 1.22783
3.17468 0.218408 -0.602593
3.03706 0.408146 -0.847236
1.62233 2.13508 -1.89633
2.10723 1.1238 -2.15835
2.64968 1.17624 -1.13039
2.40558 1.98547 -0.458777
2.93307 1.83944 0.579052
2.53199 1.42938 -1.09192
3.23193 -0.675728 0.332098
1.815 1.80921 -1.99346
3.45205 1.17797 0.360035
2.04878 1.538 -1.85384
3.40044 -0.368627 1.02533
3.72689 0.486733 0.973785
3.54535 1.19863 1.26752
2.19331 0.306833 -2.50357
3.2891 1.53503 1.13243
2.9416 1.02044 -0.759468
3.67281 0.978235 1.14089
2.22145 0.556779 -2.31358
1.89173 1.59571 -2.11811
2.39004 2.10153 -0.161951
2.63358 1.90289 -0.150858
2.95413 0.692891 -0.912106
1.89324 2.04277 -1.42389
2.43007 1.39315 -1.30561
1.98064 1.33635 -2.22461
3.62545 1.09329 0.878731
1.52963 2.39902 -1.53026
2.34032 2.09032 -0.329356
2.42404 1.55729 -1.1334
1.89107 1.78609 -1.85585
2.62728 1.32978 -1.0314
3.23967 1.42157 1.51382
2.19327 0.64631 -2.32454
3.10695 1.41659 1.67019
3.50452 0.354044 1.64188
1.79879 2.2659 -1.15676
3.70174 0.637547 0.701113
3.66815 0.315842 0.644916
3.02775 1.44848 1.70545
3.32231 0.067012 -0.267047
2.4544 0.728804 -1.76101
3.19756 1.54709 1.34614
3.51696 0.0407949 0.270518
1.74961 2.15122 -1.53932
3.45986 -0.0897105 0.200524
1.93729 1.97609 -1.45033
3.60735 0.447921 1.50273
3.28796 -0.608796 0.592496
3.70742 0.545738 1.25024
2.14018 1.26755 -1.95988
3.01032 -0.0986486 -0.883757
3.31359 0.184915 -0.316668
1.94569 1.79079 -1.73123
3.0186 1.77052 1.0122
2.83811 1.7832 0.0262062
3.05894 1.45522 1.67006
3.72222 0.61625 0.823031
2.40189 1.82389 -0.790658
2.17406 0.773101 -2.28632
2.21235 0.519276 -2.35387
3.55057 1.24424 1.00339
3.42378 -0.299371 0.373412
2.23679 1.96483 -0.855512
3.45307 1.37217 1.08056
2.38871 0.62288 -1.93788
2.65164 1.55051 -0.743344
3.07296 1.48095 1.62475
3.04913 1.09323 1.96299
3.64713 1.01771 1.22171
3.57491 0.999145 1.46763
3.57427 0.816525 0.342494
1.81359 2.26506 -1.12217
3.30758 0.597843 -0.31395
1.90942 2.09334 -1.28888
2.87151 -0.108312 -1.16156
3.44531 -0.297171 0.50465
3.23109 1.48232 0.305846
3.38104 1.38028 0.518221
2.94229 1.44 1.78193
2.56964 1.60526 -0.815846
2.86336 0.858538 -0.988019
3.706 0.864849 0.933497
3.42101 0.776717 -0.0300808
3.5354 1.26687 0.956537
3.06218 1.60178 1.44781
3.33022 0.835663 -0.18277
3.60976 0.511751 1.51811
2.35682 1.46528 -1.35795
2.91466 1.46864 1.77299
1.4931 2.43319 -1.54409
3.57062 0.988845 1.48478
3.18891 1.07457 -0.292098
3.02779 1.5025 -0.117391
1.08004 2.8818 -1.42303
0.91323 3.04436 -1.43948
1.0582 2.94615 -1.08946
0.490453 3.46578 -1.18637
1.61508 2.47214 -1.05268
1.26535 2.67588 -1.5267
1.12338 2.93202 -0.609436
1.26222 2.70838 -1.40124
0.695107 3.26419 -0.96512
1.35322 2.7097 -0.998788
1.40978 2.73976 -0.475349
1.10701 2.89034 -1.19496
0.645744 3.2997 -0.799711
0.573818 3.37246 -0.98157
0.639451 3.29811 -0.692284
0.745687 3.21849 -1.24913
1.20774 2.85446 -0.805532
1.01673 2.95949 -1.29959
1.45111 2.68319 -0.699039
1.922 2.34637 -0.592248
0.757062 3.20908 -1.17727
1.89677 2.37358 -0.563412
1.37474 2.75054 -0.614365
0.71603 3.24608 -1.32429
0.713709 3.2224 -0.443046
0.695745 3.26518 -1.04829
1.30643 2.80181 -0.592374
1.6534 2.46807 -0.949354
0.760524 3.19169 -0.484541
0.643596 3.31814 -1.30982
0.743443 3.21792 -0.747997
1.91149 2.33289 -0.670228
0.687399 3.2722 -1.02252
0.827419 3.14138 -1.24244
1.69501 2.45327 -0.875208
1.0401 2.9851 -0.792502
1.17695 2.75659 -1.57241
0.752226 3.21442 -0.915963
1.49412 2.50672 -1.31397
1.5249 2.60515 -0.818567
0.950662 3.05741 -0.641661
1.16553 2.82361 -1.28222
0.895703 3.09853 -0.691313
0.556119 3.38075 -0.871547
1.34263 2.61686 -1.45109
1.17603 2.84409 -1.09377
0.957987 2.98163 -1.59298
0.516356 3.42088 -0.931677
1.11242 2.90755 -1.02114
1.57579 2.53551 -0.943254
