ply
format ascii 1.0
comment Created by Open3D
element vertex 250
property double x
property double y
property double z
end_header
2.01893 -2.29604 1.4457
0.384507 -3.70134 0.7904
-1.34395 -1.82163 2.10807
-0.122982 -2.38345 2.3474
1.77332 -2.80604 1.42956
0.475386 -1.58025 2.69773
0.229902 0.172627 3.39065
-0.195159 -1.51167 2.71779
2.06283 -2.14942 1.48276
0.537103 -2.62615 2.31099
0.205466 -3.46845 1.62255
0.0459728 -1.86097 2.60641
0.915583 -3.1664 1.95831
0.919046 -1.60261 2.59696
1.21636 -3.07973 1.8699
1.3805 -3.30658 1.47902
0.676641 -1.27367 2.75996
-0.638682 -0.521579 3.09735
0.548963 -0.865893 2.91578
-1.12852 -2.08073 2.05004
0.353067 -3.63043 1.40092
-0.497502 -0.760046 2.99875
0.817556 -2.13032 2.45907
-0.15556 -1.00627 2.91951
-0.837496 -2.00852 2.27764
1.41737 -2.61892 1.99435
0.827431 -1.31195 2.71098
0.936801 -3.68864 1.10708
-0.826307 -1.73485 2.44646
0.333016 -2.76418 2.23926
2.09704 -2.20514 1.36653
0.672107 -3.72103 0.828132
1.88678 -2.77901 1.17412
-0.13666 -3.52418 1.05427
0.354983 -3.6939 0.768011
0.157481 0.132551 3.38313
-1.23498 -1.82631 2.17604
0.0990024 -3.63597 0.905149
1.31192 -2.31456 2.1964
-0.794961 -1.68581 2.48622
-0.785183 -1.7695 2.44374
0.275595 -1.40103 2.77413
0.539724 -3.53346 1.65077
1.25629 -3.38936 1.5247
-0.945815 -2.33467 1.97297
0.842423 -3.66168 1.36809
-1.60953 -1.13822 2.46732
0.958372 -3.62355 1.38814
0.234408 -0.59279 3.06053
1.31725 -2.84806 1.94698
-0.0940887 -3.48854 1.29427
-0.648579 -2.17489 2.26691
-1.47406 -0.957882 2.65257
1.57448 -3.23876 1.15593
-0.046238 -2.13763 2.48051
-1.54666 -0.70509 2.79629
-0.363799 -1.93778 2.50018
2.0033 -2.22393 1.53263
-0.151898 -2.91491 2.00635
0.345734 -1.59896 2.7034
0.209822 -1.59907 2.70853
-0.353285 -0.886027 2.95661
-0.830211 -2.08164 2.23415
1.60764 -2.95921 1.55895
1.33808 -3.48089 1.07548
0.0356551 -3.58856 1.15041
0.284615 -2.96426 2.11746
-0.544968 -0.372512 3.1777
1.79201 -2.38819 1.73997
0.658496 -1.93833 2.55564
0.378634 -3.01375 2.10042
-1.17939 -1.77163 2.24924
1.93088 -2.44316 1.48625
-0.579434 -1.46819 2.66427
-0.86843 -1.52614 2.5458
0.146973 0.0574721 3.34784
-1.54487 -0.866914 2.68645
0.907811 -3.28828 1.86775
0.694265 -3.12711 2.03168
0.308024 -1.88455 2.60679
0.922585 -1.47412 2.63428
-0.189491 -3.3539 1.47872
1.3863 -3.02182 1.77452
0.412935 -0.944852 2.91252
0.0288503 -1.75375 2.64624
1.32607 -3.46218 1.23634
-0.0663841 -0.563369 3.09554
1.93659 -2.31783 1.57599
-0.807678 -1.57964 2.53898
0.52834 -2.75687 2.25023
-1.36602 -1.76422 2.1388
-0.634752 -0.66596 3.02759
1.37001 -2.78481 1.94346
0.72393 -3.02955 2.08913
0.276132 -3.41998 1.72368
-0.909166 -1.49513 2.54772
1.69113 -2.09873 1.99571
1.84828 -2.71017 1.38284
-0.382191 -3.09142 1.67907
1.18939 -1.5584 2.50759
0.752532 -3.26884 1.92144
1.49722 -3.09489 1.57988
1.30137 -3.02542 1.84584
1.80871 -2.14924 1.85036
0.448696 -3.59107 1.53484
0.9699 -1.7777 2.52755
0.705838 -1.60558 2.65179
-1.58019 -0.690228 2.79521
-0.513161 -0.437657 3.14752
-0.186587 -1.47481 2.73355
-0.911992 -2.06825 2.19772
-0.41027 -3.02315 1.73609
-0.456401 -1.52299 2.66806
1.94583 -2.06134 1.72536
-1.22385 -0.624518 2.94168
0.36044 -2.95944 2.13206
-0.864118 -0.759703 2.94548
1.84188 -2.73948 1.36121
1.18967 -3.25968 1.74184
0.51885 -3.6124 1.51465
0.206873 0.0523961 3.33573
0.0919062 -3.49131 1.50306
0.127523 -1.84264 2.61907
0.74931 -3.5269 1.65759
0.021233 -0.187467 3.24991
-1.01947 -0.509809 3.05157
-0.977359 -2.29507 1.98302
-0.699234 -2.38279 2.10068
0.405282 -1.62262 2.69105
-1.31619 -1.13482 2.60087
-0.497072 -1.30444 2.75718
-0.76595 -0.39655 3.14861
0.585951 -3.37296 1.8415
-1.79929 -0.96978 2.50176
-1.01279 -2.15039 2.07486
-0.621389 -1.47642 2.64948
-1.15149 -0.753651 2.88384
-0.319117 -1.58477 2.66859
0.233793 -3.6592 1.16772
-0.0726504 -0.197514 3.25382
0.209729 -3.6709 0.964311
1.32453 -3.49111 1.07727
-1.51435 -1.33339 2.37421
1.00116 -3.12772 1.95345
1.2702 -2.94185 1.92434
0.154877 -3.65438 0.891843
1.21727 -2.03006 2.34748
0.0433668 -0.763692 3.01186
0.0776303 -3.57362 1.28577
1.40124 -2.49285 2.06545
-1.48916 -1.00959 2.6118
1.48584 -2.35863 2.06108
-1.24247 -1.12018 2.63874
1.25895 -3.50621 1.26227
1.94771 -2.29209 1.57643
1.17122 -3.44817 1.53109
-0.599508 -0.643952 3.04205
1.1481 -1.36336 2.58378
1.09948 -2.03925 2.39728
-1.11483 -0.871438 2.82622
-0.247107 -3.33038 1.4556
-0.482406 -2.58306 2.08096
0.155701 -3.65472 0.939494
1.04737 -3.21109 1.87189
-0.818488 -1.78822 2.41932
-0.189092 -0.259858 3.23237
0.0453305 -0.140703 3.26848
0.438896 -3.46405 1.72314
1.68788 -2.36296 1.87585
-1.02156 -1.69437 2.38353
0.296347 -3.50064 1.6223
0.0858177 -0.56486 3.08591
-0.464687 -1.87362 2.50228
0.130991 -3.64497 0.986466
0.524511 -3.69298 0.657614
0.715876 -3.57774 1.58654
0.741949 -3.68126 1.35279
0.733273 -2.88466 2.16805
-1.50237 -1.36499 2.35766
0.723927 -2.20102 2.4551
-1.33469 -1.25232 2.51783
1.05885 -1.08997 2.70135
1.71469 -2.46234 1.79161
-0.0110066 -2.90075 2.07756
0.173625 -3.09501 1.99897
0.140424 -3.64426 0.778215
-0.55797 -1.79504 2.51236
0.207661 -1.58013 2.71517
0.833065 -3.37022 1.81698
0.650937 -2.52888 2.34276
0.405164 -3.43296 1.75201
-0.00991527 -3.57209 1.13088
0.537995 -2.39464 2.40798
1.20454 -3.54303 1.26213
-0.599491 -1.25146 2.76046
0.102157 -3.63179 0.771567
-1.84685 -0.950534 2.49391
0.75221 -3.68539 1.33557
0.248873 -2.32666 2.43596
-0.175295 -2.50344 2.26734
-2.39804 -0.936079 2.20668
-2.61388 -0.880821 2.13682
-2.41345 -1.16187 1.95238
-3.12395 -0.934138 1.7401
-1.75781 -1.36193 2.20982
-2.15416 -0.908969 2.37184
-2.30071 -1.50768 1.63211
-2.16544 -1.00051 2.28075
-2.82617 -1.1304 1.67468
-2.0684 -1.31947 2.03764
-1.99235 -1.7051 1.68608
-2.35986 -1.10382 2.0543
-2.85237 -1.21856 1.52435
-2.97482 -1.08339 1.62572
-2.83685 -1.28291 1.43949
-2.80857 -0.962698 1.91316
-2.2273 -1.406 1.82147
-2.47442 -1.00487 2.08536
-1.95929 -1.56582 1.8717
-1.45111 -1.80909 2.0425
-2.78445 -1.01263 1.86513
-1.48129 -1.82192 2.00884
-2.03747 -1.59702 1.76947
-2.8569 -0.905889 1.95472
-2.7004 -1.46177 1.28864
-2.83965 -1.07771 1.73762
-2.10759 -1.58681 1.71696
-1.72297 -1.45187 2.15635
-2.66044 -1.45354 1.34513
-2.94863 -0.896387 1.9084
-2.7316 -1.28332 1.53578
-1.45512 -1.7467 2.09214
-2.84533 -1.09161 1.71401
-2.70532 -0.989899 1.94881
-1.68162 -1.52092 2.12522
-2.41004 -1.35648 1.72404
-2.26934 -0.853739 2.36172
-2.75087 -1.17965 1.66687
-1.87745 -1.12841 2.33333
-1.87783 -1.50628 1.99676
-2.4877 -1.42366 1.56454
-2.28972 -1.05951 2.14708
-2.55439 -1.37207 1.57278
-2.97237 -1.14586 1.5331
-2.05841 -0.984758 2.35573
-2.27499 -1.19572 2.01566
-2.56305 -0.786491 2.27105
-3.03374 -1.09709 1.55881
-2.34646 -1.22599 1.93006
-1.81386 -1.43175 2.11226
