ply
format ascii 1.0
comment Created by Open3D
element vertex 200
property double x
property double y
property double z
end_header
-2.01872 1.35493 1.90865
-2.01571 1.09786 -2.16826
-1.51644 2.77875 -1.47503
-3.06724 -0.760877 -0.0581467
-2.72053 -0.841813 -1.44593
-2.53346 0.147758 -1.76642
-3.0352 -0.494398 0.636286
-3.0504 -1.24505 1.03008
-3.1112 0.823738 0.179049
-2.85033 1.6788 -1.27117
-2.52066 2.96122 -0.78787
-1.9623 1.36422 1.9583
-2.99213 -0.992424 -0.61909
-3.09534 -1.26032 0.249082
-2.39437 2.68164 -1.26546
-2.59078 2.95293 -0.173466
-2.86415 -1.08007 -1.09487
-3.00584 -0.00234296 -0.745106
-3.09936 0.2881 -0.324109
-3.09818 -1.36905 0.0861102
-2.45962 -0.985894 -1.95929
-2.34843 2.48246 0.7815
-2.3854 1.06454 1.66199
-3.00224 0.543769 -0.909088
-2.06061 2.93909 -1.15519
-3.0857 -0.113778 0.103474
-1.95278 0.278316 -2.38434
-2.89533 2.25474 0.281341
-2.961 1.12672 0.676303
-2.73467 2.07083 0.672797
-2.45212 2.48142 -1.37605
-2.12339 0.120633 -2.24983
-3.07637 0.324338 -0.531209
-2.87544 0.064899 1.15318
-3.07737 0.0182505 0.287786
-2.04004 1.77618 -1.95464
-2.61824 2.68685 -1.07571
-2.6567 2.53945 0.399964
-2.02327 2.47182 -1.61336
-1.36129 2.37186 -1.87524
-2.91003 -0.615705 -0.958415
-2.79518 1.57864 0.844225
-2.85663 1.12211 0.906501
-2.44276 2.45313 0.720783
-2.66913 -0.324069 -1.54637
-3.09268 -1.33568 0.716204
-2.34858 2.50983 -1.42569
-3.05364 -0.725217 0.55269
-1.90428 1.40763 1.98443
-1.86502 2.7642 -1.4224
-2.22308 2.01739 1.27045
-2.88396 2.00486 0.47632
-2.92355 1.00468 -1.17084
-1.97478 1.27013 -2.15231
-2.10501 -0.360919 -2.34493
-1.08106 2.58658 -1.72083
-2.88874 0.495804 -1.18756
-3.04866 2.31771 -0.490013
-2.19559 0.813403 -2.08316
-2.17246 1.06399 -2.05904
-2.86265 2.16878 -1.11956
-2.08104 1.84664 1.51822
-2.82939 0.363802 1.18646
-3.02987 2.27389 -0.684924
-3.0215 0.279392 0.62473
-3.07217 -0.139339 0.306176
-3.0831 -1.08558 0.344516
-2.04099 1.65702 -1.99588
-2.92557 2.07332 -1.05581
-3.05264 -0.616751 0.523551
-2.00577 1.34314 -2.11258
-2.84569 2.43472 -0.995829
-1.95873 2.11445 -1.84977
-2.29657 0.950916 -1.97355
-2.95839 -0.104546 -0.889467
-3.02719 1.92685 -0.892444
-3.05781 -0.263155 -0.363304
-3.12403 -1.50934 0.523783
-2.04809 0.528237 -2.25662
-2.88931 2.04983 0.438817
-3.06095 -0.818315 0.515631
-1.64671 2.47918 -1.7294
-3.08094 2.07206 -0.643688
-2.8064 2.48233 0.234983
-2.687 2.74068 -0.933785
-2.61406 2.77791 -0.979243
-2.92827 2.33137 -0.919619
-3.03608 -1.16447 -0.394953
-2.28411 0.146369 -2.0759
-2.94635 2.40561 0.0179584
-2.83967 -0.763859 -1.15554
-2.52155 1.38059 1.32956
-3.16134 -1.73787 0.765642
-2.84298 1.67002 -1.28319
-2.57427 2.43581 0.598198
-3.01704 -0.576644 -0.529639
-2.75828 0.421573 -1.42965
-2.41259 -0.439049 -1.96308
-1.36298 2.44783 -1.81436
-2.73484 -0.732268 -1.41077
-2.22155 2.01966 1.27017
-2.89817 -0.0921416 -1.06998
-2.82559 0.00330265 1.30811
-2.63306 1.57147 -1.55634
-2.72236 1.68056 -1.4376
-2.20354 2.01428 1.29014
-2.92833 1.77724 -1.13094
-2.39936 0.0355936 -1.94772
-2.99872 2.43097 -0.599766
-3.09168 -0.0251489 -0.0555783
-3.02274 -1.24992 -0.494769
-3.15208 1.33565 -0.151554
-3.0583 -0.791357 0.533022
-3.08937 1.20523 0.267703
-2.90019 1.43081 -1.21855
-2.51377 -0.0414006 -1.79747
-1.9538 2.31427 -1.74233
-2.97223 -0.968562 -0.708668
-3.10039 2.06356 -0.527073
-2.51199 2.16331 -1.49757
-3.03547 0.974738 0.499834
-2.47477 1.99201 1.04077
-2.11887 2.76206 -1.3377
-2.41639 3.058 -0.65845
-1.96596 0.49574 -2.3317
-3.03226 -0.115648 0.60104
-2.89779 -0.245728 -1.04552
-1.77066 1.92389 -2.02322
-2.86748 0.0472867 1.18067
-2.32659 1.83139 -1.75678
-1.83102 1.9162 -2.00088
-2.16615 1.68809 1.54835
-2.62842 2.31646 0.63541
-3.08712 0.0455953 -0.264401
-3.09262 -1.24367 0.481062
-2.9523 0.502125 -1.03942
-3.00927 1.76605 0.337324
-3.12061 1.22597 0.11747
-2.48369 2.84476 0.225102
-3.12721 1.28081 -0.595928
-2.96614 -0.48386 -0.780848
-3.03239 2.11049 0.0600972
-2.91139 1.69231 0.587166
-3.10051 1.45712 -0.735503
-2.96666 1.79179 -1.05798
-2.35472 0.553442 -1.96248
-2.39908 1.35977 1.49248
-2.72704 0.393057 1.40115
-3.10561 -1.5665 1.09181
-2.76271 1.93752 -1.33108
-3.13508 1.61948 -0.0756285
-1.9925 0.976867 -2.21245
-2.63238 2.73001 0.20646
-2.68922 2.83633 -0.778772
-2.0489 2.1408 -1.7948
-2.01342 1.74014 -1.98252
-2.23233 2.87312 -1.16354
-2.63151 2.05956 -1.43305
-3.08582 0.147048 0.239223
-2.66813 0.715535 -1.57894
-2.80251 1.0565 1.03208
-2.87523 2.58149 -0.0338769
-2.79969 -0.165378 -1.29646
-2.37507 1.34112 -1.84124
-2.61327 0.219495 -1.65192
-2.85442 2.59792 -0.823735
-2.96232 0.119394 0.870066
-2.51726 3.02124 -0.266883
-3.07595 1.79574 -0.786978
-2.3446 1.92882 1.21706
-3.03098 -0.0882268 -0.604467
-2.73602 2.5846 0.238146
-2.60088 2.11896 -1.43965
-2.92271 -0.478853 -0.934582
-2.89242 -0.606341 -1.01396
-2.85185 2.45957 0.17532
-2.38274 2.58297 -1.35253
-1.34425 2.56924 -1.71113
-2.05678 -1.11148 -2.59635
-3.09183 1.82745 -0.720997
-2.38826 3.09624 -0.474167
-2.43109 -0.978133 -2.00534
-2.85512 2.60857 -0.80818
-2.47468 -0.627489 -1.8864
-2.65767 1.74815 0.964967
-2.92684 -0.507578 1.17744
-2.77218 1.44712 -1.40883
-2.96189 1.31683 0.620339
-1.91497 2.07863 -1.88696
-2.13815 0.834367 -2.12836
-2.17628 1.80645 -1.86413
-2.18958 1.75558 -1.87295
-2.48478 2.43909 -1.37867
-2.57805 0.110542 -1.70293
-3.08261 -0.104413 -0.191539
-3.10515 1.7245 0.0423106
-1.96458 1.18432 -2.18162
-2.74007 0.758546 1.24904
-2.58917 2.66885 0.341717
-2.58905 2.51798 -1.24251
