ply
format ascii 1.0
comment Created by Open3D
element vertex 400
property double x
property double y
property double z
end_header
-1.66566 -2.42924 -1.51442
0.591819 -2.61273 -1.76067
-1.40758 -2.72182 -1.2862
-0.644195 -3.1222 -0.428705
-1.23274 -2.1215 -1.94582
-1.42037 -2.3529 -1.67469
-1.33206 -3.16185 -0.408786
-0.988489 -2.5515 -1.59011
0.594231 -2.56276 -1.86048
1.08196 -2.77313 -1.49289
-1.99272 -2.5075 -1.30286
-0.932081 -2.87078 -1.13913
-0.0738055 -2.95222 -0.928636
0.330277 -2.6354 -1.6686
-0.0811482 -2.74861 -1.40846
-2.19756 -2.31741 -1.34037
-1.8324 -2.54436 -1.34128
0.615978 -2.86616 -1.14551
-1.91757 -3.04891 -0.633483
0.0395714 -2.98323 -0.810585
-0.818002 -2.61012 -1.54951
-0.509611 -2.61136 -1.5966
-0.0132277 -2.75234 -1.40484
-1.07398 -2.90043 -1.07516
-1.82511 -3.03648 -0.6916
-0.82318 -2.47287 -1.72058
-0.638971 -3.12483 -0.412045
0.0440419 -2.19997 -2.28021
-0.45524 -2.96338 -0.940042
-0.111216 -2.11626 -2.33365
-1.64704 -2.19663 -1.71478
-0.218356 -2.83444 -1.22986
-1.05503 -3.14718 -0.43533
0.210934 -2.70735 -1.51194
-0.964874 -3.09178 -0.631015
-0.937445 -2.9905 -0.90026
0.620405 -2.4675 -2.04608
-0.193344 -2.14849 -2.26807
-1.76156 -2.78585 -1.1054
-1.20401 -3.14411 -0.472206
-0.336525 -2.95072 -0.962068
-0.695561 -2.1026 -2.15437
0.483168 -2.81584 -1.2826
-0.25926 -2.72722 -1.43694
0.330867 -2.6138 -1.70988
-1.49648 -3.17664 -0.341844
-0.442478 -2.20882 -2.12193
-0.581501 -2.91838 -1.05384
0.0851114 -1.98723 -2.56357
-0.685363 -2.89613 -1.10134
0.950132 -2.82951 -1.29327
-1.1939 -3.12295 -0.549641
0.0118481 -2.95993 -0.893302
0.992784 -2.72831 -1.59036
0.548431 -2.86903 -1.13526
-0.696889 -2.52001 -1.68929
-1.23057 -2.27421 -1.81256
-1.59053 -2.13889 -1.78397
-1.35658 -2.97112 -0.916128
-1.22883 -3.05661 -0.742137
0.400587 -2.93057 -0.942842
-0.851427 -2.16901 -2.03757
-0.968292 -3.08456 -0.654434
-1.73036 -2.21291 -1.66445
-0.646443 -2.09109 -2.18242
0.441136 -2.85477 -1.17574
-0.219445 -2.07548 -2.34412
-1.18546 -2.6407 -1.43847
-0.0386041 -2.84066 -1.21526
-0.314961 -2.19671 -2.17368
-0.337006 -2.24845 -2.10641
-1.41638 -3.16291 -0.406692
-1.50672 -2.55524 -1.4491
1.01942 -2.80464 -1.38381
0.329662 -2.68368 -1.57285
-1.20448 -2.23666 -1.85576
-1.86374 -2.64997 -1.22349
-2.14295 -2.59252 -1.14944
-0.242526 -2.50504 -1.79381
-0.56145 -2.1466 -2.15332
-0.0334225 -2.30765 -2.11471
0.0531877 -2.09036 -2.42343
0.137802 -2.40681 -2.01759
-0.517982 -2.4244 -1.84715
0.524028 -2.64321 -1.68492
-1.61065 -2.98718 -0.843105
-1.39493 -2.62419 -1.40673
0.0115362 -2.50489 -1.84058
-1.58897 -2.7734 -1.17362
-1.48756 -2.30669 -1.69102
0.408329 -2.34085 -2.19394
-0.157467 -2.72517 -1.44801
-1.00264 -3.12818 -0.506147
0.130004 -2.81205 -1.2816
0.0173092 -2.29934 -2.13985
-1.63234 -2.73917 -1.20396
0.21485 -2.59022 -1.73423
-1.808 -2.37242 -1.50345
-0.554282 -1.95074 -2.35404
0.130094 -2.58069 -1.73729
-0.0360153 -2.38682 -2.00507
-0.0527931 -2.47009 -1.88097
-0.570874 -3.06095 -0.666929
-1.50341 -2.5167 -1.48967
-1.99866 -2.70758 -1.10477
-0.320451 -2.41205 -1.90626
0.352584 -2.63667 -1.66956
-0.827941 -2.25674 -1.9572
-0.596311 -2.34214 -1.92768
-0.462751 -3.04635 -0.694662
-1.66602 -3.0062 -0.794873
0.266187 -2.67531 -1.58197
0.358865 -2.89133 -1.07123
-0.807566 -3.07635 -0.659193
-0.543996 -2.1865 -2.11617
-1.32096 -2.34456 -1.71677
0.0228912 -2.7674 -1.37597
0.221929 -2.90233 -1.04628
-0.802407 -3.15605 -0.29376
-0.732842 -2.0137 -2.22709
-1.12063 -3.05798 -0.739245
-2.19041 -2.43795 -1.25486
-0.194791 -2.88446 -1.11726
0.203695 -1.91742 -2.70259
0.302116 -2.19703 -2.37205
-1.27603 -3.19898 -0.161312
-0.77471 -2.92705 -1.0374
-2.03672 -2.27361 -1.46519
0.393175 -2.31576 -2.2281
-2.19776 -2.34407 -1.32121
0.362368 -2.21831 -2.36343
0.0832076 -2.07603 -2.45263
-1.402 -2.5963 -1.43625
-1.38562 -3.12288 -0.553353
-1.81306 -2.75664 -1.12347
-0.795407 -2.80227 -1.26763
-1.49917 -2.92598 -0.972944
0.143454 -2.72263 -1.47512
-1.90741 -2.93663 -0.84338
0.426833 -2.90936 -1.01176
-0.20942 -3.05221 -0.603664
-2.04305 -2.88974 -0.858647
-1.48975 -3.19189 -0.255181
-0.548886 -2.16341 -2.13945
0.374238 -2.54685 -1.84096
0.0584279 -2.99183 -0.77564
0.392935 -2.81282 -1.28637
-0.788039 -3.1453 -0.358758
0.240174 -2.62764 -1.67001
-0.475384 -2.09414 -2.23673
-2.19686 -2.21993 -1.40691
-1.84665 -2.86528 -0.971261
-1.90716 -3.01946 -0.697957
-0.870567 -2.441 -1.74656
-1.17345 -3.10856 -0.596013
0.852258 -2.8362 -1.25694
-0.724381 -3.13768 -0.375955
-2.18122 -2.5706 -1.14844
-0.85062 -3.15869 -0.300655
-2.03033 -2.76569 -1.02482
-1.55994 -2.89146 -1.01525
-0.456535 -3.05861 -0.648778
-0.808834 -3.15219 -0.324406
-0.550263 -2.15115 -2.15204
-0.667093 -2.80016 -1.28103
-1.62716 -2.25113 -1.68081
-1.02514 -3.16642 -0.325312
0.22596 -1.92962 -2.69768
-1.4042 -2.67326 -1.34681
-0.499734 -3.08016 -0.575295
-1.88839 -2.73078 -1.12535
-1.54638 -2.27773 -1.69259
-1.36652 -2.97422 -0.908986
-1.70439 -2.81685 -1.08344
-0.807625 -2.30669 -1.91083
-1.1102 -2.49829 -1.62272
-0.646046 -2.45547 -1.78068
0.163019 -2.4275 -1.99219
-1.13827 -2.96433 -0.950111
-0.230241 -2.85222 -1.19152
-0.945636 -2.62076 -1.51244
-0.508743 -2.92512 -1.03635
-0.816373 -2.97158 -0.941209
-0.0094496 -2.56845 -1.73578
-0.55305 -2.3068 -1.97964
0.102994 -2.62942 -1.64788
0.990506 -2.76022 -1.50412
0.757151 -2.8491 -1.20653
-1.76754 -3.03753 -0.706492
0.80775 -2.84607 -1.22095
-1.66598 -2.57159 -1.37875
-1.96527 -2.92278 -0.842737
-1.4583 -3.19139 -0.258299
-0.555868 -2.13715 -2.16505
-0.084739 -2.17386 -2.27217
-0.278775 -2.29606 -2.06445
-0.976803 -2.08911 -2.06919
-0.836845 -2.67856 -1.45248
0.562359 -2.80612 -1.31315
-1.87868 -3.00186 -0.741698
-1.86735 -2.85959 -0.971833
-0.519152 -2.49817 -1.75206
-0.272952 -2.25211 -2.11996
-0.372643 -2.9535 -0.95813
-0.374397 -2.28693 -2.05023
-0.69404 -1.95689 -2.29484
-0.0541363 -2.05627 -2.42562
-0.640081 -3.00702 -0.842772
-1.1957 -2.863 -1.12522
-1.12509 -2.1382 -1.97176
-0.805058 -3.10086 -0.572417
-0.013189 -2.09078 -2.39878
0.288894 -2.69562 -1.54375
0.385355 -2.91304 -1.0024
-1.51206 -3.13272 -0.513515
-1.42099 -2.16231 -1.8379
-0.12213 -2.88347 -1.11652
0.138268 -1.92866 -2.65846
0.506133 -2.4487 -2.04582
-1.75535 -2.84314 -1.0322
0.152327 -2.34304 -2.11559
-0.241129 -2.65043 -1.57041
-0.632302 -3.13096 -0.372801
-0.768757 -2.32109 -1.90607
-0.256454 -2.77389 -1.35084
-0.995509 -2.90666 -1.06977
-1.36115 -2.17945 -1.84764
-1.13458 -2.10989 -1.99292
0.00904398 -2.7914 -1.32491
-0.643555 -2.97702 -0.920526
-0.484935 -2.41294 -1.86882
-0.590427 -2.39788 -1.86329
-0.551525 -3.1083 -0.463721
-1.60794 -2.27117 -1.67277
-0.619615 -2.41672 -1.83384
-0.763024 -2.01634 -2.21354
0.015188 -1.96335 -2.5633
-1.86391 -2.7454 -1.11794
-1.16287 -3.08967 -0.653084
-0.968436 -2.93979 -1.00756
-0.630983 -2.54292 -1.67197
0.321404 -2.75319 -1.42387
0.265445 -1.98296 -2.6473
-1.09741 -2.44413 -1.68511
0.59145 -2.54018 -1.90314
-0.835808 -2.52923 -1.64972
-0.941995 -2.8244 -1.2175
-0.244305 -2.89268 -1.09997
-2.01983 -2.51975 -1.27879
-0.332933 -2.36568 -1.96342
-1.99714 -2.85684 -0.924669
-0.166884 -1.88918 -2.57166
-1.02933 -3.02264 -0.826233
-0.365669 -2.72026 -1.44086
-0.0376175 -2.14825 -2.31937
-0.595753 -3.06584 -0.655028
-0.51394 -2.05983 -2.25944
-0.114149 -3.02327 -0.695878
0.589401 -2.8565 -1.1738
-1.43903 -2.7043 -1.30018
-1.92759 -2.30634 -1.49872
0.139545 -2.41344 -2.00801
-2.08425 -2.4269 -1.32357
-0.744479 -2.89756 -1.0976
0.466613 -2.77556 -1.38302
0.0856018 -2.12555 -2.39061
-0.902401 -2.3731 -1.81374
0.251994 -2.28445 -2.22985
-0.554967 -2.31224 -1.97288
-0.705428 -2.01149 -2.23921
-1.28076 -3.17573 -0.335543
-1.487 -2.92058 -0.98425
-0.427019 -2.80709 -1.28085
0.253857 -2.07512 -2.52084
-0.237233 -3.02701 -0.712226
0.0712278 -1.95336 -2.59888
-1.9097 -3.06325 -0.604555
-0.101186 -1.92226 -2.56249
0.639962 -2.73003 -1.51225
-1.32317 -3.09265 -0.644881
-0.441103 -2.59572 -1.6295
-1.60303 -2.37673 -1.58552
-0.210614 -2.12473 -2.29036
-0.987112 -2.50318 -1.64737
0.451099 -2.65201 -1.65448
-2.02806 -2.6103 -1.19102
-1.79146 -2.8518 -1.00869
-1.49679 -2.9643 -0.907197
-0.132044 -2.24837 -2.16456
0.765967 -2.63694 -1.74967
0.0888121 -2.08492 -2.44353
0.825419 -2.65162 -1.73209
-1.00829 -2.15167 -2.0012
-0.935519 -2.77709 -1.29359
0.577572 -2.56347 -1.85508
-1.7138 -2.31305 -1.59359
0.249516 -2.67339 -1.58377
0.298822 -2.19988 -2.36684
-1.25745 -3.11675 -0.573266
-2.1154 -2.54163 -1.2104
0.180294 -2.62775 -1.66133
-1.52521 -2.80932 -1.14261
0.119903 -2.87611 -1.12432
-2.08073 -2.77931 -0.985169
0.276481 -2.77677 -1.36768
-0.483895 -2.68696 -1.48466
-2.16308 -2.38153 -1.31438
-1.42602 -2.8954 -1.03669
-0.137338 -2.8675 -1.1551
-1.69889 -2.63363 -1.30263
0.30977 -2.87272 -1.12673
-0.949677 -2.07571 -2.09109
-0.763261 -2.46181 -1.74721
-1.49515 -3.15417 -0.439325
-1.22511 -2.4105 -1.6835
-1.10676 -2.59848 -1.50742
-0.363018 -1.91746 -2.46165
-0.345588 -3.03413 -0.711689
-0.2156 -3.03381 -0.681191
-0.0138225 -1.87473 -2.65423
-1.93842 -2.19167 -1.57622
-1.95483 -2.45676 -1.36495
0.242831 -2.76791 -1.38583
-1.64508 -3.12586 -0.516004
-1.17487 -3.0661 -0.718498
-1.00961 -2.59814 -1.52857
0.583218 -2.74593 -1.46642
0.785503 -2.60509 -1.82373
0.523717 -2.89347 -1.05925
-1.0479 -2.74263 -1.32923
-1.01737 -2.45742 -1.69169
0.177529 -2.08089 -2.48268
-0.336892 -3.01762 -0.766369
0.064757 -2.11897 -2.39154
-0.733474 -3.1172 -0.485662
0.196493 -2.24852 -2.26347
-0.588213 -2.6859 -1.47459
0.161981 -2.57992 -1.74374
0.043125 -2.59562 -1.69849
1.0976 -2.80793 -1.39387
-0.790088 -3.05113 -0.735179
-1.16167 -3.14964 -0.443844
-1.68088 -2.49058 -1.45224
-1.26544 -2.23674 -1.83415
-1.35602 -2.47061 -1.58301
-0.904622 -3.03744 -0.784125
-0.433749 -2.93778 -1.00246
-0.487206 -2.45152 -1.81931
-0.192048 -2.59807 -1.66128
-0.862039 -2.43537 -1.75503
-0.590842 -2.54567 -1.67552
0.795132 -2.77714 -1.41759
-0.744361 -2.39027 -1.8353
-1.97794 -2.79176 -1.01662
-0.917082 -2.24661 -1.94042
-1.81851 -2.76286 -1.11403
-0.899157 -3.15623 -0.339715
-1.6083 -2.19157 -1.73583
0.143774 -2.86976 -1.14002
-1.53901 -3.0295 -0.773723
-1.34163 -3.09056 -0.649923
-1.08607 -3.11796 -0.557052
-1.05056 -2.61019 -1.50511
-0.109813 -2.99714 -0.790849
-0.777303 -3.1366 -0.404366
-1.22278 -2.77985 -1.24705
-0.168156 -3.01066 -0.755643
-1.65428 -2.26431 -1.65863
-0.212683 -2.98669 -0.843628
-0.291379 -2.55764 -1.70855
-1.86699 -3.07925 -0.582359
-1.80479 -2.35131 -1.52217
-0.201592 -2.42675 -1.91219
-1.00636 -2.06789 -2.07727
-2.18895 -2.25235 -1.39045
0.727463 -2.58874 -1.84235
-0.301168 -2.58892 -1.66005
-0.683179 -2.11886 -2.14234
-0.60279 -2.93768 -1.01144
-1.5284 -2.39928 -1.59352
0.115735 -2.68678 -1.54318
-1.71295 -2.49052 -1.43992
-1.90471 -2.83861 -0.9864
0.540132 -2.57219 -1.82955
-0.9578 -2.55669 -1.59046
0.152921 -2.9131 -1.01999
0.203672 -2.63448 -1.65215
-1.92345 -2.54402 -1.30223
0.170753 -2.8469 -1.19783
-1.51284 -2.68308 -1.30588
-1.23913 -2.20732 -1.86963
0.580207 -2.77775 -1.38791
-0.561608 -3.00818 -0.830688
0.402903 -2.46415 -1.9916
-2.12994 -2.70471 -1.04466
-0.715788 -2.99142 -0.889646
-1.31348 -2.55921 -1.5018
-0.0946945 -2.39105 -1.98537
0.450391 -2.83047 -1.24251
-0.571525 -3.06283 -0.660431
