ply
format ascii 1.0
comment Created by Open3D
element vertex 250
property double x
property double y
property double z
end_header
-2.12035 -2.44309 -0.986595
-2.99276 -2.09516 1.0612
-0.272975 -2.39483 1.93875
-1.09262 -2.99338 1.02573
-2.475 -2.57253 -0.564511
-0.484529 -3.1207 0.165537
1.36361 -3.10518 -0.278463
-0.181238 -3.01679 0.758794
-1.99654 -2.43192 -1.08326
-1.54708 -3.14222 0.508766
-2.41222 -2.75542 1.13749
-0.607258 -3.0727 0.669689
-2.27699 -3.06282 0.36584
-0.699032 -3.10048 -0.235794
-2.34319 -2.99455 0.0547911
-2.74442 -2.73765 -0.010039
-0.270184 -3.09927 -0.137722
0.965918 -2.95245 0.789665
0.182646 -3.08036 -0.175813
-0.592506 -2.46438 1.83887
-2.68748 -2.62953 1.06311
0.674725 -2.96634 0.750489
-1.16635 -3.14479 0.0599161
0.313343 -3.03027 0.528801
-0.546661 -2.69174 1.54237
-1.9733 -2.97604 -0.307265
-0.374912 -3.08964 -0.262386
-3.056 -2.46413 0.546089
-0.252423 -2.75258 1.42731
-1.62019 -3.09486 0.75014
-2.10068 -2.34925 -1.09354
-3.09681 -2.1791 0.80303
-2.5898 -2.34359 -0.679681
-2.5563 -2.19999 1.4749
-2.98454 -2.06753 1.08563
1.35213 -3.1018 -0.196218
-0.289486 -2.47524 1.83987
-2.79211 -2.13626 1.29996
-1.59891 -3.03966 -0.326313
-0.206431 -2.77657 1.37958
-0.297579 -2.76834 1.40257
-0.23168 -3.09867 0.281536
-2.57509 -2.85342 0.853555
-2.75369 -2.79093 0.136388
-0.903345 -2.50971 1.76726
-2.89973 -2.68192 0.622965
0.54173 -2.44622 1.92259
-2.90051 -2.70394 0.501253
0.58236 -3.07147 0.0102865
-2.15162 -2.99862 -0.127078
-2.44909 -2.41535 1.42193
-0.759572 -2.76831 1.4315
0.718652 -2.57345 1.72842
-2.87876 -2.44359 -0.215207
-0.858979 -3.04069 0.860753
1.01509 -2.60622 1.69875
-0.568594 -2.9417 1.07766
-2.02 -2.49562 -0.999751
-1.66653 -2.86196 1.25582
-0.452488 -3.11356 0.292478
-0.402561 -3.09844 0.418086
0.50008 -2.99307 0.665461
-0.628299 -2.67848 1.56363
-2.49765 -2.72195 -0.352824
-3.03264 -2.42025 0.0958535
-2.63539 -2.33681 1.34034
-1.82046 -3.04599 0.871422
1.09077 -2.9877 0.646039
-2.00616 -2.71431 -0.741679
-0.909279 -3.14284 0.133395
-1.90246 -3.0615 0.803498
-0.234462 -2.53167 1.76759
-2.19927 -2.51968 -0.848948
-0.028748 -2.89569 1.09718
-0.0213733 -2.7644 1.38635
1.27825 -3.0942 -0.157779
0.834297 -2.56222 1.75903
-2.41292 -3.02111 0.419662
-2.13713 -3.0843 0.555276
-0.719895 -3.11976 0.43661
-0.576329 -3.09004 -0.288236
-2.22985 -2.52419 1.45855
-2.39034 -2.91083 -0.124369
0.162098 -3.08535 -0.019923
-0.494452 -3.06907 0.644478
-2.95087 -2.56049 0.0997932
0.727218 -3.04937 0.276923
-2.05998 -2.55911 -0.902178
-0.0911271 -2.78591 1.3507
-1.67881 -3.13102 0.566887
-0.204411 -2.39969 1.93717
0.814593 -2.93962 0.841286
-2.11762 -2.98074 -0.200024
-2.04236 -3.10723 0.490536
-2.35714 -2.84205 1.05366
0.0202347 -2.74925 1.41212
-1.62555 -2.83347 -0.759249
-2.43755 -2.50644 -0.670456
-1.86101 -2.58827 1.53613
-0.791076 -3.04187 -0.502476
-2.32089 -3.0411 0.555682
-2.56641 -2.77309 -0.198886
-2.33609 -2.96556 -0.0445373
-1.76587 -2.73426 -0.848551
-2.63645 -2.75335 0.959701
-0.893024 -3.1057 -0.215773
-0.6052 -3.12096 -0.0376809
1.03921 -2.59505 1.72404
1.01237 -2.98752 0.641583
-0.146773 -3.01957 0.736767
-0.601894 -2.62811 1.63406
-1.771 -2.6127 1.53595
-0.117572 -2.93659 1.00448
-1.78715 -2.60778 -1.00887
1.02537 -2.75933 1.36968
-1.83757 -3.06887 0.799526
0.784252 -2.86332 1.08907
-2.46859 -2.49588 -0.653319
-2.53635 -2.93595 0.148315
-2.68719 -2.75252 0.903052
1.24811 -3.09358 -0.211176
-2.43731 -2.63647 1.25115
-0.615604 -3.08985 0.587332
-2.64099 -2.88809 0.657414
1.07617 -3.07191 0.0521239
1.09307 -2.85023 1.13696
-0.85455 -2.50037 1.78125
-0.982726 -2.68082 1.55786
-0.498457 -3.11924 0.246516
0.492027 -2.61136 1.65028
0.117457 -2.9357 0.958424
1.13725 -2.93697 0.859399
-2.38146 -2.97966 0.749429
0.76577 -2.39069 2.03345
-0.683386 -2.52888 1.75861
-0.0265979 -2.8788 1.13909
0.867431 -2.76214 1.35225
-0.218636 -2.97902 0.901291
-2.75911 -2.40679 1.18432
1.10228 -3.06533 0.142705
-2.83844 -2.21948 1.21103
-3.03589 -2.42354 0.112282
0.30586 -2.44314 1.90934
-2.27609 -3.05719 0.271976
-2.2237 -3.00398 -0.0477184
-2.83268 -2.13866 1.25538
-1.2648 -3.06479 -0.34774
0.485406 -3.05895 0.252186
-2.58568 -2.46273 1.29584
-1.83278 -2.99479 -0.340603
0.66425 -2.55186 1.76216
-1.7498 -2.95568 -0.470125
0.492952 -2.65197 1.57656
-2.9548 -2.59019 0.178647
-2.04177 -2.55204 -0.922304
-2.77136 -2.80518 0.237491
0.826454 -2.95037 0.800303
-0.580849 -3.03725 -0.538968
-1.21194 -3.0968 -0.235399
0.731883 -2.75593 1.36346
-2.19825 -2.48608 1.50278
-1.23788 -2.76517 1.43418
-2.81502 -2.18292 1.25475
-2.39479 -3.01808 0.261185
-0.311128 -2.74753 1.44051
1.08202 -3.0505 0.274141
1.11467 -3.07607 0.0119649
-2.45251 -2.88097 0.920149
-1.89581 -2.81568 -0.655131
-0.172926 -2.65154 1.59221
-2.47193 -2.77987 1.06585
0.668449 -3.06329 0.136877
-0.477365 -2.90618 1.14632
-2.77999 -2.21925 1.27385
-3.08594 -1.99004 0.928658
-2.69975 -2.83554 0.707759
-2.88678 -2.65999 0.723287
-1.89179 -3.13028 0.426457
0.268316 -2.44078 1.91037
-1.19511 -3.15242 0.173473
0.366492 -2.57347 1.71233
-0.270941 -3.03615 -0.561141
-2.02235 -2.77691 -0.641871
-1.67701 -2.94337 1.12024
-1.93817 -2.96649 1.024
-2.86241 -2.02798 1.26486
-0.373453 -2.87405 1.20243
-0.383094 -3.09756 0.412836
-2.47587 -2.99222 0.520076
-1.49214 -3.15385 0.366373
-2.403 -2.89172 0.939415
-2.6127 -2.30627 1.37614
-1.31267 -3.1501 0.419344
-2.96704 -2.5951 0.243013
0.200151 -2.905 1.03277
-2.84078 -2.01183 1.29545
0.796007 -2.36967 2.07002
-2.90052 -2.64705 0.715388
-1.14172 -3.10958 0.660445
-1.20717 -2.95418 1.11998
0.893303 -2.01848 2.57372
0.990044 -1.90279 2.75199
0.608706 -1.86111 2.67437
0.973054 -1.48042 3.24363
0.304658 -2.2657 2.1452
0.893421 -2.19719 2.33803
0.151117 -1.70399 2.70254
0.784416 -2.14375 2.38349
0.67522 -1.53298 3.04362
0.384826 -2.04613 2.41589
-0.105755 -1.8688 2.49321
0.678317 -1.94259 2.60264
0.5517 -1.42143 3.10157
0.749159 -1.44935 3.16297
0.458817 -1.36805 3.11186
0.903399 -1.69659 2.96318
0.284425 -1.85374 2.59581
0.815165 -1.91953 2.67061
0.0724657 -1.9959 2.40936
-0.249479 -2.31412 2.03296
0.833875 -1.67341 2.96001
-0.262638 -2.28314 2.06575
0.0343563 -1.90103 2.49353
0.984883 -1.70782 2.9861
0.200177 -1.3119 3.05424
0.749042 -1.57053 3.03591
0.0477705 -1.83863 2.5544
0.195117 -2.2532 2.14742
0.214691 -1.36703 3.01417
1.0077 -1.64824 3.06721
0.458105 -1.47257 3.01478
-0.175811 -2.33734 2.01279
0.730154 -1.55279 3.04648
0.857322 -1.75427 2.87821
0.10964 -2.2549 2.13564
0.354007 -1.71945 2.74569
0.977413 -2.15145 2.42331
0.603571 -1.5542 2.9929
0.59355 -2.27972 2.16636
0.142354 -2.10231 2.31132
0.263092 -1.58447 2.84315
0.726842 -2.02291 2.52088
0.333858 -1.56407 2.88501
0.659527 -1.38623 3.18461
0.788713 -2.22313 2.27857
0.555077 -1.95181 2.5594
1.10395 -2.00089 2.66892
0.7327 -1.38375 3.22265
0.521751 -1.87296 2.63701
0.22755 -2.19204 2.2237
