ply
format ascii 1.0
comment Created by Open3D
element vertex 250
property double x
property double y
property double z
end_header
0.691841 3.23474 0.704075
-1.24371 3.08441 1.84717
-2.26452 2.01494 -0.616828
-1.41988 3.02149 -0.246533
0.269625 3.46076 1.0063
-0.613677 2.95852 -0.933541
-0.246735 2.15906 -2.61853
-1.1962 2.66028 -1.09619
0.784055 3.18001 0.588756
-0.913425 3.41906 0.0387378
-1.44165 3.39607 1.04563
-1.09954 2.91308 -0.750775
-0.731077 3.69621 0.709139
-0.20561 3.0845 -0.775116
-0.410899 3.70203 0.766122
-0.292145 3.66431 1.23052
-0.319472 2.87773 -1.14634
-1.26294 2.08007 -2.08611
-0.297126 2.66027 -1.54519
-2.16353 2.23279 -0.373409
-1.33822 3.41818 1.33882
-1.21467 2.22883 -1.83699
-0.485676 3.30102 -0.347946
-0.990841 2.47485 -1.56643
-1.90669 2.44745 -0.54564
-0.0652796 3.56018 0.407424
-0.190686 2.93115 -1.06172
-0.787863 3.49907 1.68673
-1.81396 2.38129 -0.846544
-1.1418 3.38227 0.149818
0.810817 3.15532 0.717045
-0.997151 3.23576 1.87592
0.422433 3.32382 1.198
-1.68561 2.93121 1.45489
-1.26401 3.05343 1.85463
-0.327009 2.15171 -2.5983
-2.17828 2.10499 -0.647977
-1.49377 3.00206 1.67501
-0.0710226 3.44899 0.0438481
-1.77226 2.3872 -0.903068
-1.79009 2.41856 -0.815871
-0.735067 2.811 -1.13695
-1.1694 3.5895 1.11787
-0.444432 3.69858 1.23033
-2.08717 2.42203 -0.124081
-0.902826 3.61182 1.45907
-2.2889 1.6931 -1.36681
-0.785882 3.64579 1.4374
-0.495618 2.44966 -1.87795
-0.239529 3.63998 0.574879
-1.66998 3.07914 1.25854
-1.80017 2.62448 -0.401424
-2.12332 1.74797 -1.60083
-0.0398562 3.48912 1.45915
-1.27339 2.97663 -0.49264
-2.11081 1.64607 -1.88241
-1.48438 2.73235 -0.684941
0.692917 3.23723 0.590086
-1.60442 3.13862 0.346607
-0.739278 2.92293 -0.945769
-0.863077 2.87234 -0.970528
-1.12771 2.34147 -1.7021
-1.92242 2.47025 -0.464862
0.0389442 3.57848 0.982205
-0.337451 3.50205 1.63874
-1.57011 3.10361 1.45079
-1.24623 3.41571 0.36238
-1.13137 2.07135 -2.22778
0.404533 3.39424 0.507618
-0.568255 3.17428 -0.568408
-1.17819 3.47448 0.421505
-2.11757 2.13834 -0.72946
0.547509 3.32219 0.754696
-1.51835 2.44482 -1.14331
-1.78454 2.29181 -1.06179
-0.360879 2.17399 -2.52516
-2.15649 1.68208 -1.69567
-0.772525 3.71468 0.854249
-0.927033 3.62981 0.594689
-0.871881 3.03281 -0.695445
-0.15715 3.02578 -0.885199
-1.7313 3.07175 1.01888
-0.219441 3.67024 0.826639
-0.451042 2.65586 -1.51295
-1.07861 2.8617 -0.852242
-0.365718 3.5885 1.50421
-0.761476 2.33349 -1.96955
0.58858 3.30012 0.607667
-1.74976 2.34658 -1.01288
-0.963878 3.46209 0.167037
-2.26643 1.98835 -0.680205
-1.30594 2.13128 -1.94032
-0.166143 3.61726 0.544971
-0.870327 3.61466 0.493428
-1.37408 3.45744 0.949526
-1.80937 2.25657 -1.08946
0.388723 3.32916 0.114069
0.382724 3.3977 0.991245
-1.83235 2.95225 0.670058
0.070322 3.10541 -0.694801
-0.913578 3.67483 0.777515
-0.118059 3.63694 1.03674
-0.308705 3.68475 0.76235
0.497481 3.31543 0.273721
-1.25674 3.51652 1.22783
-0.218408 3.17468 -0.602593
-0.408146 3.03706 -0.847236
-2.13508 1.62233 -1.89633
-1.1238 2.10723 -2.15835
-1.17624 2.64968 -1.13039
-1.98547 2.40558 -0.458777
-1.83944 2.93307 0.579052
-1.42938 2.53199 -1.09192
0.675728 3.23193 0.332098
-1.80921 1.815 -1.99346
-1.17797 3.45205 0.360035
-1.538 2.04878 -1.85384
0.368627 3.40044 1.02533
-0.486733 3.72689 0.973785
-1.19863 3.54535 1.26752
-0.306833 2.19331 -2.50357
-1.53503 3.2891 1.13243
-1.02044 2.9416 -0.759468
-0.978235 3.67281 1.14089
-0.556779 2.22145 -2.31358
-1.59571 1.89173 -2.11811
-2.10153 2.39004 -0.161951
-1.90289 2.63358 -0.150858
-0.692891 2.95413 -0.912106
-2.04277 1.89324 -1.42389
-1.39315 2.43007 -1.30561
-1.33635 1.98064 -2.22461
-1.09329 3.62545 0.878731
-2.39902 1.52963 -1.53026
-2.09032 2.34032 -0.329356
-1.55729 2.42404 -1.1334
-1.78609 1.89107 -1.85585
-1.32978 2.62728 -1.0314
-1.42157 3.23967 1.51382
-0.64631 2.19327 -2.32454
-1.41659 3.10695 1.67019
-0.354044 3.50452 1.64188
-2.2659 1.79879 -1.15676
-0.637547 3.70174 0.701113
-0.315842 3.66815 0.644916
-1.44848 3.02775 1.70545
-0.067012 3.32231 -0.267047
-0.728804 2.4544 -1.76101
-1.54709 3.19756 1.34614
-0.0407949 3.51696 0.270518
-2.15122 1.74961 -1.53932
0.0897105 3.45986 0.200524
-1.97609 1.93729 -1.45033
-0.447921 3.60735 1.50273
0.608796 3.28796 0.592496
-0.545738 3.70742 1.25024
-1.26755 2.14018 -1.95988
0.0986486 3.01032 -0.883757
-0.184915 3.31359 -0.316668
-1.79079 1.94569 -1.73123
-1.77052 3.0186 1.0122
-1.7832 2.83811 0.0262062
-1.45522 3.05894 1.67006
-0.61625 3.72222 0.823031
-1.82389 2.40189 -0.790658
-0.773101 2.17406 -2.28632
-0.519276 2.21235 -2.35387
-1.24424 3.55057 1.00339
0.299371 3.42378 0.373412
-1.96483 2.23679 -0.855512
-1.37217 3.45307 1.08056
-0.62288 2.38871 -1.93788
-1.55051 2.65164 -0.743344
-1.48095 3.07296 1.62475
-1.09323 3.04913 1.96299
-1.01771 3.64713 1.22171
-0.999145 3.57491 1.46763
-0.816525 3.57427 0.342494
-2.26506 1.81359 -1.12217
-0.597843 3.30758 -0.31395
-2.09334 1.90942 -1.28888
0.108312 2.87151 -1.16156
0.297171 3.44531 0.50465
-1.48232 3.23109 0.305846
-1.38028 3.38104 0.518221
-1.44 2.94229 1.78193
-1.60526 2.56964 -0.815846
-0.858538 2.86336 -0.988019
-0.864849 3.706 0.933497
-0.776717 3.42101 -0.0300808
-1.26687 3.5354 0.956537
-1.60178 3.06218 1.44781
-0.835663 3.33022 -0.18277
-0.511751 3.60976 1.51811
-1.46528 2.35682 -1.35795
-1.46864 2.91466 1.77299
-2.43319 1.4931 -1.54409
-0.988845 3.57062 1.48478
-1.07457 3.18891 -0.292098
-1.5025 3.02779 -0.117391
-2.8818 1.08004 -1.42303
-3.04436 0.91323 -1.43948
-2.94615 1.0582 -1.08946
-3.46578 0.490453 -1.18637
-2.47214 1.61508 -1.05268
-2.67588 1.26535 -1.5267
-2.93202 1.12338 -0.609436
-2.70838 1.26222 -1.40124
-3.26419 0.695107 -0.96512
-2.7097 1.35322 -0.998788
-2.73976 1.40978 -0.475349
-2.89034 1.10701 -1.19496
-3.2997 0.645744 -0.799711
-3.37246 0.573818 -0.98157
-3.29811 0.639451 -0.692284
-3.21849 0.745687 -1.24913
-2.85446 1.20774 -0.805532
-2.95949 1.01673 -1.29959
-2.68319 1.45111 -0.699039
-2.34637 1.922 -0.592248
-3.20908 0.757062 -1.17727
-2.37358 1.89677 -0.563412
-2.75054 1.37474 -0.614365
-3.24608 0.71603 -1.32429
-3.2224 0.713709 -0.443046
-3.26518 0.695745 -1.04829
-2.80181 1.30643 -0.592374
-2.46807 1.6534 -0.949354
-3.19169 0.760524 -0.484541
-3.31814 0.643596 -1.30982
-3.21792 0.743443 -0.747997
-2.33289 1.91149 -0.670228
-3.2722 0.687399 -1.02252
-3.14138 0.827419 -1.24244
-2.45327 1.69501 -0.875208
-2.9851 1.0401 -0.792502
-2.75659 1.17695 -1.57241
-3.21442 0.752226 -0.915963
-2.50672 1.49412 -1.31397
-2.60515 1.5249 -0.818567
-3.05741 0.950662 -0.641661
-2.82361 1.16553 -1.28222
-3.09853 0.895703 -0.691313
-3.38075 0.556119 -0.871547
-2.61686 1.34263 -1.45109
-2.84409 1.17603 -1.09377
-2.98163 0.957987 -1.59298
-3.42088 0.516356 -0.931677
-2.90755 1.11242 -1.02114
-2.53551 1.57579 -0.943254
