ply
format ascii 1.0
comment Created by Open3D
element vertex 200
property double x
property double y
property double z
end_header
0.0187149 -2.74621 -1.41844
-1.02034 -1.76771 2.40912
0.658365 -2.60711 2.22852
-2.60532 -1.78405 -0.140541
-2.72325 -1.19807 1.16154
-1.95968 -1.62656 1.75341
-2.24771 -2.06861 -0.72826
-2.71054 -1.67937 -1.32245
-1.45436 -2.87517 0.091733
-0.975075 -2.93786 1.72534
0.261829 -3.6073 1.6316
0.073498 -2.72008 -1.46372
-2.8383 -1.46868 0.328687
-2.91577 -1.54746 -0.579022
0.0463231 -3.23983 2.00673
0.338297 -3.77656 1.0417
-2.91537 -1.22278 0.757669
-2.16766 -2.08556 0.736161
-1.93441 -2.42432 0.41808
-3.02952 -1.44772 -0.45451
-2.75963 -0.809814 1.6091
0.365564 -3.48637 -0.0104769
-0.485446 -2.78447 -1.26358
-1.81016 -2.39869 1.05125
0.476283 -3.17785 1.97313
-2.12203 -2.2429 -0.107666
-1.60838 -1.1549 2.37807
-0.267682 -3.64815 0.406585
-1.03321 -3.05587 -0.297622
-0.209139 -3.48929 -0.0226124
-0.158379 -3.13298 2.05504
-1.80661 -1.20796 2.20501
-1.93676 -2.38909 0.626611
-1.63318 -2.40967 -1.06226
-1.98349 -2.35767 -0.245898
-0.507751 -2.26121 2.40132
-0.0596828 -3.44745 1.8284
0.119893 -3.67598 0.37363
0.0715165 -2.76063 2.27602
0.387613 -2.15234 2.49249
-2.58606 -1.58041 0.761918
-0.564644 -3.25437 -0.328763
-0.918302 -3.02116 -0.520106
0.268811 -3.5257 0.0398825
-2.34067 -1.47021 1.40722
-2.86948 -1.59045 -1.04796
-0.0793436 -3.06421 2.10996
-2.44229 -1.91839 -0.714956
0.148744 -2.70982 -1.47662
0.426043 -2.86755 2.17668
0.220436 -3.19378 -0.61414
-0.397325 -3.51908 0.147506
-1.48382 -2.58214 1.43465
-0.86673 -1.85038 2.44342
-2.15787 -0.86806 2.1564
0.760595 -2.11171 2.40468
-1.8271 -2.2282 1.30299
-0.487523 -3.64869 1.1643
-1.3256 -1.73693 2.2467
-1.1263 -1.88444 2.29601
-0.601872 -3.2899 1.72224
0.245699 -3.02855 -0.901859
-1.38216 -2.57279 -1.0079
-0.547225 -3.56793 1.33801
-1.68897 -2.54989 -0.493196
-2.08857 -2.25691 -0.309183
-2.76285 -1.66887 -0.61985
-0.602067 -2.17766 2.40628
-0.698614 -3.28848 1.63408
-2.37037 -1.98105 -0.65566
-0.827 -1.92793 2.42679
-0.374785 -3.47163 1.68071
-0.190019 -2.43749 2.39827
-1.27194 -1.92162 2.18241
-2.23923 -1.9563 0.844355
-0.836661 -3.30313 1.4361
-2.30815 -2.03385 0.295607
-3.0548 -1.46461 -0.913838
-1.46693 -1.4107 2.32897
-0.376713 -3.54429 0.196469
-2.52138 -1.85703 -0.706393
0.304063 -2.46216 2.38624
-0.716673 -3.48533 1.24049
-0.05563 -3.718 0.51617
-0.0373865 -3.56122 1.70869
0.0283675 -3.52166 1.76241
-0.48768 -3.48228 1.57849
-2.94326 -1.43624 0.0646814
-1.8591 -1.37857 2.04725
-0.249565 -3.72989 0.702769
-2.68619 -1.39428 0.907125
-0.420919 -3.02118 -0.852794
-3.1919 -1.39472 -1.21122
-0.978952 -2.9244 1.73425
0.142758 -3.58804 0.153231
-2.53952 -1.77035 0.363691
-1.84377 -2.03558 1.51217
-2.33888 -1.12303 1.77073
0.453483 -2.21421 2.45624
-2.64727 -1.28562 1.15973
0.223021 -3.19403 -0.613229
-2.2281 -1.88346 1.02024
-1.61121 -2.36416 -1.22877
-0.9664 -2.65098 1.96548
-0.92329 -2.81066 1.88413
0.235427 -3.18118 -0.634043
-0.927488 -3.08663 1.62025
-1.98819 -1.41913 1.8934
-0.396435 -3.66196 1.30175
-2.09626 -2.27222 0.0702809
-3.0163 -1.35191 0.135362
-1.18604 -3.16637 0.556742
-2.49672 -1.87572 -0.715251
-1.14896 -3.12003 0.117201
-1.17425 -2.82718 1.60355
-2.08799 -1.48502 1.72819
-0.0215792 -2.58274 2.35328
-2.82682 -1.45126 0.421177
-0.711204 -3.51761 1.12657
-0.450894 -2.9503 2.07969
-1.22853 -2.97911 -0.172155
-0.014224 -3.31902 -0.399681
0.272655 -3.07186 2.09699
0.427794 -3.61729 1.53494
-1.45101 -1.31393 2.39076
-1.98296 -2.30109 -0.584852
-2.33227 -1.79005 0.952343
-0.236742 -2.14147 2.5076
-1.63464 -2.39799 -1.09373
-0.618289 -2.54897 2.23019
-0.277873 -2.1859 2.48447
0.0820331 -2.99667 -0.975939
0.0292536 -3.55956 0.0834763
-2.08667 -2.27237 0.2906
-2.85327 -1.60227 -0.796252
-1.83391 -2.30902 1.16354
-0.680687 -3.4322 0.212364
-1.18666 -3.12656 0.267241
0.416557 -3.7073 0.628054
-1.30202 -3.02435 0.965976
-2.49216 -1.74165 0.630596
-0.508749 -3.61395 0.577641
-0.615313 -3.36212 -0.0488915
-1.18776 -3.08919 1.15042
-0.92738 -3.13895 1.55494
-1.59204 -1.71344 2.05715
-0.319635 -2.94927 -1.01572
-1.24772 -2.55811 -1.20572
-2.96377 -1.52761 -1.4742
-0.744544 -3.02586 1.85692
-0.956226 -3.34997 0.566144
-1.10043 -1.66444 2.41618
0.231384 -3.74094 0.613832
0.0619752 -3.65478 1.58805
-0.219938 -2.53232 2.354
-0.521535 -2.21286 2.41735
0.31268 -3.2618 1.96336
-0.59123 -2.98584 1.98883
-1.90748 -2.43647 -0.162048
-1.60521 -2.12637 1.73948
-0.902517 -2.96406 -0.659734
-0.087464 -3.7789 0.802759
-2.26216 -1.71836 1.21502
-1.01822 -2.25536 2.16941
-1.93776 -1.7545 1.66523
-0.227988 -3.61655 1.56333
-1.71194 -2.45266 -0.774816
0.416514 -3.74687 1.15031
-0.940607 -3.27675 1.29756
0.0647923 -3.217 -0.587736
-2.21615 -2.07747 0.576879
0.065044 -3.73155 0.54221
-0.529767 -2.99965 2.01211
-2.49189 -1.68192 0.778844
-2.57929 -1.56222 0.817658
-0.114799 -3.72539 0.56704
-0.0346085 -3.15087 2.0614
0.574335 -2.29832 2.39245
-2.71396 -0.303155 2.17928
-0.91472 -3.32194 1.24372
0.512648 -3.65749 1.36941
-2.74471 -0.784371 1.65519
-0.21759 -3.62697 1.55154
-2.49868 -1.06424 1.64325
-0.326397 -3.28432 -0.396314
-2.07084 -2.08743 -1.25087
-1.11708 -2.70448 1.78938
-0.909955 -3.16669 -0.188993
-0.194151 -2.37468 2.42315
-1.28176 -1.69859 2.29558
-0.558191 -2.39989 2.32453
-0.605227 -2.37556 2.31833
-0.210957 -3.12973 2.04555
-2.00268 -1.64862 1.68222
-2.17534 -2.18781 0.177381
-0.836489 -3.41822 0.483444
-0.927293 -1.7822 2.44654
-1.02769 -2.77072 -0.954173
0.245095 -3.69673 0.466325
-0.195728 -3.28475 1.9389
