ply
format ascii 1.0
comment Created by Open3D
element vertex 400
property double x
property double y
property double z
end_header
1.5602 1.45265 -2.53469
1.2631 2.84726 -0.757813
1.88625 1.5666 -2.24314
2.54495 1.54214 -1.22144
1.01843 1.82028 -2.3358
1.37899 1.65045 -2.39428
2.68949 1.20395 -1.80442
1.52755 1.90588 -2.01244
1.17019 2.89405 -0.798338
1.46212 2.98318 -0.229053
1.78068 1.17865 -2.71953
2.0173 1.77484 -1.78556
2.06636 2.09585 -0.959657
1.36679 2.66272 -0.938338
1.65374 2.32966 -1.17602
1.62967 1.00771 -2.88529
1.76945 1.30441 -2.6073
1.78346 2.55107 -0.466726
2.56649 1.01361 -2.39999
2.13526 2.08457 -0.8084
1.57292 1.99173 -1.85521
1.50527 2.17984 -1.6157
1.64878 2.36293 -1.11678
2.09537 1.67348 -1.87904
2.51328 1.09472 -2.34832
1.37099 2.04148 -1.92506
2.55476 1.53429 -1.20904
0.731233 2.73436 -1.42469
2.12605 1.91878 -1.29257
0.655799 2.65266 -1.57167
1.25876 1.48733 -2.58492
1.83639 2.17768 -1.2164
2.62313 1.3539 -1.57908
1.52401 2.52824 -0.972406
2.4648 1.50965 -1.59186
2.23971 1.66311 -1.68824
0.992241 2.99075 -0.85485
0.728136 2.58134 -1.6137
2.08314 1.29378 -2.46426
2.62389 1.30395 -1.72424
2.08684 1.98738 -1.2004
0.81936 2.22689 -1.9788
1.69141 2.55644 -0.641261
1.64733 2.25005 -1.33915
1.32763 2.6814 -0.955308
2.75966 1.0818 -1.91345
0.88918 2.3836 -1.76212
2.04923 1.91362 -1.45065
0.401955 2.84889 -1.50016
2.0217 1.88415 -1.55979
1.62936 2.8043 -0.250019
2.56563 1.35318 -1.75123
2.07807 2.11755 -0.87001
1.38818 2.9851 -0.347338
1.80092 2.51148 -0.519674
1.40837 2.10607 -1.80852
1.21509 1.80349 -2.28968
1.1666 1.53564 -2.56282
2.27662 1.45507 -2.05109
2.41787 1.43866 -1.86758
1.97131 2.33227 -0.558671
0.957267 2.09957 -2.06317
2.44742 1.52089 -1.60543
1.31002 1.41822 -2.63326
0.788318 2.26553 -1.94922
1.78423 2.47933 -0.62941
0.631616 2.58556 -1.66331
1.70835 1.74477 -2.11781
1.82268 2.26035 -1.05659
0.834294 2.4779 -1.67738
0.915314 2.44518 -1.67014
2.70379 1.16084 -1.8755
1.67714 1.54893 -2.38482
1.55271 2.89053 -0.232504
1.45596 2.61884 -0.898054
1.15762 1.82831 -2.28352
1.92308 1.25825 -2.59062
1.95197 1.03756 -2.78351
1.27679 2.39967 -1.47077
0.837801 2.3152 -1.87025
0.917245 2.63244 -1.42383
0.564731 2.7854 -1.47244
1.02536 2.69896 -1.24365
1.22164 2.25934 -1.72074
1.33692 2.77504 -0.782265
2.36404 1.28443 -2.23379
1.7408 1.60934 -2.27831
1.21608 2.5597 -1.27728
2.01313 1.42209 -2.34924
1.34122 1.6053 -2.45303
0.841273 2.92594 -1.09125
1.62513 2.30775 -1.2575
2.56383 1.42067 -1.56699
1.74039 2.37725 -0.941647
0.890148 2.67143 -1.39188
1.9751 1.40474 -2.39641
1.31231 2.62882 -1.06306
1.53804 1.34531 -2.64238
0.569214 2.36279 -1.93581
1.31506 2.58384 -1.13554
1.04001 2.5932 -1.38282
1.1756 2.5387 -1.34729
2.36283 1.71663 -1.269
1.62347 1.56 -2.39664
2.05138 1.13565 -2.65487
1.15261 2.39373 -1.57989
1.36412 2.67518 -0.91996
1.0689 2.09835 -2.01578
1.12263 2.23599 -1.81582
2.32066 1.783 -1.18844
2.4125 1.23215 -2.25972
1.45356 2.58937 -0.95557
1.87973 2.38257 -0.65273
2.41449 1.60051 -1.46942
0.887872 2.31761 -1.84262
1.33627 1.72574 -2.32925
1.67079 2.3681 -1.07372
1.92165 2.30196 -0.758747
2.66448 1.38454 -1.29397
0.71258 2.21522 -2.03396
2.40464 1.4914 -1.77397
1.77427 1.01109 -2.8541
1.93194 2.13486 -1.14732
0.255499 2.97158 -1.45823
0.645016 2.92687 -1.2499
2.83671 1.07554 -1.6383
2.09315 1.80972 -1.60861
1.50632 1.15449 -2.804
0.804992 2.92997 -1.11759
1.66204 1.00739 -2.87979
0.658663 2.96154 -1.19728
0.533505 2.81389 -1.45932
1.70328 1.61273 -2.29503
2.59179 1.25991 -1.91671
2.05673 1.2662 -2.51298
1.87455 1.89978 -1.72312
2.23056 1.40138 -2.1946
1.56534 2.47611 -1.01384
2.36422 1.11097 -2.47983
1.9149 2.38352 -0.567623
2.33406 1.84825 -0.927569
2.33642 1.0305 -2.59637
2.81503 1.03151 -1.86661
0.85724 2.32008 -1.85505
1.19859 2.7623 -0.974025
2.15731 2.07359 -0.776092
1.70017 2.51248 -0.719722
2.62071 1.43231 -1.31263
1.37265 2.61478 -1.01481
0.738714 2.39099 -1.83081
1.5131 1.00637 -2.90369
2.23048 1.1961 -2.48146
2.50758 1.04968 -2.41903
1.33773 2.02022 -1.97383
2.52716 1.389 -1.75485
1.66757 2.73302 -0.316374
2.59628 1.47249 -1.26578
1.93935 1.00676 -2.81246
2.67035 1.36663 -1.33896
2.14559 1.09234 -2.65043
2.18883 1.38365 -2.26256
2.35315 1.75979 -1.16199
2.64681 1.40107 -1.31421
0.840686 2.32217 -1.86073
1.84727 1.97236 -1.61999
1.31934 1.5005 -2.55894
2.69018 1.30067 -1.50138
0.265101 2.98534 -1.43856
1.814 1.58687 -2.26346
2.41462 1.69701 -1.16528
2.04473 1.21694 -2.57443
1.32433 1.56252 -2.49979
2.28428 1.4466 -2.05645
2.11221 1.32234 -2.40903
1.13174 2.10069 -1.98257
1.48365 1.84148 -2.12484
1.30014 2.16384 -1.80137
1.05203 2.70395 -1.21245
2.22186 1.58486 -1.88075
1.87248 2.15352 -1.20998
1.61922 1.90702 -1.94717
2.05308 1.941 -1.38079
2.18536 1.74314 -1.6026
1.3258 2.50688 -1.2521
1.06015 2.27669 -1.7997
1.40533 2.53143 -1.1211
1.45888 2.93894 -0.310837
1.71771 2.65627 -0.374236
2.4983 1.13456 -2.30677
1.70051 2.69025 -0.337813
1.74959 1.42773 -2.48798
2.36119 1.07466 -2.52686
2.80844 1.04919 -1.84126
0.823051 2.32156 -1.86997
0.731827 2.65123 -1.52677
0.968404 2.46843 -1.60643
0.891626 2.01929 -2.17429
1.68261 1.94792 -1.8328
1.65624 2.61278 -0.587521
2.46653 1.08605 -2.41402
2.22836 1.18331 -2.49858
1.33232 2.2284 -1.685
0.902289 2.48862 -1.62277
2.09648 1.96793 -1.22967
0.981726 2.406 -1.6796
0.624531 2.25412 -2.0264
0.550249 2.71624 -1.56015
2.239 1.7794 -1.4081
2.05622 1.6293 -2.00248
1.00396 1.9008 -2.25934
2.47844 1.55266 -1.42748
0.587132 2.73499 -1.51684
1.48667 2.58385 -0.920052
1.9288 2.358 -0.598884
2.63863 1.17344 -2.00616
1.1348 1.67025 -2.44851
1.92082 2.17017 -1.08478
0.296737 2.91328 -1.49366
0.993061 2.92403 -0.949503
2.16774 1.27377 -2.43076
0.919812 2.74363 -1.2709
1.51239 2.3151 -1.37917
2.57864 1.51294 -1.18462
1.14072 2.12396 -1.94913
1.7298 2.21391 -1.30055
2.09189 1.71202 -1.81028
1.13579 1.71563 -2.40481
0.970596 1.89686 -2.27386
1.71883 2.33707 -1.06352
2.17503 1.81764 -1.44555
1.19618 2.28546 -1.70169
1.20154 2.22127 -1.78677
2.50201 1.60629 -1.15782
1.33766 1.51444 -2.54145
1.23662 2.19527 -1.79971
0.726029 2.19187 -2.05334
0.391949 2.8018 -1.55621
2.05733 1.23125 -2.55197
2.48095 1.4252 -1.77159
2.14731 1.69813 -1.76092
1.42694 2.13823 -1.74696
1.59099 2.54412 -0.840792
0.330042 2.99613 -1.38748
1.40436 1.86491 -2.13719
1.12999 2.91154 -0.818738
1.45637 2.01324 -1.90867
1.93998 1.8021 -1.82641
1.95485 2.10198 -1.18213
1.80715 1.1542 -2.73244
1.08629 2.40472 -1.61233
2.2686 1.08369 -2.58537
0.351128 2.67959 -1.70494
2.31761 1.58089 -1.73436
1.655 2.19614 -1.43092
0.679466 2.69536 -1.5064
2.37659 1.69822 -1.285
0.70372 2.37061 -1.87005
2.2493 1.94662 -0.888119
1.76496 2.55295 -0.502138
1.86892 1.552 -2.27442
1.50151 1.24913 -2.73242
1.03556 2.69637 -1.23833
1.71493 1.10723 -2.79621
2.03345 1.85266 -1.60859
1.60924 2.59903 -0.699703
0.606429 2.79599 -1.43352
1.25085 2.01786 -2.02465
0.798069 2.84496 -1.23438
1.06845 2.27367 -1.79875
0.700616 2.23639 -2.0163
2.73044 1.18475 -1.72604
2.21851 1.41276 -2.18907
1.81811 2.09573 -1.416
0.473634 2.94699 -1.34763
2.26235 1.89851 -1.0019
0.357428 2.84998 -1.52471
2.59204 1.00426 -2.38091
0.374321 2.72249 -1.64912
1.48038 2.75432 -0.609689
2.51107 1.34074 -1.90474
1.46544 2.22954 -1.57139
1.47066 1.50798 -2.50909
0.699237 2.57659 -1.63611
1.45747 1.9229 -2.03282
1.37033 2.72145 -0.830582
1.92952 1.1333 -2.70884
2.19217 1.24342 -2.45109
2.29579 1.37524 -2.1653
0.856165 2.58874 -1.52425
1.26376 2.93866 -0.607214
0.544819 2.8147 -1.45129
1.27638 2.96329 -0.549825
0.983628 1.98675 -2.17633
1.8606 1.83549 -1.852
1.17593 2.88226 -0.809963
1.4285 1.42646 -2.59836
1.45346 2.58135 -0.970419
0.650531 2.92296 -1.25053
2.55783 1.33501 -1.81637
1.87401 1.069 -2.78302
1.38585 2.57876 -1.0616
2.04997 1.45 -2.28457
1.87519 2.29302 -0.881013
2.18442 1.04591 -2.67562
1.64579 2.49372 -0.854496
1.622 2.15134 -1.54885
1.69235 1.03863 -2.85226
2.16187 1.46774 -2.15955
1.89012 2.18186 -1.11471
1.84543 1.38847 -2.4871
1.84329 2.38796 -0.719658
0.865258 2.04164 -2.16013
1.33946 2.08474 -1.88561
2.69155 1.14016 -1.95777
1.39515 1.78311 -2.24045
1.62631 1.81177 -2.07893
0.45899 2.51787 -1.82149
2.28456 1.84751 -1.09516
2.2805 1.89078 -0.968913
0.275093 2.80728 -1.61346
1.36648 1.24118 -2.76362
1.70078 1.21613 -2.71081
1.63408 2.4853 -0.890997
2.651 1.10526 -2.11993
2.42989 1.45367 -1.81108
1.60122 1.87513 -2.00653
1.52518 2.70149 -0.637535
1.19668 2.98487 -0.622905
1.86341 2.4576 -0.506345
1.82983 1.78727 -1.9607
1.40069 1.91623 -2.07411
0.508813 2.88473 -1.39455
2.24185 1.88227 -1.11266
0.603403 2.78294 -1.45081
2.52528 1.53528 -1.32539
0.758719 2.82302 -1.29331
1.64141 2.09154 -1.63271
1.30651 2.60396 -1.11143
1.35994 2.52039 -1.19256
1.53904 2.93838 -0.171282
2.35242 1.65037 -1.4888
2.63659 1.30783 -1.67473
1.64588 1.43174 -2.52558
1.17742 1.78259 -2.32476
1.51587 1.67665 -2.31075
2.33304 1.62087 -1.60903
2.06984 1.96086 -1.30168
1.2542 2.2686 -1.68453
1.41508 2.37771 -1.37504
1.32744 2.02766 -1.96996
1.42163 2.16219 -1.71488
1.5452 2.78852 -0.436808
1.23158 2.12071 -1.90305
2.16427 1.12577 -2.60543
1.0817 2.03685 -2.082
2.06755 1.25991 -2.51382
2.65583 1.36875 -1.39956
1.23824 1.51905 -2.56164
1.85843 2.31288 -0.867556
2.42437 1.29235 -2.14415
2.50947 1.33403 -1.92272
2.54187 1.40984 -1.66216
1.62923 1.84409 -2.03152
2.17888 2.00288 -0.928078
2.58891 1.46558 -1.325
1.92829 1.66033 -2.07433
2.21656 1.95557 -0.962252
1.34566 1.47784 -2.57293
2.15863 1.98354 -1.04074
1.37148 2.34126 -1.47754
2.61054 1.01792 -2.3357
1.51018 1.3496 -2.64591
1.14479 2.4647 -1.48355
0.873793 1.99962 -2.20045
1.54784 1.0149 -2.89346
1.18191 2.96084 -0.67936
1.42386 2.31771 -1.46623
0.837441 2.2327 -1.9646
2.09002 1.88264 -1.45045
1.47498 1.56223 -2.4527
1.50477 2.49245 -1.06627
1.65669 1.40696 -2.54678
2.20864 1.16444 -2.53467
1.20162 2.84985 -0.830433
1.52731 1.92407 -1.98718
1.9541 2.25425 -0.806081
1.39277 2.58732 -1.03804
1.80203 1.2311 -2.66545
1.80606 2.35582 -0.870088
1.85876 1.50852 -2.33716
1.13072 1.80612 -2.31573
1.59204 2.66038 -0.60551
2.23454 1.81067 -1.33524
1.04848 2.8418 -1.01277
2.09821 1.02607 -2.73644
2.21334 1.76689 -1.49387
1.62588 1.6848 -2.24682
1.06207 2.55205 -1.42367
1.72874 2.51902 -0.651337
2.36778 1.71265 -1.26658
