ply
format ascii 1.0
comment Created by Open3D
element vertex 400
property double x
property double y
property double z
end_header
-2.41665 0.823838 -1.78568
-2.70585 -0.435412 -1.5393
-2.49837 -0.41867 -1.93664
-2.04985 0.395774 -2.31097
-2.61818 -0.627437 -1.75722
-2.96594 1.6265 -0.877845
-2.62012 -0.541767 -1.73539
-2.91683 0.504016 -1.055
-2.96362 0.171468 -0.90755
-2.67759 1.01567 -1.42474
-3.0257 1.2765 -0.812437
-2.43832 0.658105 -1.799
-2.78166 -1.10916 -1.47621
-2.41035 -0.0061714 -1.98128
-2.61566 -0.655635 -1.76877
-2.52454 -0.661511 -1.95189
-2.06718 0.470305 -2.26685
-2.25554 1.24876 -1.82325
-2.65314 -0.346624 -1.6364
-2.86677 -0.685161 -1.14644
-2.41395 0.870175 -1.77721
-3.10419 0.999415 -0.594111
-2.49409 -0.0290837 -1.8607
-3.01619 0.681909 -0.822167
-2.85352 0.532635 -1.18834
-2.50001 0.421442 -1.76807
-2.80123 -0.519117 -1.32278
-2.68213 -0.265638 -1.56836
-3.12295 0.660328 -0.431236
-2.8928 0.170447 -1.09616
-2.56049 0.51722 -1.66792
-1.94555 0.00880915 -2.57429
-2.9966 0.589052 -0.865605
-2.26417 0.462233 -2.05318
-2.15875 1.37026 -1.86117
-2.82852 1.30999 -1.16072
-2.97761 -0.0147951 -0.834591
-2.82837 -0.0726076 -1.24319
-3.02073 0.934869 -0.828531
-2.93121 1.71063 -0.914968
-3.0413 0.868602 -0.771043
-2.53622 -0.370802 -1.85921
-2.59506 -0.505278 -1.77775
-2.36643 0.802564 -1.84737
-2.42106 1.89142 -1.42498
-2.91313 1.0989 -1.05016
-2.61946 0.225136 -1.62271
-2.4713 -0.440565 -1.98903
-2.60733 0.950016 -1.5289
-3.11519 1.30956 -0.578859
-2.92892 -0.132423 -0.974718
-2.60036 0.313893 -1.64075
-2.66034 0.512854 -1.52289
-2.34828 0.669246 -1.90207
-2.20973 -0.148073 -2.30115
-2.27223 -0.255262 -2.24858
-2.16768 0.0495632 -2.2912
-2.99752 1.83474 -0.764467
-2.41261 0.952615 -1.75762
-2.74427 1.16095 -1.30805
-2.50639 1.59335 -1.46925
-2.0082 0.112254 -2.4602
-2.66005 0.775992 -1.4878
-2.40405 0.613798 -1.85043
-2.77046 1.30913 -1.24386
-2.21903 0.089718 -2.21411
-3.0384 0.953202 -0.78445
-2.40812 1.50882 -1.5925
-3.02305 0.726896 -0.80799
-2.39719 1.43462 -1.6288
-2.60283 0.364103 -1.62996
-3.02524 1.70237 -0.748734
-2.83253 -0.256875 -1.23368
-2.95533 -0.162201 -0.886648
-2.80882 1.57185 -1.13151
-2.26637 -0.0580898 -2.19629
-3.16029 1.57035 -0.408057
-3.16142 1.28359 -0.406876
-2.89824 0.390623 -1.09293
-2.9566 0.0526904 -0.91267
-2.90348 1.50813 -1.00773
-2.82533 0.193368 -1.24929
-2.31664 0.889973 -1.87711
-2.94034 1.0598 -1.00204
-3.02745 1.94886 -0.666144
-2.94422 0.781669 -1.0011
-2.63237 -0.774126 -1.76174
-2.82767 -0.450636 -1.24997
-3.2033 1.36411 -0.141669
-2.47858 -0.183393 -1.91661
-2.82457 0.863986 -1.2244
-2.8111 -0.898895 -1.33973
-2.94805 -0.221349 -0.903145
-2.54884 1.42198 -1.48198
-2.65979 -0.575029 -1.65941
-3.02528 0.0733484 -0.677019
-2.38789 1.19655 -1.71478
-1.85541 -0.0893983 -2.72433
-2.72207 1.38853 -1.29044
-2.72674 1.32919 -1.29806
-2.92978 1.71961 -0.914777
-2.80925 0.584733 -1.26991
-2.47379 1.43101 -1.55614
-3.10555 1.46185 -0.600433
-2.52348 1.77457 -1.38464
-2.16475 1.41339 -1.83902
-2.81547 0.592195 -1.25829
-3.02527 0.236869 -0.718534
-2.18374 1.75659 -1.6738
-2.94068 -0.0807471 -0.944475
-2.9029 0.174665 -1.07154
-2.52261 1.90955 -1.32813
-2.91691 1.33665 -1.01601
-2.59795 0.00734625 -1.6873
-2.16517 1.15748 -1.93626
-2.41776 2.11581 -1.3135
-2.91048 -0.159767 -1.02707
-2.8767 1.54393 -1.04142
-2.90952 0.795385 -1.0728
-2.59891 0.162734 -1.66398
-2.80139 -0.434806 -1.31714
-1.91348 -0.0820717 -2.65163
-2.49682 1.08017 -1.63197
-2.43516 1.23467 -1.65566
-2.6095 0.825686 -1.549
-2.93033 0.861003 -1.02963
-2.96377 0.169918 -0.9069
-3.04251 1.70583 -0.712184
-2.01282 0.131733 -2.4475
-2.72562 1.25679 -1.31496
-2.98336 0.770335 -0.912309
-2.80357 -0.314188 -1.30632
-2.42719 1.42157 -1.60478
-2.22136 2.05995 -1.48857
-3.00006 0.58879 -0.856257
-2.36935 1.36294 -1.67939
-3.19427 1.33391 -0.223389
-3.07549 1.55347 -0.667848
-2.12018 0.623866 -2.16056
-2.4713 1.86697 -1.39304
-2.84614 1.97967 -0.946441
-3.12609 0.845547 -0.478641
-2.18716 1.15944 -1.91605
-3.04416 1.50894 -0.747016
-2.41967 1.99643 -1.37525
-2.84956 -0.586268 -1.19413
-2.36384 -0.248237 -2.1111
-2.81217 -0.910561 -1.33866
-1.94305 0.250264 -2.47928
-2.89524 1.38525 -1.04421
-2.60742 1.41542 -1.42007
-2.33402 0.590577 -1.93853
-2.32048 1.00056 -1.84109
-3.13295 0.861117 -0.451495
-3.04143 0.199803 -0.64643
-2.0023 0.00817214 -2.50752
-2.53394 -0.240175 -1.83671
-2.76041 2.07395 -1.01061
-3.13899 0.937895 -0.444862
-2.70519 0.142007 -1.4857
-2.31427 0.353729 -2.0225
-3.16178 0.835738 -0.268955
-2.96829 0.962953 -0.949008
-2.58831 0.340921 -1.65519
-2.29777 1.13257 -1.82286
-2.66095 -0.862592 -1.72053
-2.47121 -0.0622564 -1.90268
-3.16665 1.59469 -0.378429
-2.09447 1.20722 -1.97835
-2.0064 -0.256352 -2.61263
-2.46059 -0.14862 -1.93756
-2.48952 1.30276 -1.57955
-2.41064 -0.294287 -2.05111
-3.12771 0.777645 -0.450314
-2.34147 -0.33572 -2.17051
-2.41613 -0.52097 -2.106
-2.80211 1.97594 -1.00469
-2.93935 1.47528 -0.954898
-3.1317 1.13305 -0.512419
-3.04568 1.12323 -0.770584
-2.68789 -0.773035 -1.63608
-2.44092 -0.156225 -1.9699
-2.60583 -0.337865 -1.72604
-2.37612 -0.192941 -2.07765
-2.18661 1.43645 -1.8119
-3.00877 0.974162 -0.858477
-2.59997 -0.104156 -1.69996
-2.52017 1.97755 -1.29891
-2.09043 1.01239 -2.05508
-2.79116 -0.583964 -1.35407
-2.18631 -0.254509 -2.36992
-2.69151 -0.610216 -1.59633
-3.15236 1.49662 -0.446128
-2.99895 1.41121 -0.855104
-2.3765 0.491605 -1.91241
-1.85155 0.00435537 -2.68513
-2.96652 0.0963457 -0.888374
-2.58601 -0.508244 -1.79595
-2.84185 -0.376099 -1.21053
-2.2503 2.02283 -1.4894
-2.8194 0.681624 -1.24636
-2.92563 1.79323 -0.899581
-2.69595 1.3368 -1.33555
-2.82993 -0.672549 -1.25623
-2.43381 1.81499 -1.44858
-3.13276 1.03933 -0.494374
-2.27039 0.411018 -2.05999
-1.9933 -0.146198 -2.58172
-2.05862 1.07472 -2.05965
-2.62318 0.116901 -1.63043
-3.0151 1.8924 -0.71176
-2.58711 0.22914 -1.67322
-1.97657 -0.253918 -2.65037
-2.58744 -0.335302 -1.75975
-3.10234 1.06124 -0.607376
-2.09976 0.946106 -2.07056
-2.59847 0.241775 -1.65372
-2.96728 0.68033 -0.946187
-2.90424 1.53203 -1.00148
-2.51105 -0.654558 -1.97556
-3.00905 0.384275 -0.802347
-3.16484 1.52276 -0.394155
-2.22424 0.351046 -2.13093
-2.75213 -0.480455 -1.44013
-2.24865 1.08242 -1.88589
-1.98056 0.831374 -2.22073
-2.96361 0.238124 -0.916106
-2.09627 0.439243 -2.24653
-2.52119 1.29216 -1.54907
-2.14312 0.732289 -2.10194
-3.13888 1.22798 -0.494819
-1.98281 0.419102 -2.3728
-2.94091 0.0593762 -0.960032
-2.60708 -0.707152 -1.79899
-3.03229 1.91845 -0.668074
-2.53652 0.554247 -1.69438
-3.10179 1.08925 -0.611704
-2.37555 1.29676 -1.69542
-2.26609 0.737236 -1.97395
-2.26307 1.85848 -1.56565
-1.88841 0.171391 -2.5706
-2.23765 1.38715 -1.78854
-2.45528 0.524498 -1.8067
-2.26406 1.30118 -1.79708
-2.8737 0.215902 -1.14309
-2.08434 1.15057 -2.00873
-2.7863 1.27743 -1.22793
-2.21939 0.342173 -2.13915
-2.79824 0.78996 -1.27481
-3.10936 1.21944 -0.595596
-2.20265 -0.14668 -2.31025
-1.97851 0.642427 -2.29394
-2.87512 0.984745 -1.12744
-2.09796 0.868223 -2.09967
-1.89744 0.291024 -2.51137
-2.75062 0.989216 -1.32641
-2.76805 0.66494 -1.33565
-2.13788 0.257542 -2.25979
-2.67824 -0.759333 -1.65543
-2.53209 1.06449 -1.59567
-2.42844 0.175703 -1.91538
-3.00915 0.891134 -0.855302
-2.83993 -0.405033 -1.21608
-2.7468 1.27995 -1.28198
-2.78905 -0.0263648 -1.33044
-2.1792 1.73796 -1.68601
-2.36797 -0.0991074 -2.0653
-2.53727 1.88441 -1.32577
-3.02931 0.812413 -0.798903
-2.32654 1.14663 -1.79063
-2.89061 1.03098 -1.09629
-2.3994 1.75137 -1.50552
-1.91305 0.343863 -2.47382
-2.24217 2.16519 -1.41201
-2.51766 -0.0862305 -1.8344
-2.35597 0.117021 -2.02806
-2.87613 2.08668 -0.857657
-2.55187 1.01439 -1.58396
-2.97446 1.23815 -0.922456
-2.57188 1.36502 -1.47361
-3.02872 0.775823 -0.797249
-3.18579 1.12451 -0.224648
-2.71893 -0.278134 -1.49439
-3.03653 1.89072 -0.66951
-2.36127 0.551149 -1.91646
-2.74904 0.873605 -1.34413
-2.1405 0.762926 -2.09451
-2.72158 1.37484 -1.29429
-2.63794 1.15936 -1.4476
-2.79176 -0.808415 -1.37985
-2.80834 0.503907 -1.27544
-2.84856 0.27787 -1.19983
-2.46989 0.167665 -1.8585
-2.47182 -0.354448 -1.96663
-2.75414 -0.2435 -1.41624
-3.13498 1.57389 -0.498871
-2.97926 -0.108192 -0.811978
-2.04956 0.446019 -2.29371
-2.36437 0.697096 -1.87668
-2.74197 1.89806 -1.10864
-2.75363 -0.573256 -1.44668
-2.6173 -0.246201 -1.69006
-2.8019 1.87159 -1.04641
-2.45378 1.14118 -1.66289
-2.52928 2.09135 -1.23402
-2.47069 0.744153 -1.74076
-2.62745 1.34964 -1.41497
-2.80301 -0.809637 -1.3486
-2.84975 1.3738 -1.11729
-2.61101 1.02176 -1.51001
-2.47895 1.96194 -1.34255
-2.56979 -0.371368 -1.79884
-2.87382 1.56717 -1.04033
-3.17623 1.32628 -0.338697
-3.02119 0.902414 -0.825986
-2.48221 0.323168 -1.81106
-3.08843 0.50776 -0.542202
-2.05016 0.483654 -2.27995
-2.25817 1.88592 -1.55568
-2.17556 0.558365 -2.12353
-2.39351 0.215605 -1.95429
-2.06299 0.503925 -2.25964
-3.0059 0.886979 -0.863038
-1.85954 -0.202877 -2.77447
-2.94603 0.0747834 -0.946922
-2.5455 0.150008 -1.74959
-2.78756 -0.398542 -1.34917
-3.14345 0.965544 -0.431144
-2.2771 0.965555 -1.89519
-2.75719 -0.0783763 -1.39989
-2.1998 0.0326908 -2.25606
-2.97167 1.50844 -0.891782
-1.99962 -0.261017 -2.62355
-2.17371 1.49367 -1.79887
-3.1625 1.11049 -0.372879
-2.73654 1.80666 -1.14959
-2.32985 1.90184 -1.49349
-2.6093 1.83178 -1.27808
-2.87399 1.94998 -0.920476
-2.6273 -0.252287 -1.67239
-2.32758 0.442908 -1.98363
-2.9381 -0.188277 -0.939957
-2.22914 -0.324345 -2.33406
-2.99227 1.19023 -0.889936
-2.89068 0.70674 -1.11195
-2.58859 -0.0361192 -1.70935
-2.68815 0.210011 -1.50987
-2.66354 -0.68374 -1.67238
-2.41191 0.531122 -1.85977
-2.80641 -1.1135 -1.40302
-3.16518 0.94871 -0.302677
-2.91336 0.0710233 -1.03747
-2.95316 1.80346 -0.851908
-2.35184 -0.38324 -2.16888
-2.51276 0.371389 -1.75964
-2.33383 1.74289 -1.56396
-3.04493 0.762828 -0.750085
-3.12198 1.2639 -0.556394
-3.10651 1.20054 -0.603806
-2.92065 0.458061 -1.04442
-3.05745 0.300307 -0.609795
-3.08798 1.80049 -0.58231
-2.22711 0.15922 -2.1833
-2.29521 1.54775 -1.67738
-3.14644 1.72286 -0.431321
-1.95732 0.488326 -2.37266
-2.4215 1.64827 -1.52818
-2.56216 0.236001 -1.71048
-2.17209 0.0461723 -2.28678
-2.70889 -0.878231 -1.60991
-3.13578 1.42411 -0.509577
-2.72911 1.60041 -1.22568
-2.0991 0.441731 -2.24267
-2.61229 1.47693 -1.397
-3.09343 1.13756 -0.640872
-2.39695 1.26578 -1.68449
-2.58109 0.403434 -1.6566
-2.8317 -0.308987 -1.23624
-2.28235 -0.330895 -2.25827
-2.68299 0.40404 -1.4995
-3.17932 0.946392 -0.179018
-2.69164 0.624715 -1.46147
-2.67062 1.61364 -1.29026
-1.8901 -0.0612224 -2.67011
-2.43976 -0.563352 -2.07815
-2.57444 -0.525652 -1.82199
-2.3592 -0.177732 -2.0988
-2.43443 0.487379 -1.84114
-3.15806 1.33194 -0.425155
-2.50771 -0.594379 -1.96486
-2.16586 0.905284 -2.02286
-2.16431 -0.00951761 -2.31486
-2.40996 -0.133893 -2.01191
-2.71986 -0.770596 -1.55938
-2.72063 0.119766 -1.45916
-2.96221 0.234935 -0.919713
-2.08381 0.888524 -2.10566
-2.64621 0.394818 -1.55916
-2.58869 0.843016 -1.57315
-2.42929 0.546487 -1.83479
