ply
format ascii 1.0
comment Created by Open3D
element vertex 250
property double x
property double y
property double z
end_header
-2.62129 2.12281 0.245805
-2.36985 2.21159 -1.99127
0.379784 2.75382 -1.35674
-0.841786 3.12095 -0.870253
-2.74709 2.33362 -0.264517
-0.734333 3.07047 0.184174
0.669321 2.99806 1.46382
-0.176181 3.10507 -0.192662
-2.55766 2.09347 0.386826
-1.5013 3.14359 -0.624341
-1.91 2.88487 -1.65362
-0.596858 3.13103 -0.314793
-2.19554 3.01927 -0.873472
-1.10874 2.95855 0.418228
-2.3919 2.88335 -0.652639
-2.74038 2.60996 -0.83974
-0.688192 2.98797 0.543944
0.846903 3.07364 0.330185
-0.308934 2.97092 0.794416
0.0451752 2.79302 -1.41516
-2.16951 2.73991 -1.74738
0.572684 3.0724 0.223776
-1.38193 3.0563 -0.0546399
0.144653 3.07863 0.247854
-0.0835352 2.95111 -1.0987
-2.23829 2.79421 -0.166123
-0.837298 2.94912 0.597418
-2.71481 2.45779 -1.51603
0.111029 2.99168 -0.84568
-1.44495 3.1485 -0.87464
-2.643 2.00834 0.329798
-2.59322 2.2349 -1.80665
-2.87307 2.08265 -0.263583
-1.8066 2.41351 -2.11214
-2.34767 2.19013 -2.01309
0.698642 3.01247 1.3874
0.308552 2.81033 -1.26592
-2.08705 2.30809 -2.08957
-1.92874 2.86015 0.0446244
0.125561 3.00565 -0.778137
0.0579771 3.00069 -0.843803
-0.456191 3.07971 0.204798
-2.19862 2.91502 -1.47323
-2.68584 2.6937 -0.959652
-0.265455 2.81495 -1.49782
-2.56939 2.6904 -1.46601
1.07622 2.8179 -0.935414
-2.6304 2.68531 -1.35854
0.12881 3.01143 0.829369
-2.31138 2.85174 -0.403021
-1.76508 2.61437 -1.97571
-0.331236 2.99706 -1.09435
1.12275 2.90345 -0.660267
-2.91783 2.27539 -0.783277
-0.721993 3.13611 -0.606698
1.36314 2.93531 -0.484123
-0.353757 3.0931 -0.667723
-2.54657 2.17334 0.315552
-1.21701 3.03064 -1.37089
-0.645444 3.0919 0.0901997
-0.540589 3.10563 0.00466962
0.376808 3.07617 0.215793
-0.143019 2.94107 -1.15914
-2.68536 2.52512 -0.429347
-2.90196 2.31721 -1.12821
-1.95633 2.51594 -2.01129
-1.55612 3.12298 -1.08487
0.883432 3.07937 0.520163
-2.43974 2.44333 0.141451
-1.12273 3.07594 0.00795838
-1.66171 3.12154 -1.06419
0.315288 2.8508 -1.16715
-2.63458 2.22588 0.103534
0.132029 3.06405 -0.428768
0.291676 2.99923 -0.695646
0.653351 3.01186 1.31711
1.23949 2.90165 -0.63188
-2.28342 2.9874 -0.993383
-1.98664 3.08457 -0.962926
-0.811238 3.12367 -0.16243
-1.02523 2.93955 0.521093
-1.57016 2.73325 -1.88017
-2.50731 2.76156 -0.537852
-0.253728 3.00937 0.652209
-0.509953 3.12442 -0.238782
-2.84631 2.45666 -1.06633
0.384047 3.05117 0.668612
-2.54321 2.25573 0.224169
0.211288 3.01094 -0.695437
-1.58728 3.14252 -0.740368
0.438223 2.75969 -1.321
0.740958 3.06914 0.209836
-2.31401 2.8191 -0.327362
-1.93748 3.09485 -0.857205
-1.91245 2.95228 -1.53953
0.342047 2.99096 -0.70003
-2.13102 2.56392 0.363978
-2.75628 2.24682 -0.167686
-1.2198 2.82062 -1.75454
-1.30785 2.84119 0.590297
-2.1413 3.03857 -1.06089
-2.6789 2.60713 -0.585142
-2.42907 2.83355 -0.569609
-2.28324 2.44462 0.353733
-2.1894 2.83924 -1.61185
-1.2691 2.96385 0.307247
-0.935744 3.02378 0.298688
1.39754 2.93045 -0.495928
0.812977 3.07653 0.485608
-0.156892 3.10372 -0.156512
-0.0803755 2.90786 -1.21542
-1.14444 2.84634 -1.70598
0.00560057 3.08181 -0.385701
-2.36184 2.28577 0.457376
1.19729 3.01309 -0.170628
-1.60791 3.12926 -1.02774
0.841257 3.04813 -0.0302405
-2.77392 2.23959 -0.199388
-2.50879 2.84245 -0.837454
-2.26035 2.82497 -1.58846
0.601878 2.99895 1.34784
-1.86324 2.79309 -1.78434
-0.645242 3.12962 -0.245485
-2.35321 2.90463 -1.33177
0.579197 3.03159 1.03514
1.13488 3.05244 0.077489
-0.215116 2.80994 -1.48759
-0.455136 2.93449 -1.32706
-0.707987 3.08642 0.107983
0.883405 2.91852 -0.697523
0.18889 3.07593 -0.231651
1.03125 3.07743 0.351628
-2.09479 3.01961 -1.26694
1.33099 2.79273 -0.93052
-0.0801165 2.83649 -1.37945
0.155844 3.05676 -0.466535
1.05095 3.00864 -0.232451
-0.136661 3.09852 -0.339379
-2.14679 2.54751 -1.92599
0.645648 3.04549 0.9694
-2.17992 2.36889 -2.02132
-2.89743 2.32394 -1.14323
0.864634 2.80694 -1.03997
-2.23846 2.99331 -0.79393
-2.33736 2.87274 -0.50503
-2.14381 2.29984 -2.07092
-1.65064 2.88716 0.230772
0.160261 3.04994 0.573243
-1.94977 2.63015 -1.92632
-2.13386 2.80824 -0.065592
1.09397 2.88858 -0.719549
-2.11787 2.7436 0.0784822
0.84426 2.94207 -0.62683
-2.81615 2.50275 -1.13021
-2.53596 2.24483 0.248976
-2.65521 2.72929 -1.05202
0.73057 3.07094 0.252551
-1.1412 2.83323 0.723384
-1.5554 2.94404 0.166492
0.93882 3.00211 -0.309398
-1.51692 2.7064 -1.90935
-0.746708 2.98432 -1.33102
-2.13424 2.34326 -2.05378
-2.3422 2.95025 -0.849795
0.0667083 2.98837 -0.886557
0.692017 3.05928 0.844639
0.593258 3.0277 1.08899
-2.06365 2.95907 -1.46518
-2.31524 2.56349 0.139787
0.271001 2.93079 -0.965776
-1.99902 2.89181 -1.61725
0.2648 3.03293 0.761927
-0.237275 3.07538 -0.688129
-2.0992 2.38363 -2.04641
-2.50068 2.07809 -1.94264
-2.37407 2.86308 -1.41294
-2.50789 2.69119 -1.54926
-1.83937 3.10658 -0.724753
0.832673 2.80406 -1.05962
-1.35424 3.0879 -0.164252
0.808019 2.89241 -0.818684
-0.881276 2.83396 0.89361
-2.41447 2.52584 0.059622
-1.30048 3.08025 -1.24562
-1.57665 3.0762 -1.28698
-2.15142 2.19328 -2.11349
-0.116091 3.05851 -0.691014
-0.525985 3.10404 0.0185087
-2.2872 2.97979 -1.11507
-1.5222 3.12503 -0.473851
-2.0127 2.97482 -1.45548
-1.91579 2.49444 -2.03626
-1.34016 3.13679 -0.432003
-2.79698 2.52133 -1.19025
0.300018 3.06398 -0.260215
-2.11607 2.18466 -2.13193
1.37729 2.78085 -0.950741
-2.522 2.67654 -1.55157
-1.07194 3.15354 -0.561528
-0.892204 3.10082 -1.01376
1.74434 2.55022 -1.3964
1.9275 2.47833 -1.52211
1.56343 2.41255 -1.64979
2.19807 2.17318 -2.02617
0.997345 2.68528 -1.27384
1.6106 2.67315 -1.16297
1.19733 2.25559 -1.92584
1.54372 2.62859 -1.26468
1.83714 2.17442 -1.99158
1.22277 2.53185 -1.50527
0.853675 2.36519 -1.84304
1.58001 2.47788 -1.53985
1.77077 2.07559 -2.12152
1.96854 2.12047 -2.07237
1.70131 2.02376 -2.18533
1.97763 2.32139 -1.78189
1.24438 2.38126 -1.74259
1.7344 2.47316 -1.53513
0.953548 2.47472 -1.66144
0.454931 2.69614 -1.44021
1.91839 2.29659 -1.81735
0.462843 2.67278 -1.48022
0.971994 2.39971 -1.76902
2.05813 2.3391 -1.7596
1.45551 1.95086 -2.2727
1.89318 2.21096 -1.94214
1.02029 2.35241 -1.82566
0.904431 2.67121 -1.33154
1.44232 1.99621 -2.22147
2.12384 2.29915 -1.82841
1.6417 2.10453 -2.08398
0.506733 2.71597 -1.3828
1.88392 2.19556 -1.96359
1.89003 2.35813 -1.72149
0.8241 2.66848 -1.36297
1.39275 2.28444 -1.8607
1.72991 2.64894 -1.20293
1.74801 2.18252 -1.97949
1.25755 2.70977 -1.14815
0.954813 2.55864 -1.52442
1.37644 2.17207 -2.01265
1.57361 2.53945 -1.43187
1.46051 2.16283 -2.01747
1.9085 2.06168 -2.14604
1.48791 2.68323 -1.15873
1.45093 2.4748 -1.56153
1.97528 2.55836 -1.37785
1.99062 2.06914 -2.14318
1.46844 2.4141 -1.65827
0.976445 2.62889 -1.39181
