ply
format ascii 1.0
comment Created by Open3D
element vertex 250
property double x
property double y
property double z
end_header
0.195943 -3.05114 -1.4457
2.34535 -2.88913 -0.7904
2.2384 -0.337771 -2.10807
1.77232 -1.5984 -2.3474
0.730244 -3.2381 -1.42956
0.78126 -1.45356 -2.69773
-0.284631 -0.0404989 -3.39065
1.20691 -0.930914 -2.71779
0.0612258 -2.97851 -1.48276
1.47718 -2.23676 -2.31099
2.30728 -2.59785 -1.62255
1.2834 -1.34841 -2.60641
1.59157 -2.8864 -1.95831
0.483354 -1.78308 -2.59696
1.3176 -3.0378 -1.8699
1.36195 -3.31426 -1.47902
0.422164 -1.37908 -2.75996
0.820428 0.0828043 -3.09735
0.224103 -1.00045 -2.91578
2.26928 -0.673317 -2.05004
2.31744 -2.81676 -1.40092
0.88922 -0.185646 -2.99875
0.928266 -2.08446 -2.45907
0.821537 -0.601542 -2.91951
2.01244 -0.828037 -2.27764
0.849624 -2.85409 -1.99435
0.342605 -1.51277 -2.71098
1.94584 -3.27068 -1.10708
1.81101 -0.642436 -2.44646
1.71909 -2.19005 -2.23926
0.0764392 -3.0421 -1.36653
2.15591 -3.10641 -0.828132
0.630898 -3.29922 -1.17412
2.5886 -2.39534 -1.05427
2.36097 -2.863 -0.768011
-0.205084 -0.0176279 -3.38313
2.16465 -0.418134 -2.17604
2.50101 -2.64102 -0.905149
0.708972 -2.56431 -2.1964
1.75417 -0.629923 -2.48622
1.80643 -0.696015 -2.44374
0.795806 -1.18556 -2.77413
2.11689 -2.88017 -1.65077
1.5083 -3.28497 -1.5247
2.31965 -0.982069 -1.97297
1.99351 -3.18488 -1.36809
1.94295 0.333271 -2.46732
1.88457 -3.23991 -1.38814
0.253415 -0.584917 -3.06053
1.08244 -2.94532 -1.94698
2.5333 -2.40024 -1.29427
1.9965 -1.07927 -2.26691
1.71965 0.364996 -2.65257
1.17683 -3.40347 -1.15593
1.54423 -1.47884 -2.48051
1.59223 0.59508 -2.79629
1.62746 -1.11297 -2.50018
0.156005 -2.9891 -1.53263
2.16856 -1.95374 -2.00635
0.886164 -1.37511 -2.7034
0.982344 -1.27908 -2.70853
0.876326 -0.376705 -2.95661
2.05899 -0.884897 -2.23415
0.955705 -3.22925 -1.55895
1.51519 -3.40752 -1.07548
2.51228 -2.5627 -1.15041
1.89479 -2.2973 -2.11746
0.648757 0.121945 -3.1777
0.421562 -2.95584 -1.73997
0.904978 -1.83623 -2.55564
1.86331 -2.39877 -2.10042
2.08669 -0.418782 -2.24924
0.362232 -3.09291 -1.48625
1.44789 -0.628447 -2.66427
1.69322 -0.465073 -2.5458
-0.144564 -0.0632864 -3.34784
1.70539 0.479388 -2.68645
1.68325 -2.96708 -1.86775
1.72028 -2.70212 -2.03168
1.11477 -1.55039 -2.60679
0.389994 -1.69473 -2.63428
2.50555 -2.23757 -1.47872
1.15649 -3.11701 -1.77452
0.376122 -0.9601 -2.91252
1.21969 -1.26049 -2.64624
1.51046 -3.3858 -1.23634
0.445303 -0.351422 -3.09554
0.269581 -3.00833 -1.57599
1.68809 -0.545861 -2.53898
1.57581 -2.323 -2.25023
2.21341 -0.281572 -2.1388
0.919742 -0.0220674 -3.02759
1.00041 -2.9379 -1.94346
1.63032 -2.65411 -2.08913
2.22304 -2.61355 -1.72368
1.70009 -0.41434 -2.54772
0.288217 -2.67983 -1.99571
0.609443 -3.22331 -1.38284
2.45621 -1.91571 -1.67907
0.260932 -1.94298 -2.50759
1.7793 -2.84354 -1.92144
1.12973 -3.24712 -1.57988
1.21908 -3.0595 -1.84584
0.240792 -2.79869 -1.85036
2.22199 -2.85654 -1.53484
0.571203 -1.94285 -2.52755
0.636212 -1.63442 -2.65179
1.60543 0.629298 -2.79521
0.67233 0.0533891 -3.14752
1.17478 -0.910908 -2.73355
2.10735 -0.817599 -2.19772
2.42779 -1.84758 -1.73609
1.39964 -0.754195 -2.66806
0.0816799 -2.8335 -1.72536
1.307 0.423794 -2.94168
1.83777 -2.34751 -2.13206
1.14822 0.0738327 -2.94548
0.634702 -3.23951 -1.36121
1.46372 -3.14617 -1.74184
2.18747 -2.92124 -1.51465
-0.183331 -0.109231 -3.33573
2.40374 -2.53371 -1.50306
1.21277 -1.39312 -2.61907
1.96405 -3.02374 -1.65759
0.117545 -0.147573 -3.24991
1.08136 0.360385 -3.05157
2.31396 -0.931764 -1.98302
2.17932 -1.19045 -2.10068
0.860785 -1.43394 -2.69105
1.73313 0.128251 -2.60087
1.27386 -0.570898 -2.75718
0.822012 0.261206 -3.14861
1.97072 -2.79938 -1.8415
1.95803 0.586555 -2.50176
2.23671 -0.80441 -2.07486
1.48338 -0.604599 -2.64948
1.34714 0.281318 -2.88384
1.34625 -0.894951 -2.66859
2.42213 -2.75276 -1.16772
0.191035 -0.0882916 -3.25382
2.44742 -2.74402 -0.964311
1.532 -3.40517 -1.07727
2.01365 0.127961 -2.37421
1.50371 -2.91956 -1.95345
1.18203 -2.97837 -1.92434
2.47452 -2.69355 -0.891843
0.574731 -2.29621 -2.34748
0.509346 -0.570676 -3.01186
2.47204 -2.58182 -1.28577
0.771886 -2.75354 -2.06545
1.76689 0.339105 -2.6118
0.617157 -2.71845 -2.06108
1.67064 0.0864728 -2.63874
1.58905 -3.36948 -1.26227
0.243513 -2.99799 -1.57643
1.61005 -3.2664 -1.53109
0.879259 -0.0314269 -3.04205
0.152215 -1.77587 -2.58378
0.66452 -2.21942 -2.39728
1.40451 0.172106 -2.82622
2.52966 -2.1802 -1.4556
2.16762 -1.48539 -2.08096
2.47418 -2.69437 -0.939494
1.52998 -3.01118 -1.87189
1.84322 -0.685705 -2.41932
0.317455 -0.0500392 -3.23237
0.0674388 -0.131546 -3.26848
2.13911 -2.7598 -1.72314
0.477354 -2.86438 -1.87585
1.92045 -0.475752 -2.38353
2.26578 -2.68488 -1.6223
0.338734 -0.460099 -3.08591
1.65343 -0.996269 -2.50228
2.48476 -2.67001 -0.986466
2.24045 -2.98222 -0.657614
2.02364 -3.03605 -1.58654
2.07841 -3.12768 -1.35279
1.52126 -2.55827 -2.16805
2.02753 0.097143 -2.35766
1.04446 -2.06825 -2.4551
1.82929 0.0582438 -2.51783
0.0219996 -1.51944 -2.70135
0.528667 -2.9536 -1.79161
2.05893 -2.04336 -2.07756
2.06573 -2.31128 -1.99897
2.47758 -2.67617 -0.778215
1.66383 -0.874743 -2.51236
0.970482 -1.26416 -2.71517
1.79404 -2.97217 -1.81698
1.32791 -2.24847 -2.34276
2.14098 -2.71397 -1.75201
2.53286 -2.51884 -1.13088
1.31284 -2.07368 -2.40798
1.65357 -3.35704 -1.26213
1.30882 -0.461009 -2.76046
2.49583 -2.6403 -0.771567
1.97805 0.633791 -2.49391
2.07407 -3.13786 -1.33557
1.46922 -1.82118 -2.43596
1.89415 -1.64625 -2.26734
2.35758 1.03376 -2.20668
2.47113 1.22546 -2.13682
2.52814 0.884999 -1.95238
2.8695 1.54843 -1.7401
2.20599 0.279927 -2.20982
2.16596 0.880485 -2.37184
2.69294 0.560753 -1.63211
2.23867 0.823732 -2.28075
2.79772 1.19909 -1.67468
2.39558 0.529575 -2.03764
2.61449 0.20312 -1.68608
2.44919 0.888158 -2.0543
2.87858 1.15527 -1.52435
2.86959 1.33744 -1.62572
2.91311 1.0988 -1.43949
2.66669 1.30523 -1.91316
2.56913 0.580751 -1.82147
2.46023 1.03913 -2.08536
2.49263 0.27822 -1.8717
2.30531 -0.253129 -2.0425
2.68494 1.25287 -1.86513
2.33572 -0.240856 -2.00884
2.56998 0.311445 -1.76947
2.6607 1.37958 -1.95472
2.9431 0.875843 -1.28864
2.76999 1.24588 -1.73762
2.61233 0.368247 -1.71696
2.24495 0.191701 -2.15635
2.90902 0.853404 -1.34513
2.71884 1.45115 -1.9084
2.83898 1.02409 -1.53578
2.26403 -0.206177 -2.09214
2.78384 1.24007 -1.71401
2.61292 1.21299 -1.94881
2.26453 0.11363 -2.12522
2.66334 0.744978 -1.72404
2.20835 1.00098 -2.36172
2.7793 1.11102 -1.66687
2.12546 0.529653 -2.33333
2.39292 0.262729 -1.99676
2.76575 0.752393 -1.56454
2.36826 0.869891 -2.14708
2.77642 0.836029 -1.57278
2.91203 1.29154 -1.5331
2.15185 0.759188 -2.35573
2.45417 0.763159 -2.01566
2.36848 1.25621 -2.27105
2.92094 1.36942 -1.55881
2.5261 0.792291 -1.93006
2.295 0.270193 -2.11226
