ply
format ascii 1.0
comment Created by Open3D
element vertex 200
property double x
property double y
property double z
end_header
0.695935 3.0094 0.114901
3.13113 -0.264638 0.309465
2.82971 0.60376 1.95576
2.05689 1.27991 -2.0301
2.63492 -0.0115447 -1.80491
2.98464 -0.0137066 -0.807588
1.68333 1.89836 -1.8505
1.23252 1.95193 -2.56652
2.40569 2.04042 -0.662927
3.35837 1.07111 0.364277
3.19398 1.72462 1.60233
0.626789 3.02215 0.143019
2.28002 0.722298 -2.14495
1.74223 1.36019 -2.51914
3.31428 1.18879 1.45873
2.86421 2.23776 1.50026
2.45402 0.253923 -2.11706
2.65688 0.976256 -1.25624
2.55067 1.4547 -1.0826
1.81298 1.19652 -2.60036
2.71839 -0.597866 -1.7645
1.96103 2.69357 1.08973
1.0313 2.90573 -0.28058
2.91481 1.03679 -0.751318
3.07742 1.19156 1.82441
2.15979 1.6413 -1.47873
2.97889 -0.751727 -0.370141
2.60274 2.50731 0.69649
2.0779 2.45639 -0.378068
2.19028 2.66548 0.563327
3.36619 1.06259 1.26629
2.97472 -0.613226 -0.600059
2.67207 1.29373 -1.0187
1.4113 2.41407 -1.33518
2.07867 1.82691 -1.37654
3.21539 0.151271 0.880664
3.3626 1.45484 1.34457
2.43826 2.57544 1.04345
3.19599 0.651573 1.47226
2.84402 0.0689801 1.70356
2.53912 0.546171 -1.73796
1.98512 2.65906 0.0804463
1.85835 2.58037 -0.359787
2.05887 2.68486 1.02811
2.81045 0.063917 -1.31066
1.4304 1.69721 -2.63345
3.32935 0.980046 1.34259
1.68092 1.76218 -2.05557
0.580926 3.02759 0.204666
3.04797 0.820542 1.78296
1.43219 2.84812 0.680432
2.40127 2.5665 0.4588
3.1532 0.952343 -0.278892
3.14168 -0.213339 0.47936
2.87923 -0.864905 -1.01093
2.60663 0.11908 2.00291
2.98941 0.743802 -0.714928
3.20863 2.00659 0.764537
3.12715 -0.2041 -0.0323415
3.16856 -0.109887 0.198571
3.41706 1.36671 0.779479
1.12574 2.90836 0.565625
1.44441 2.52039 -1.05203
3.30221 1.8294 0.75402
1.90644 2.15204 -1.15413
2.01751 1.78362 -1.51649
1.7255 1.48928 -2.36799
3.2067 0.0780231 0.778395
3.39591 1.41582 0.660003
1.72982 1.77673 -1.95552
3.16118 -0.140793 0.526542
3.40608 1.54724 1.01102
3.19009 0.308935 1.20707
3.17362 -0.0182132 0.0340497
2.6813 0.803312 -1.3113
3.32677 1.54499 0.467636
2.38343 1.21034 -1.55107
1.52119 1.50269 -2.78207
3.04288 -0.515451 -0.203007
2.44144 2.55568 0.500362
1.68191 1.70457 -2.13788
2.99424 0.368279 1.65761
3.2552 1.8177 0.547385
2.63274 2.50436 0.943363
3.34115 1.62007 1.34736
3.32669 1.55973 1.41753
3.38932 1.61352 0.87451
2.12378 0.860084 -2.34084
2.9926 -0.385112 -0.666339
2.84643 2.38075 0.835528
2.56587 0.304128 -1.81833
1.42806 2.82701 -0.0249886
1.33268 1.63118 -3.02716
3.35784 1.05485 0.360963
2.22554 2.65132 0.967132
2.36455 0.950028 -1.79497
3.0215 0.461271 -0.698185
2.84605 -0.434533 -1.25628
2.82993 0.143877 1.76416
2.65572 0.0615235 -1.71733
1.43191 2.84791 0.683161
2.75212 0.635481 -1.25488
1.26137 2.48769 -1.384
3.34386 0.69838 0.394457
3.36786 0.875431 0.43976
1.40485 2.85228 0.684282
3.35775 1.25536 0.402877
2.96553 -0.263905 -0.829307
3.27283 1.9345 0.898882
2.28807 1.55113 -1.38598
2.15058 0.745445 -2.4007
2.78885 1.98202 -0.190909
1.67713 1.72617 -2.1145
2.44652 2.23134 -0.322695
3.28998 1.05157 0.115889
2.93413 -0.114119 -0.96411
3.17865 0.459928 1.37608
2.32764 0.650364 -2.10561
3.19508 1.91586 0.519127
3.39195 0.887844 0.969067
2.19672 2.30424 -0.528131
1.7504 2.79049 0.570143
3.1808 1.01757 1.65985
3.06623 1.80533 1.72129
3.01959 -0.627985 -0.187797
1.81353 2.00138 -1.50825
2.69191 0.600831 -1.39403
3.10378 0.00955103 1.13862
1.38339 2.42526 -1.35018
3.31916 0.473596 0.782422
3.13191 0.0556064 1.10272
1.12312 2.92073 0.383607
2.20735 2.66684 0.833013
2.43409 1.41041 -1.29933
1.60214 1.54569 -2.52714
2.94645 0.894621 -0.752791
2.50883 2.4397 0.205023
2.568 2.13748 -0.302507
2.50867 2.45567 1.41008
3.0285 1.60308 -0.182715
2.50924 0.759867 -1.66378
2.79719 2.35536 0.530232
2.26174 2.55828 0.156826
3.14648 1.54174 0.000576077
3.34507 1.33726 0.391303
3.09324 -0.118004 -0.346832
1.232 2.88343 -0.00616121
1.2458 2.64513 -1.00289
1.14096 1.91667 -2.88364
3.40677 1.06911 0.639691
2.81253 2.13145 0.0615281
3.10604 -0.353358 0.216574
2.59538 2.47821 1.24397
3.27518 1.77559 1.4155
3.22986 0.407801 1.1849
3.20258 0.103135 0.863243
3.18888 1.25109 1.69047
3.4093 0.96402 0.81705
2.1524 1.83829 -1.26056
3.13343 0.400469 -0.381003
1.72221 2.62747 -0.407258
2.87773 2.36473 1.02902
2.79827 0.382064 -1.25304
3.26347 0.261852 0.333079
2.9934 0.142079 -0.790905
3.35407 1.74303 1.13467
1.66523 2.2571 -1.29581
2.88796 2.15052 1.60333
3.25915 1.60689 0.318349
1.5281 2.83858 0.553263
2.56352 1.06914 -1.35843
2.60919 2.50599 1.06529
3.40832 0.963693 0.884203
2.57368 0.619071 -1.62417
2.56321 0.496934 -1.71607
2.6961 2.47341 0.909141
3.33062 1.08038 1.38503
2.78808 0.257092 1.86989
2.77968 -1.34791 -1.63195
3.23936 1.6777 0.332725
2.94326 1.94795 1.74873
2.72817 -0.645908 -1.74018
3.34811 1.75925 1.14223
2.78916 -0.40818 -1.45954
1.85966 2.74113 0.27981
1.26674 2.26005 -1.87029
3.31838 0.842326 0.206815
2.16856 2.47944 -0.203368
3.17056 0.244716 1.1984
3.11913 -0.261866 0.0164491
3.2681 0.303143 0.837902
3.2684 0.285422 0.787619
3.37933 1.06272 1.2144
2.96726 0.0460041 -0.867055
2.34208 1.41265 -1.43847
2.74863 2.24462 0.156097
3.12722 -0.271433 0.410494
1.45581 2.66057 -0.667411
2.46257 2.54007 1.19464
3.39472 1.2506 1.22438
