ply
format ascii 1.0
comment Created by Open3D
element vertex 250
property double x
property double y
property double z
end_header
-3.35459 -0.352478 0.245805
-3.23956 -0.111907 -1.99127
-1.6787 2.21579 -1.35674
-2.80208 1.61161 -0.870253
-3.5926 -0.292368 -0.264517
-2.6904 1.6519 0.184174
-1.64667 2.59323 1.46382
-2.3202 2.07104 -0.192662
-3.28884 -0.32823 0.386826
-3.28443 1.16128 -0.624341
-3.39048 0.689335 -1.65362
-2.63602 1.79193 -0.314793
-3.68743 0.582462 -0.873472
-2.87601 1.30801 0.418228
-3.73016 0.347512 -0.652639
-3.78326 -0.0922184 -0.83974
-2.59944 1.62619 0.543944
-1.57454 2.77224 0.330185
-2.31921 1.88231 0.794416
-1.94302 2.00691 -1.41516
-3.47149 0.403337 -1.74738
-1.76756 2.57746 0.223776
-3.1383 1.18396 -0.0546399
-2.07464 2.27921 0.247854
-2.14582 2.02768 -1.0987
-3.55851 0.393091 -0.166123
-2.6774 1.49328 0.597418
-3.65758 -0.181744 -1.51603
-2.03693 2.19395 -0.84568
-3.24805 1.20459 -0.87464
-3.28899 -0.448776 0.329798
-3.414 -0.253367 -1.80665
-3.50422 -0.558907 -0.263583
-2.98407 0.42915 -2.11214
-3.20871 -0.111396 -2.01309
-1.63612 2.62415 1.3874
-1.76903 2.20538 -1.26592
-3.10783 0.156303 -2.08957
-3.38626 0.658604 0.0446244
-2.03653 2.2141 -0.778137
-2.08081 2.1628 -0.843803
-2.50026 1.85511 0.204798
-3.61589 0.506573 -1.47323
-3.80391 0.00555633 -0.959652
-2.17818 1.80277 -1.49782
-3.71923 0.0855716 -1.46601
-1.23155 2.75356 -0.935414
-3.75878 0.038827 -1.35854
-2.03832 2.22049 0.829369
-3.65088 0.382096 -0.403021
-3.09674 0.600539 -1.97571
-2.35346 1.88502 -1.09435
-1.25914 2.84695 -0.660267
-3.67217 -0.454273 -0.783277
-2.72809 1.70704 -0.606698
-1.11169 3.03946 -0.484123
-2.43729 1.937 -0.667723
-3.33748 -0.263914 0.315552
-3.00354 1.28242 -1.37089
-2.6427 1.7299 0.0901997
-2.57827 1.81376 0.00466962
-1.90874 2.44163 0.215793
-2.18078 1.97852 -1.15914
-3.68437 -0.113313 -0.429347
-3.69051 -0.413478 -1.12821
-3.16237 0.3957 -2.01129
-3.30862 1.10794 -1.08487
-1.55276 2.80212 0.520163
-3.45285 0.00253786 0.141451
-2.96891 1.38113 0.00795838
-3.38227 1.03226 -1.06419
-1.79288 2.23876 -1.16715
-3.43687 -0.288989 0.103534
-2.07325 2.25997 -0.428768
-1.91453 2.32702 -0.695646
-1.66771 2.59169 1.31711
-1.17532 2.92823 -0.63188
-3.72704 0.497792 -0.993383
-3.58589 0.776356 -0.962926
-2.7824 1.63513 -0.16243
-2.80353 1.35363 0.521093
-3.04298 0.822428 -1.88017
-3.72566 0.179783 -0.537852
-2.30736 1.94853 0.652209
-2.56989 1.8487 -0.238782
-3.74976 -0.275527 -1.06633
-1.88594 2.42907 0.668612
-3.39336 -0.203279 0.224169
-1.97965 2.27846 -0.695437
-3.34447 1.09971 -0.740368
-1.64153 2.26127 -1.321
-1.64627 2.69415 0.209836
-3.62966 0.357159 -0.327362
-3.5584 0.818382 -0.857205
-3.43989 0.735268 -1.53953
-1.87306 2.35679 -0.70003
-3.31983 0.306104 0.363978
-3.53773 -0.360248 -0.167686
-2.85701 1.13195 -1.75454
-2.93381 1.08423 0.590297
-3.66272 0.634463 -1.06089
-3.73779 -0.0507475 -0.585142
-3.72123 0.286007 -0.569609
-3.3431 0.114117 0.353733
-3.55579 0.459507 -1.61185
-2.99315 1.19837 0.307247
-2.79981 1.47647 0.298688
-1.08393 3.06035 -0.495928
-1.60057 2.7503 0.485608
-2.3056 2.08372 -0.156512
-2.113 1.99934 -1.21542
-2.82191 1.20342 -1.70598
-2.17521 2.18313 -0.385701
-3.28636 -0.0537853 0.457376
-1.28396 2.97719 -0.170628
-3.34968 1.07575 -1.02774
-1.56049 2.75021 -0.0302405
-3.54509 -0.37783 -0.199388
-3.7839 0.235938 -0.837454
-3.59587 0.39925 -1.58846
-1.69499 2.54617 1.34784
-3.29252 0.657499 -1.78434
-2.66923 1.75672 -0.245485
-3.71785 0.389913 -1.33177
-1.7341 2.55321 1.03514
-1.35592 2.96088 0.077489
-2.13904 1.83482 -1.48759
-2.39683 1.75317 -1.32706
-2.68305 1.68181 0.107983
-1.43905 2.68837 -0.697523
-2.04145 2.30858 -0.231651
-1.44687 2.90527 0.351628
-3.61643 0.653952 -1.26694
-1.0336 2.91591 -0.93052
-2.06235 1.94905 -1.37945
-2.05125 2.27165 -0.466535
-1.38429 2.87057 -0.232451
-2.28762 2.09435 -0.339379
-3.31937 0.28335 -1.92599
-1.69695 2.61003 0.9694
-3.21649 0.13362 -2.02132
-3.69206 -0.405521 -1.14323
-1.37342 2.5962 -1.03997
-3.69942 0.533757 -0.79393
-3.6841 0.378571 -0.50503
-3.14213 0.110327 -2.07092
-3.20871 0.874346 0.230772
-2.04331 2.26995 0.573243
-3.23849 0.481099 -1.92632
-3.49459 0.476863 -0.065592
-1.26898 2.81609 -0.719549
-3.43758 0.442454 0.0784822
-1.48338 2.67734 -0.62683
-3.76103 -0.221604 -1.13021
-3.38053 -0.205866 0.248976
-3.80741 0.0523816 -1.05202
-1.65489 2.68807 0.252551
-2.81034 1.19645 0.723384
-3.18158 0.981919 0.166492
-1.45897 2.78666 -0.309398
-2.98634 0.841093 -1.90935
-2.63823 1.58223 -1.33102
-3.16607 0.147799 -2.05378
-3.74233 0.429957 -0.849795
-2.06593 2.16027 -0.886557
-1.67391 2.65257 0.844639
-1.72141 2.56041 1.08899
-3.5516 0.633155 -1.46518
-3.44978 0.175543 0.139787
-1.88075 2.26401 -0.965776
-3.45834 0.631296 -1.61725
-1.95736 2.33184 0.761927
-2.3424 2.00685 -0.688129
-3.16984 0.201123 -2.04641
-3.23768 -0.298813 -1.94264
-3.70322 0.345782 -1.41294
-3.67631 0.12961 -1.54926
-3.49732 0.896054 -0.724753
-1.39398 2.57156 -1.05962
-3.14107 1.22589 -0.164252
-1.47388 2.6166 -0.818684
-2.62707 1.38075 0.89361
-3.49333 0.0787516 0.059622
-3.09764 1.25849 -1.24562
-3.29006 1.06034 -1.28698
-3.07217 0.0296033 -2.11349
-2.24479 2.08061 -0.691014
-2.56682 1.82296 0.0185087
-3.72432 0.489736 -1.11507
-3.28609 1.13337 -0.473851
-3.52671 0.680321 -1.45548
-3.1185 0.409167 -2.03626
-3.16568 1.27041 -0.432003
-3.76062 -0.194914 -1.19025
-1.95442 2.37871 -0.260215
-3.04108 0.0485018 -2.13193
-0.992466 2.94025 -0.950741
-3.67592 0.109281 -1.55157
-2.98787 1.47191 -0.561528
-2.82349 1.56172 -1.01376
-0.569847 3.03671 -1.3964
-0.389495 3.11539 -1.52211
-0.60042 2.81144 -1.64979
0.0175991 3.09095 -2.02617
-1.19355 2.60401 -1.27384
-0.751336 3.02907 -1.16297
-0.748303 2.44158 -1.92584
-0.767121 2.95027 -1.26468
-0.238495 2.8366 -1.99158
-0.925659 2.65492 -1.50527
-1.06881 2.27609 -1.84304
-0.634888 2.86937 -1.53985
-0.215536 2.71979 -2.12152
-0.107432 2.89136 -2.07237
-0.228006 2.63402 -2.18533
-0.243079 3.03987 -1.78189
-0.803896 2.56371 -1.74259
-0.522381 2.97519 -1.53513
-1.07563 2.42415 -1.66144
-1.58477 2.22814 -1.44021
-0.267423 2.98044 -1.81735
-1.56266 2.21722 -1.48022
-1.00955 2.38415 -1.76902
-0.198678 3.10931 -1.7596
-0.350261 2.40866 -2.2727
-0.224706 2.90206 -1.94214
-0.941952 2.38486 -1.82566
-1.2493 2.52836 -1.33154
-0.391663 2.43141 -2.22147
-0.123963 3.12753 -1.82841
-0.327275 2.64898 -2.08398
-1.56217 2.2788 -1.3828
-0.220359 2.88463 -1.96359
-0.330993 3.00391 -1.72149
-1.30417 2.46962 -1.36297
-0.630521 2.60017 -1.8607
-0.649853 3.09631 -1.20293
-0.307249 2.7793 -1.97949
-1.02688 2.80532 -1.14815
-1.13408 2.48439 -1.52442
-0.562595 2.50918 -2.01265
-0.682948 2.90837 -1.43187
-0.49661 2.56209 -2.01747
-0.108316 2.80734 -2.14604
-0.845217 2.94944 -1.15873
-0.723988 2.77591 -1.56153
-0.4123 3.20577 -1.37785
-0.0555218 2.87068 -2.14318
-0.668683 2.74537 -1.65827
-1.16846 2.54936 -1.39181
