ply
format ascii 1.0
comment Created by Open3D
element vertex 400
property double x
property double y
property double z
end_header
1.51442 0.539933 2.89553
1.76067 2.26596 1.429
1.2862 0.929308 2.91992
0.428705 1.75221 2.66324
1.94582 0.628448 2.3718
1.67469 0.659398 2.6681
0.408786 1.29386 3.17767
1.59011 1.10521 2.50315
1.86048 2.23233 1.39196
1.49289 2.72596 1.19584
1.30286 0.364004 3.18213
1.13913 1.37087 2.68903
0.928636 2.03534 2.13972
1.6686 2.09705 1.62997
1.40846 1.88618 2.00094
1.34037 0.0847467 3.19256
1.34128 0.503432 3.09483
1.14551 2.46224 1.59112
0.633483 0.799978 3.51183
0.810585 2.13744 2.08148
1.54951 1.26722 2.42405
1.5966 1.48616 2.20686
1.40484 1.93684 1.95555
1.07516 1.2915 2.81033
0.6916 0.856568 3.43767
1.72058 1.16651 2.33066
0.412045 1.75777 2.66141
2.28021 1.58675 1.52447
0.940042 1.77352 2.41733
2.33365 1.41778 1.57506
1.71478 0.388619 2.71789
1.22986 1.84985 2.15865
0.43533 1.47937 2.97141
1.51194 2.06354 1.76523
0.631015 1.50395 2.86849
0.90026 1.45173 2.77748
2.04608 2.18348 1.30609
2.26807 1.3825 1.65593
1.1054 0.724282 3.2155
0.472206 1.37186 3.07459
0.962068 1.84851 2.32443
2.15437 0.994928 1.9786
1.2826 2.33275 1.64945
1.43694 1.74511 2.11176
1.70988 2.0822 1.61428
0.341844 1.18805 3.30439
2.12193 1.24899 1.87475
1.05384 1.65242 2.47479
2.56357 1.46537 1.345
1.10134 1.56325 2.5325
1.29327 2.67261 1.32892
0.549641 1.36404 3.05248
0.893302 2.10137 2.08461
1.59036 2.63121 1.2272
1.13526 2.41651 1.64091
1.68929 1.28914 2.27469
1.81256 0.737965 2.47825
1.78397 0.387749 2.6371
0.916128 1.14165 3.06015
0.742137 1.29244 3.03027
0.942842 2.35549 1.78897
2.03757 0.93167 2.13577
0.654434 1.49643 2.8658
1.66445 0.341214 2.78832
2.18242 1.02152 1.93573
1.17574 2.33056 1.7067
2.34412 1.31242 1.62276
1.43847 1.02901 2.7055
1.21526 1.98136 2.03595
2.17368 1.3306 1.77602
2.10641 1.35159 1.82819
0.406692 1.23498 3.23805
1.4491 0.741416 2.87224
1.38381 2.70402 1.26234
1.57285 2.13075 1.66454
1.85576 0.729861 2.43325
1.22349 0.555949 3.19167
1.14944 0.317894 3.34849
1.79381 1.59984 1.94282
2.15332 1.12087 1.91488
2.11471 1.60812 1.65539
2.42343 1.51572 1.4405
2.01759 1.79931 1.60443
1.84715 1.34804 2.08058
1.68492 2.23958 1.49849
0.843105 0.973354 3.25116
1.40673 0.869218 2.84194
1.84058 1.77938 1.76307
1.17362 0.837518 3.08466
1.69102 0.579212 2.68294
2.19394 1.94396 1.3665
1.44801 1.81564 2.03833
0.506147 1.50298 2.92093
1.2816 2.08034 1.89649
2.13985 1.63812 1.61364
1.20396 0.782647 3.09113
1.73423 1.98348 1.67964
1.50345 0.399105 2.956
2.35404 0.987446 1.77132
1.73729 1.91681 1.73283
2.00507 1.66227 1.7132
1.88097 1.70929 1.78395
0.666929 1.76075 2.56809
1.48967 0.716504 2.84265
1.10477 0.501282 3.32782
1.90626 1.47898 1.93217
1.66956 2.11372 1.61509
1.9572 1.01031 2.1812
1.92768 1.23449 2.0778
0.694662 1.82688 2.48131
0.794873 0.94765 3.30376
1.58197 2.07995 1.70351
1.07123 2.29823 1.79072
0.659193 1.60427 2.74634
2.11617 1.16142 1.93075
1.71677 0.723795 2.59191
1.37597 1.97303 1.94066
1.04628 2.20919 1.89533
0.29376 1.66427 2.79905
2.22709 0.905705 1.9421
0.739245 1.36991 2.95472
1.25486 0.175037 3.27275
1.11726 1.90188 2.17736
2.70259 1.49986 1.21179
2.37205 1.76717 1.33991
0.161312 1.35973 3.16431
1.0374 1.52193 2.61754
1.46519 0.167507 3.04786
2.2281 1.9155 1.35947
1.32121 0.103457 3.21156
2.36343 1.82482 1.31235
2.45263 1.52681 1.40914
1.43625 0.844498 2.82723
0.553353 1.22843 3.18799
1.12347 0.667212 3.23127
1.26763 1.41906 2.54394
0.972944 1.00891 3.12906
1.47512 2.02662 1.82375
0.84338 0.727768 3.42526
1.01176 2.35904 1.75541
0.603664 2.01016 2.30632
0.858647 0.5987 3.48801
0.255181 1.20359 3.31042
2.13945 1.14164 1.91788
1.84096 2.06552 1.53627
0.77564 2.15686 2.07423
1.28637 2.26681 1.71112
0.358758 1.66683 2.78129
1.67001 2.02785 1.68819
2.23673 1.14464 1.81693
1.40691 0.016313 3.12314
0.971261 0.72028 3.33184
0.697957 0.786515 3.48364
1.74656 1.11046 2.34163
0.596013 1.36833 3.02784
1.25694 2.60814 1.40286
0.375955 1.70646 2.73089
1.14844 0.275333 3.36004
0.300655 1.63205 2.83501
1.02482 0.519978 3.3913
1.01525 0.941527 3.14761
0.648778 1.83994 2.48558
0.324406 1.65701 2.80087
2.15204 1.132 1.91019
1.28103 1.50831 2.45172
1.68081 0.441213 2.74236
0.325312 1.51411 2.96388
2.69768 1.52423 1.20467
1.34681 0.897361 2.8832
0.575295 1.82464 2.53137
1.12535 0.59566 3.26624
1.69259 0.517143 2.70406
0.908986 1.13682 3.06936
1.08344 0.786628 3.197
1.91083 1.06 2.20215
1.62272 0.981528 2.55159
1.78068 1.27945 2.1931
1.99219 1.83177 1.60123
0.950111 1.29122 2.90098
1.19152 1.85402 2.17963
1.51244 1.18449 2.52182
1.03635 1.70864 2.42811
0.941209 1.52396 2.67849
1.73578 1.80949 1.82285
1.97964 1.24009 2.02222
1.64788 1.93211 1.78645
1.50412 2.65217 1.25138
1.20653 2.55 1.47923
0.706492 0.898019 3.3977
1.22095 2.58364 1.44131
1.37875 0.640363 2.99642
0.842737 0.677062 3.45637
0.258299 1.22548 3.28783
2.16505 1.11813 1.90425
2.27217 1.47723 1.59707
2.06445 1.42643 1.82068
2.06919 0.786522 2.16793
1.45248 1.30229 2.48577
1.31315 2.38188 1.58658
0.741698 0.794208 3.45107
0.971833 0.70162 3.34245
1.75206 1.39938 2.13357
2.11996 1.39948 1.78549
0.95813 1.82494 2.35194
2.05023 1.35236 1.88184
2.29484 0.89297 1.87449
2.42562 1.41572 1.49228
0.842772 1.67368 2.57889
1.12522 1.17896 2.86993
1.97176 0.716377 2.3075
0.572417 1.62338 2.7619
2.39878 1.46908 1.48773
1.54375 2.11037 1.70181
1.0024 2.33231 1.78734
0.513515 1.14598 3.28436
1.8379 0.524192 2.53378
1.11652 1.95256 2.12528
2.65846 1.46154 1.266
2.04582 2.08938 1.3736
1.0322 0.769184 3.25163
2.11559 1.76449 1.54907
1.57041 1.70363 2.04464
0.372801 1.76682 2.66103
1.90607 1.09766 2.18485
1.35084 1.7801 2.14278
1.06977 1.35139 2.75925
1.84764 0.578625 2.50358
1.99292 0.689648 2.29418
1.32491 1.98021 1.96742
0.920526 1.65001 2.56013
1.86882 1.36331 2.04911
1.86329 1.27806 2.11305
0.463721 1.80792 2.58789
1.67277 0.468974 2.74295
1.83384 1.27074 2.14701
2.21354 0.886231 1.96531
2.5633 1.39904 1.37756
1.11794 0.623308 3.25927
0.653084 1.36245 3.007
1.00756 1.39395 2.76353
1.67197 1.35195 2.24429
1.42387 2.17406 1.71953
2.6473 1.58987 1.21447
1.68511 0.952275 2.50425
1.90314 2.2144 1.37796
1.64972 1.19743 2.37944
1.2175 1.33106 2.66324
1.09997 1.87268 2.21818
1.27879 0.353497 3.20997
1.96342 1.43737 1.90821
0.924669 0.6079 3.43228
2.57166 1.21785 1.45386
0.826233 1.40948 2.86518
1.44086 1.66495 2.18208
2.31937 1.49244 1.54564
0.655028 1.74662 2.58914
2.25944 1.09311 1.81993
0.695878 2.05706 2.21849
1.1738 2.43662 1.60308
1.30018 0.894681 2.92978
1.49872 0.267817 2.99384
2.00801 1.80524 1.60789
1.32357 0.24229 3.18986
1.0976 1.52246 2.57531
1.38302 2.29256 1.63267
2.39061 1.56352 1.44246
1.81374 1.03994 2.31613
2.22985 1.79353 1.43716
1.97288 1.24258 2.02742
2.23921 0.923524 1.92115
0.335543 1.33995 3.15121
0.98425 1.01369 3.11663
1.28085 1.68296 2.28686
2.52084 1.64684 1.28783
0.712226 1.97267 2.30817
2.59888 1.4316 1.33087
0.604555 0.815683 3.51641
2.56249 1.28769 1.43079
1.51225 2.38294 1.4779
0.644881 1.25121 3.12245
1.6295 1.52355 2.14736
1.58552 0.547089 2.81411
2.29036 1.35349 1.65134
1.64737 1.07202 2.46801
1.65448 2.19423 1.55628
1.19102 0.411706 3.27982
1.00869 0.749774 3.28328
0.907197 1.03769 3.15447
2.16456 1.49647 1.68321
1.74967 2.40622 1.32298
2.44353 1.53706 1.41146
1.73209 2.45864 1.29132
2.0012 0.808492 2.23443
1.29359 1.30219 2.62521
1.85508 2.22105 1.40424
1.59359 0.423734 2.84742
1.58377 2.06681 1.71394
2.36684 1.76685 1.34425
0.573266 1.31472 3.09303
1.2104 0.30139 3.29302
1.66133 1.98558 1.73061
1.14261 0.908003 3.06498
1.12432 2.1185 1.94893
0.985169 0.493971 3.43657
1.36768 2.15897 1.76797
1.48466 1.5578 2.24213
1.31438 0.154467 3.21352
1.03669 1.03901 3.05571
1.1551 1.93051 2.12474
1.30263 0.660961 3.06356
1.12673 2.25036 1.81228
2.09109 0.796223 2.13927
1.74721 1.20106 2.28047
0.439325 1.1731 3.28757
1.6835 0.838197 2.57076
1.50742 1.05481 2.62
2.46165 1.09916 1.61254
0.711689 1.90108 2.38982
0.681191 1.99278 2.29768
2.65423 1.31586 1.33541
1.57622 0.179075 2.92042
1.36495 0.354918 3.11947
1.38583 2.12891 1.7855
0.516004 1.04707 3.37356
0.718498 1.3373 2.99882
1.52857 1.12326 2.55106
1.46642 2.35406 1.52927
1.82373 2.39751 1.28664
1.05925 2.41632 1.67567
1.32923 1.19836 2.68031
1.69169 1.01827 2.45705
2.48268 1.59694 1.34588
0.766369 1.89556 2.372
2.39154 1.54413 1.45255
0.485662 1.68555 2.72284
2.26347 1.72888 1.451
1.47459 1.48329 2.31515
1.74374 1.93882 1.70974
1.69849 1.86588 1.80489
1.39387 2.76163 1.20938
0.735179 1.5988 2.71615
0.443844 1.40571 3.04856
1.45224 0.572544 2.94967
1.83415 0.686813 2.47642
1.58301 0.788134 2.70583
0.784125 1.50813 2.78746
1.00246 1.77062 2.38403
1.81931 1.38898 2.07799
1.66128 1.70131 1.97291
1.75503 1.11251 2.33162
1.67552 1.38227 2.21785
1.41759 2.52598 1.40149
1.8353 1.16383 2.21652
1.01662 0.575458 3.37269
1.94042 0.94012 2.23707
1.11403 0.667756 3.23952
0.339715 1.59599 2.86759
1.73583 0.412434 2.68692
1.14002 2.13089 1.92756
0.773723 1.05394 3.23043
0.649923 1.23668 3.13403
0.557052 1.43676 2.9727
1.50511 1.10282 2.58854
0.790849 2.04165 2.19695
0.404366 1.66828 2.76755
1.24705 1.10101 2.83028
0.755643 2.00995 2.24776
1.65863 0.431356 2.77086
0.843628 1.96152 2.2623
1.70855 1.60249 2.01456
0.582359 0.857197 3.49752
1.52217 0.386448 2.9388
1.91219 1.57343 1.85852
2.07727 0.750615 2.17382
1.39045 0.0448306 3.14047
1.84235 2.34491 1.31612
1.66005 1.61768 2.0436
2.14234 1.01518 1.98134
1.01144 1.65102 2.50349
1.59352 0.615805 2.77729
1.54318 1.98167 1.818
1.43992 0.549825 2.9723
0.9864 0.660367 3.35403
1.82955 2.20074 1.43688
1.59046 1.13059 2.48512
1.01999 2.168 1.95174
1.65215 2.00688 1.71884
1.30223 0.438809 3.15898
1.19783 2.1338 1.89232
1.30588 0.827485 2.96696
1.86963 0.684614 2.43701
1.38791 2.37444 1.5539
0.830688 1.72999 2.52422
1.9916 2.02731 1.45752
1.04466 0.406424 3.41861
0.889646 1.60911 2.62139
1.5018 0.880864 2.73841
1.98537 1.62377 1.75769
1.24251 2.31992 1.68297
0.660431 1.76162 2.56988
