ply
format ascii 1.0
comment Created by Open3D
element vertex 250
property double x
property double y
property double z
end_header
-1.68941 2.18136 1.95589
0.0605587 1.83506 3.33187
-0.535814 -0.942087 2.89722
-1.24687 0.20552 3.09989
-1.41985 2.24618 2.44968
-2.04734 0.148612 2.40568
-2.90391 -1.16788 1.33511
-1.72049 -0.419614 2.56388
-1.77875 2.12966 1.83697
-1.51233 0.857577 3.08274
-0.57238 1.26935 3.57298
-1.67451 -0.0161888 2.73029
-1.29847 1.55311 3.25595
-2.19856 0.545806 2.2418
-1.40967 1.7796 3.05069
-1.12658 2.1662 3.01083
-2.28057 0.132198 2.11636
-2.03117 -1.39836 2.04756
-2.43762 -0.227508 1.88656
-0.541184 -0.623264 3.02065
-0.432974 1.54788 3.56144
-1.96897 -1.13295 2.15806
-1.90367 0.777975 2.65037
-2.02825 -0.713182 2.22214
-0.89882 -0.515043 2.9749
-1.73074 1.66367 2.66118
-2.31257 0.287832 2.07953
-0.494667 2.14477 3.29613
-1.10809 -0.704265 2.82025
-1.31113 0.792087 3.22792
-1.68962 2.22735 1.81982
-0.119429 2.05671 3.27708
-1.28105 2.41716 2.27545
0.0837921 1.23976 3.46496
0.0926648 1.81653 3.32452
-2.84918 -1.2022 1.38739
-0.648038 -0.879474 2.89867
0.105104 1.53569 3.4176
-1.91176 1.35526 2.53198
-1.16902 -0.71866 2.78785
-1.11949 -0.653831 2.83527
-2.04566 -0.125328 2.3525
-0.758634 1.55358 3.5373
-1.07658 2.09246 3.139
-0.514876 -0.325615 3.14114
-0.661412 1.96005 3.42198
-0.850571 -1.62204 2.57281
-0.749148 2.02487 3.36366
-2.45252 -0.663442 1.82158
-1.58271 1.71578 2.86155
-0.141594 1.1662 3.53183
-0.950835 -0.280457 3.05073
-1.11698 -1.67365 2.46532
-0.986329 2.40552 2.74688
-1.45569 0.0948549 2.93198
-1.25592 -1.90904 2.34239
-1.35004 -0.260671 2.87188
-1.76886 2.10108 1.94026
-0.825953 0.572254 3.3964
-1.97776 0.0538605 2.46376
-1.90895 -0.0547956 2.508
-1.98152 -0.941735 2.19957
-0.84972 -0.45701 3.01381
-1.39797 2.1434 2.68761
-0.735285 2.36929 2.98488
-0.0705736 1.37113 3.50963
-1.13786 0.898215 3.3541
-2.1828 -1.42826 1.93106
-1.78276 1.9389 2.23711
-1.94327 0.522221 2.58322
-1.16244 1.00288 3.35868
-0.750353 -0.890059 2.8694
-1.63893 2.1697 2.12429
-1.48169 -0.723087 2.62134
-1.21676 -0.877418 2.70444
-2.79667 -1.16024 1.43715
-1.12859 -1.78682 2.42667
-1.19135 1.64092 3.31866
-1.24857 1.33247 3.32478
-1.80966 0.201226 2.66953
-2.26202 0.471245 2.15054
-0.272295 0.956039 3.53313
-1.43798 1.92007 2.90649
-2.34269 -0.294198 1.99281
-1.7237 -0.0974135 2.66429
-0.863329 2.29068 3.0465
-2.32659 -0.927365 1.90556
-1.74512 2.07887 2.05897
-1.23077 -0.800726 2.72728
-1.42658 0.937871 3.16675
-0.56283 -0.999221 2.87015
-1.94162 -1.298 2.13494
-1.62365 1.72731 2.79093
-1.33475 1.28621 3.2605
-0.703821 1.26327 3.55702
-1.20404 -0.925453 2.69197
-2.00596 1.62144 2.14348
-1.44579 2.27515 2.32525
-0.394888 0.600386 3.46494
-2.28226 0.7697 2.08089
-1.15614 1.4893 3.37474
-1.32244 2.11583 2.84437
-1.44914 1.82855 2.96821
-1.93931 1.79292 2.08302
-0.602073 1.55369 3.56039
-2.12697 0.698073 2.34054
-2.12771 0.35931 2.33492
-1.24068 -1.94232 2.3398
-2.15957 -1.35986 1.96184
-1.74683 -0.43695 2.53768
-0.779692 -0.514311 3.01114
-0.442564 0.523373 3.44267
-1.53737 -0.600768 2.63096
-1.93343 1.90384 1.91035
-1.56627 -1.74935 2.24231
-1.19151 0.949978 3.33343
-1.72931 -1.40135 2.2462
-1.41771 2.29265 2.3418
-1.24791 1.89518 3.15053
-0.618194 1.62687 3.54739
-2.8178 -1.10615 1.41742
-0.409347 1.23592 3.57236
-1.73297 0.0341267 2.69569
-0.878211 1.71249 3.47048
-2.59021 -1.10162 1.63547
-1.79274 -1.68633 2.13394
-0.515747 -0.373693 3.12239
-0.738566 -0.155685 3.16382
-1.99396 0.116929 2.45954
-1.11667 -1.44298 2.54079
-1.64097 -0.773833 2.50182
-2.03485 -1.57919 2.0058
-0.976729 1.4396 3.47633
-0.81775 -1.86713 2.50636
-0.606294 -0.50718 3.05453
-1.44522 -0.746481 2.63435
-1.5268 -1.60718 2.30137
-1.59636 -0.462593 2.64052
-0.1736 1.55525 3.51554
-2.54053 -1.17189 1.67452
0.00645119 1.6179 3.43973
-0.726967 2.36302 2.9984
-0.778719 -1.4162 2.66384
-1.34992 1.60306 3.19512
-1.51625 1.73355 2.94394
0.0903706 1.59365 3.40969
-2.05256 1.08414 2.39274
-2.26891 -0.711046 2.00072
-0.20607 1.3463 3.54612
-1.81033 1.56225 2.59344
-1.06331 -1.64479 2.49449
-1.88502 1.56409 2.4534
-1.1904 -1.40639 2.5232
-0.837486 2.25002 3.11574
-1.75773 2.07473 2.03426
-1.02171 2.05227 3.21717
-1.9776 -1.28656 2.11235
-2.36933 0.612579 1.96565
-2.02733 0.977562 2.45941
-1.47113 -1.49875 2.36205
-0.22846 0.907767 3.52066
-0.790012 0.120916 3.25524
0.0515272 1.57671 3.4315
-1.28847 1.71092 3.2132
-1.07732 -0.661659 2.84998
-2.44547 -1.22461 1.75256
-2.62957 -1.1127 1.59752
-0.779948 1.41312 3.54348
-1.84279 1.794 2.3102
-0.962394 -0.854223 2.81776
-0.613067 1.35675 3.57177
-2.40012 -0.803446 1.85558
-1.31328 -0.372399 2.85033
0.024468 1.53498 3.45244
0.0906265 1.99042 3.22113
-0.790459 1.73779 3.49072
-0.59035 1.89648 3.46224
-1.43893 1.19261 3.17279
-0.764055 -1.38501 2.67896
-1.83294 0.740788 2.73636
-1.01094 -1.36856 2.60657
-2.48327 0.363664 1.81869
-1.76484 1.89552 2.34638
-0.962521 0.649444 3.3738
-0.950623 0.919709 3.4432
0.187417 1.61963 3.35375
-1.29059 -0.488252 2.81806
-1.91779 -0.0683158 2.4959
-1.0902 1.64156 3.38682
-1.62286 0.887164 2.98107
-0.792771 1.36051 3.54111
-0.0343719 1.33447 3.50097
-1.64776 0.707839 2.93359
-0.799166 2.22549 3.16314
-1.60162 -0.881695 2.49061
0.210272 1.58588 3.35208
-0.7906 -1.91108 2.50134
-0.580943 1.91299 3.45466
-1.53183 0.436671 2.97859
-1.1248 0.253482 3.17952
-0.266388 -2.24431 2.52753
-0.107658 -2.41516 2.51588
0.00247877 -2.05019 2.60446
0.499486 -2.64182 2.53593
-0.508329 -1.53215 2.68741
-0.537267 -2.12759 2.50538
0.285205 -1.67154 2.71197
-0.435264 -2.05732 2.54361
0.440524 -2.28656 2.57821
-0.212995 -1.73302 2.66881
0.124437 -1.35188 2.80653
-0.122786 -2.07471 2.58611
0.597549 -2.20761 2.59113
0.548339 -2.40833 2.56233
0.673495 -2.13203 2.60126
0.197463 -2.44438 2.54186
0.0680156 -1.73462 2.69109
-0.110602 -2.22516 2.55298
-0.0772786 -1.46382 2.76498
-0.428416 -1.00805 2.88974
0.235522 -2.38288 2.55416
-0.381898 -1.01289 2.89435
0.0548711 -1.47177 2.76834
0.175944 -2.52589 2.52832
0.765849 -1.8803 2.6396
0.384038 -2.34661 2.56716
0.132405 -1.51234 2.75738
-0.461847 -1.44045 2.7273
0.696767 -1.87401 2.64626
0.260251 -2.5854 2.52743
0.539351 -2.085 2.61325
-0.481614 -1.0605 2.86161
0.409557 -2.33542 2.56971
0.119921 -2.36311 2.5491
-0.442006 -1.36227 2.75798
0.232658 -1.86635 2.66144
-0.480804 -2.24159 2.4901
0.418471 -2.20017 2.59258
-0.600989 -1.78748 2.58579
-0.236555 -1.47581 2.7474
0.419568 -1.83478 2.66848
-0.246191 -2.07604 2.56997
0.436085 -1.91572 2.64971
0.637105 -2.34105 2.57137
-0.557104 -2.00894 2.53181
-0.114645 -1.94826 2.61904
-0.266413 -2.4718 2.48288
0.637342 -2.42294 2.5613
0.000238663 -1.95757 2.62716
-0.382389 -1.50538 2.71832
