ply
format ascii 1.0
comment Created by Open3D
element vertex 250
property double x
property double y
property double z
end_header
0.643871 -3.21487 0.829426
-0.0454604 -3.58075 -1.284
-2.31001 -1.9961 -0.497967
-1.53885 -2.97221 0.0643541
0.501242 -3.5567 0.401056
-1.37649 -2.64255 1.05978
-2.11927 -1.38343 2.27463
-1.88875 -2.37342 0.713529
0.643364 -3.12174 0.9564
-1.01382 -3.37748 0.301076
-0.74982 -3.68264 -0.762209
-1.61679 -2.69883 0.600841
-0.467796 -3.80527 0.0211523
-0.979987 -2.76374 1.24843
-0.191039 -3.7931 0.1916
0.205313 -3.87037 -0.0694044
-1.28649 -2.47717 1.38059
-2.52542 -1.55713 1.21291
-1.50777 -2.1588 1.61837
-2.0978 -2.26002 -0.545165
-0.483001 -3.77242 -0.895974
-2.34188 -1.76193 1.10854
-0.933396 -3.11557 0.822002
-2.02273 -2.04742 1.13002
-2.03992 -2.39226 -0.197504
-0.151466 -3.52448 0.63264
-1.14015 -2.53787 1.41934
0.148672 -3.88699 -0.760554
-2.16009 -2.23792 0.0579432
-1.10872 -3.39597 0.0633795
0.7498 -3.13005 0.876489
0.142567 -3.70785 -1.10231
0.755266 -3.46168 0.32827
-0.617288 -3.37372 -1.33676
-0.0526104 -3.55521 -1.31093
-2.16549 -1.39018 2.20589
-2.275 -2.06492 -0.395233
-0.336951 -3.48123 -1.34791
-0.381776 -3.32027 0.855886
-2.16636 -2.22396 0.12675
-2.12601 -2.27941 0.0619308
-1.58514 -2.45889 1.08439
-0.518472 -3.85912 -0.583093
0.0874303 -3.91888 -0.159489
-1.89724 -2.5007 -0.620374
-0.0979548 -3.94521 -0.644164
-2.78491 -1.48765 -0.070665
-0.0279161 -3.95975 -0.543255
-1.85221 -1.88774 1.66701
-0.181021 -3.66421 0.421991
-0.749159 -3.46056 -1.14768
-1.88415 -2.5897 -0.18199
-2.81929 -1.45969 0.217825
0.562033 -3.73843 -0.113662
-1.58511 -2.84751 0.32194
-2.98331 -1.28467 0.397535
-1.84369 -2.58352 0.253977
0.569954 -3.1863 0.911405
-1.3019 -3.26393 -0.443922
-1.47499 -2.61819 0.976743
-1.57878 -2.57589 0.899686
-2.20021 -1.89723 1.10045
-2.0013 -2.43757 -0.258731
0.300301 -3.68673 0.299247
0.45482 -3.83022 -0.431567
-0.551197 -3.52566 -1.21175
-1.05165 -3.49631 -0.1461
-2.51839 -1.49683 1.39669
0.283532 -3.34412 0.82381
-1.12623 -2.94316 0.889647
-0.968076 -3.56151 -0.127554
-2.28615 -2.06851 -0.288933
0.559636 -3.32721 0.723005
-2.13883 -2.1878 0.478099
-2.26937 -2.09099 0.205152
-2.14542 -1.43481 2.13808
-2.89931 -1.3744 0.245393
-0.405996 -3.8665 -0.103536
-0.682654 -3.73103 -0.0439039
-1.42229 -2.80483 0.742844
-1.00948 -2.67273 1.34204
-0.95095 -3.39498 -1.02028
-0.00461849 -3.75922 0.265281
-1.60169 -2.17924 1.49383
-1.66205 -2.62003 0.672359
0.336782 -3.87948 -0.331512
-2.09942 -1.7793 1.52667
0.496674 -3.26205 0.84783
-2.21701 -2.15303 0.20811
-0.972298 -3.4586 0.189038
-2.35009 -1.9537 -0.461597
-2.46773 -1.65006 1.09559
-0.143167 -3.62677 0.484932
-0.704709 -3.68327 0.0606468
-0.768282 -3.70837 -0.633502
-2.30243 -2.05234 0.198958
0.0213156 -3.17698 1.07415
0.582762 -3.48056 0.468521
-1.24224 -3.19668 -0.871969
-0.722735 -2.77691 1.37756
-0.557789 -3.82221 -0.152207
0.212119 -3.7737 0.173939
-0.115068 -3.76496 0.256351
0.208603 -3.19577 1.02859
-0.504589 -3.82807 -0.737648
-0.886218 -2.89807 1.14248
-1.17409 -2.71979 1.15427
-3.00815 -1.26069 0.3851
-2.47107 -1.54917 1.36224
-1.89503 -2.35195 0.747888
-2.03792 -2.38385 -0.321723
-1.30503 -3.15443 -0.817443
-2.04756 -2.27593 0.523467
0.389073 -3.11319 1.08116
-2.84715 -1.38507 0.718805
-1.00575 -3.52339 -0.0900146
-2.57674 -1.61852 0.860511
0.594175 -3.49386 0.435948
-0.114827 -3.88094 0.00194523
-0.438058 -3.86039 -0.719947
-2.09279 -1.45355 2.16335
-0.75207 -3.61341 -0.913533
-1.56609 -2.71558 0.666383
-0.368688 -3.92529 -0.451936
-2.15904 -1.55777 1.87333
-2.7764 -1.40267 0.967182
-1.92945 -2.46132 -0.611637
-1.79844 -2.67684 -0.423811
-1.42144 -2.65235 0.991684
-2.65833 -1.63827 0.184647
-2.14944 -2.1168 0.670651
-2.66066 -1.43209 1.23598
-0.621339 -3.82094 -0.354545
-2.95735 -1.29836 -0.0712632
-2.02525 -2.36727 -0.499389
-2.15942 -2.17463 0.440027
-2.74779 -1.49272 0.657191
-1.94319 -2.3732 0.57152
-0.412702 -3.65755 -1.12247
-2.23043 -1.5371 1.81497
-0.293075 -3.57233 -1.2657
0.444171 -3.83515 -0.443957
-2.64139 -1.64326 -0.175573
-0.403464 -3.7987 0.0894259
-0.195419 -3.71803 0.330236
-0.28575 -3.50936 -1.3329
-0.568752 -3.11448 1.04406
-1.9512 -1.94807 1.43327
-0.612029 -3.58488 -1.09729
-0.218065 -3.44353 0.733747
-2.80021 -1.48079 0.156552
-0.159998 -3.35643 0.853045
-2.63016 -1.66636 0.258819
0.272208 -3.90564 -0.379063
0.503185 -3.24421 0.868472
0.0235359 -3.94322 -0.23735
-2.45264 -1.64929 1.13691
-0.815085 -2.63184 1.50394
-0.688694 -3.10492 0.999768
-2.67555 -1.57921 0.58077
-0.979228 -3.34637 -1.05555
-1.61417 -2.90812 -0.415474
-0.31716 -3.53034 -1.30383
-0.309965 -3.84909 0.0226694
-2.13316 -2.27378 0.0175122
-2.29857 -1.54219 1.69992
-2.15629 -1.53427 1.92386
-0.645353 -3.79864 -0.561568
0.113927 -3.34697 0.858
-2.26414 -2.11281 -0.0733759
-0.680797 -3.73945 -0.726092
-1.9805 -1.82636 1.60975
-1.92308 -2.49731 0.230234
-0.367514 -3.53416 -1.28481
0.146715 -3.56273 -1.27715
-0.342831 -3.92667 -0.541822
-0.160776 -3.92218 -0.723132
-0.758776 -3.59819 0.191589
-2.61969 -1.6667 -0.195471
-0.995992 -3.14267 0.726462
-2.60973 -1.69552 0.0605238
-0.974945 -2.42281 1.66913
0.195783 -3.40331 0.769588
-1.24653 -3.32876 -0.310312
-1.04678 -3.51918 -0.353247
-0.220579 -3.44739 -1.40456
-2.00302 -2.40488 0.223543
-1.58587 -2.56209 0.912587
-0.422569 -3.8892 -0.222236
-0.956446 -3.34656 0.439573
-0.691366 -3.77378 -0.547325
-0.572606 -3.48848 -1.24156
-1.091 -3.22445 0.484465
0.234138 -3.91872 -0.43099
-2.23015 -2.04 0.640726
-0.245041 -3.42149 -1.42443
-2.98823 -1.26319 -0.0936916
-0.141401 -3.92164 -0.729693
-1.32697 -3.08436 0.367462
-1.5171 -3.02174 -0.0792295
-3.20283 -0.947066 -0.584137
-3.31822 -0.79979 -0.723836
-3.03091 -1.02309 -0.867957
-3.42516 -0.50728 -1.29252
-2.70904 -1.51695 -0.433608
-3.13531 -1.07505 -0.326168
-2.71348 -1.2139 -1.18051
-3.0774 -1.10937 -0.43695
-3.15062 -0.742151 -1.2619
-2.8249 -1.3055 -0.697769
-2.51134 -1.50439 -1.07223
-3.06304 -1.03548 -0.743684
-3.06408 -0.743341 -1.41542
-3.23001 -0.632824 -1.35382
-2.99206 -0.766223 -1.49204
-3.30711 -0.708976 -1.01753
-2.79215 -1.23355 -0.968357
-3.1739 -0.927916 -0.739313
-2.61933 -1.47756 -0.865915
-2.34571 -1.92227 -0.593969
-3.2543 -0.738334 -1.05912
-2.34467 -1.90874 -0.638962
-2.60661 -1.43435 -0.990452
-3.37384 -0.663108 -0.990429
-2.78014 -0.896899 -1.59873
-3.20576 -0.720357 -1.20356
-2.62363 -1.38024 -1.05798
-2.64246 -1.58117 -0.493641
-2.78907 -0.927298 -1.53666
-3.41093 -0.60516 -1.06734
-2.97908 -0.842374 -1.37212
-2.38546 -1.88972 -0.532868
-3.19332 -0.720068 -1.22862
-3.25338 -0.781028 -0.949774
-2.58723 -1.63952 -0.525142
-2.86425 -1.09015 -1.10828
-3.21655 -0.986434 -0.37049
-3.08709 -0.804966 -1.24868
-2.89315 -1.33405 -0.304167
-2.64653 -1.50776 -0.710448
-2.81069 -1.05286 -1.28638
-3.07605 -1.06096 -0.622554
-2.86827 -0.991079 -1.29301
-3.16252 -0.646515 -1.44182
-3.04965 -1.16336 -0.320157
-2.96939 -1.12413 -0.766342
-3.37609 -0.794596 -0.562203
-3.22778 -0.596341 -1.43628
-2.96295 -1.08947 -0.87638
-2.68102 -1.51552 -0.563015
