ply
format ascii 1.0
comment Created by Open3D
element vertex 400
property double x
property double y
property double z
end_header
-0.213546 3.07623 -0.445846
-0.185867 3.01547 0.867773
-0.61567 3.0395 0.74169
-0.936588 2.9631 -0.204768
-0.459949 3.02148 0.997731
1.01309 3.20871 -0.943809
-0.419012 3.02477 0.919418
0.558809 3.09098 0.092309
0.622914 3.00849 0.443884
0.261775 3.14658 -0.511355
1.00874 3.17576 -0.584303
-0.256446 3.07711 -0.283756
-0.265804 2.94996 1.54082
-0.590889 3.0471 0.318341
-0.478011 3.02098 1.0224
-0.677436 3.0339 0.978424
-0.872381 2.96674 -0.265311
-0.213028 3.01972 -0.898318
-0.270645 3.03203 0.755395
0.160582 2.91982 1.20457
-0.195968 3.07648 -0.489628
1.1617 3.09301 -0.267503
-0.455416 3.05493 0.378864
0.847434 3.08543 -0.019016
0.423212 3.1078 0.0295623
-0.26101 3.07965 -0.03729
0.0216222 2.97637 1.00344
-0.179064 3.03462 0.695096
1.22452 2.97792 0.0855796
0.429294 3.0422 0.399534
-0.123933 3.09522 -0.0991732
-1.30577 2.94907 0.10096
0.77819 3.07683 0.0586001
-0.601975 3.02688 -0.177045
-0.259261 2.97386 -1.04436
0.629695 3.1865 -0.716655
0.645021 2.95668 0.636341
0.213585 3.02513 0.594525
0.907317 3.12953 -0.260923
0.986556 3.20994 -1.03844
0.949224 3.10864 -0.183936
-0.520313 3.0401 0.716677
-0.457505 3.0299 0.872025
-0.294471 3.06109 -0.447071
0.363248 3.05599 -1.41371
0.709972 3.17253 -0.477278
-0.131416 3.08017 0.201744
-0.678232 3.03939 0.748208
0.124333 3.12907 -0.481337
1.25728 3.14019 -0.559363
0.473748 2.96795 0.716228
-0.13335 3.08589 0.10938
0.044408 3.1073 -0.048792
-0.382792 3.05342 -0.332022
-0.991093 3.01501 0.357157
-0.944447 3.02637 0.483073
-0.952404 3.00309 0.158946
1.17636 3.20947 -1.11861
-0.159251 3.0776 -0.566001
0.428174 3.16642 -0.616646
0.289941 3.10731 -1.11358
-1.15389 2.96065 0.0343239
0.140013 3.12804 -0.295577
-0.327088 3.06709 -0.257448
0.531976 3.17839 -0.742524
-0.853102 3.01425 0.144638
0.957604 3.12526 -0.267596
0.118689 3.07268 -1.07529
0.873917 3.09078 -0.0582832
0.0641603 3.07063 -1.01232
-0.110459 3.08996 0.0635211
1.16936 3.20587 -0.982687
0.17754 2.99693 0.77332
0.553549 2.9421 0.764229
0.711092 3.19342 -0.967928
-0.853198 3.0241 0.300552
1.48888 3.13148 -0.77268
1.41872 3.08986 -0.497765
0.489586 3.07748 0.190636
0.585642 2.98767 0.555062
0.844079 3.203 -0.865151
0.273484 3.06453 0.338304
-0.320764 3.04627 -0.547534
0.753706 3.16596 -0.426004
1.30249 3.20256 -1.20596
0.686747 3.12807 -0.158693
-0.493997 3.01437 1.14101
0.112971 2.97256 0.955171
1.68436 3.00479 -0.525523
-0.548799 3.04704 0.514491
0.462036 3.14964 -0.300094
-0.0832875 2.93765 1.36691
0.521355 2.93548 0.816605
0.255634 3.1248 -0.940806
-0.344343 3.01577 0.972297
0.82334 2.93149 0.58697
-0.0729959 3.07081 -0.799376
-1.49959 2.93277 0.150447
0.489947 3.172 -0.837433
0.470745 3.1711 -0.780585
0.988311 3.20994 -1.04737
0.346378 3.11843 -0.043312
0.160286 3.09915 -0.979074
1.27253 3.16505 -0.710691
0.415282 3.10612 -1.27036
-0.226832 2.97422 -1.08089
0.361 3.11902 -0.0472001
0.828781 2.97618 0.424381
0.00867056 2.95808 -1.38043
0.517859 2.97044 0.674139
0.455991 3.03913 0.401631
0.496859 3.09689 -1.39149
0.80028 3.19349 -0.69888
-0.250824 3.06221 0.395356
-0.373619 2.98573 -0.850099
0.512985 3.03029 -1.61297
0.413805 2.97439 0.730125
0.812035 3.20223 -0.911045
0.613112 3.13631 -0.190998
-0.191629 3.07413 0.250291
0.0475835 2.98603 0.923614
-1.40916 2.94705 0.168599
0.0183829 3.10534 -0.648627
0.00860472 3.08718 -0.815385
0.0770895 3.12276 -0.364741
0.675886 3.1421 -0.242274
0.62315 3.00807 0.4455
1.20933 3.20285 -0.976334
-1.13607 2.96109 0.0186949
0.437711 3.16799 -0.714049
0.777591 3.11542 -0.125059
0.087968 3.00015 0.810298
0.0951109 3.08231 -0.988809
0.259819 2.94201 -1.63425
0.787684 3.07507 0.0610843
-0.00966317 3.06166 -0.958083
1.60293 3.03352 -0.510843
1.22415 3.18652 -0.815769
-0.719038 2.98132 -0.383468
0.40736 3.07932 -1.37307
0.988068 3.19247 -1.32182
1.2318 3.03143 -0.0978526
-0.34582 2.99468 -0.84352
1.13112 3.19284 -0.792576
0.431302 3.04531 -1.50728
0.136736 2.94346 1.09864
-0.783463 3.03686 0.519387
-0.0847958 2.93632 1.3785
-1.16545 2.93479 -0.116848
0.778464 3.19621 -0.754946
0.333621 3.14289 -0.910819
-0.440102 3.04796 -0.265632
-0.260625 3.04773 -0.647145
1.262 3.02599 -0.107064
0.888448 2.9485 0.474458
-1.22299 2.96403 0.125536
-0.46949 3.04604 0.59438
0.91768 3.16519 -1.44289
1.28961 3.03907 -0.178068
0.00393495 3.07267 0.322805
-0.580007 3.0384 -0.056177
1.42464 2.95561 -0.0488332
0.787536 3.14912 -0.318554
-0.144427 3.08678 0.0783831
-0.222447 3.03856 -0.776497
-0.467877 3.0052 1.23886
-0.509991 3.05153 0.398749
1.52316 3.12565 -0.790043
-0.429425 2.95371 -0.921545
-1.37696 2.98134 0.364345
-0.566217 3.04726 0.473643
0.115438 3.1055 -0.855822
-0.722384 3.04007 0.583946
1.23974 3.0087 -0.0283103
-0.866277 3.03466 0.588823
-0.823401 3.039 0.794239
0.917289 3.18347 -1.33779
0.897358 3.20239 -0.817002
1.2774 3.09521 -0.376565
1.01528 3.14944 -0.426483
-0.361088 2.99909 1.17225
-0.604713 3.04552 0.471267
-0.366594 3.03775 0.722056
-0.73548 3.03871 0.47443
-0.187931 2.9827 -1.09353
0.886115 3.14005 -0.305905
-0.288582 3.05394 0.500728
0.537684 3.09016 -1.45291
-0.54547 2.9601 -0.74732
-0.0259034 2.97391 1.05841
-1.08711 3.01382 0.443103
-0.284797 3.00615 1.02314
1.43432 3.13294 -0.709666
0.993764 3.19398 -0.726166
-0.423129 3.05667 -0.156459
-1.44446 2.9236 0.0654893
0.621827 2.99038 0.519317
-0.477915 3.03084 0.869935
0.171751 2.97586 0.893151
0.263053 2.96169 -1.59161
0.395339 3.12951 -0.130061
1.01779 3.20959 -1.11665
0.426578 3.16468 -0.801062
0.0531828 2.94512 1.16721
0.329821 3.06748 -1.34083
1.26986 3.07337 -0.283958
-0.61775 3.02809 -0.12747
-1.32903 2.97084 0.260169
-0.548332 2.94435 -0.815592
-0.163363 3.07136 0.305137
1.24379 3.20656 -1.16169
-0.188312 3.0784 0.182428
-1.42221 2.97511 0.349032
-0.40313 3.03929 0.71007
1.16498 3.10712 -0.329085
-0.570992 2.96609 -0.683812
-0.163318 3.08021 0.176032
0.718826 3.10546 -0.0478944
0.855733 3.20402 -0.886917
-0.70207 3.03524 0.96493
0.786678 3.02583 0.266968
1.49093 3.12144 -0.723955
-0.714387 3.01538 -0.0919973
-0.0913214 2.9988 0.936979
-0.31123 3.0208 -0.75001
-0.782341 2.92263 -0.625791
0.632273 3.02253 0.378833
-0.8495 2.97687 -0.22533
0.153285 3.11574 -0.833295
-0.631411 2.98748 -0.472921
1.31944 3.10644 -0.463049
-1.01418 2.94021 -0.252911
0.539714 2.99893 0.537804
-0.520606 3.02121 1.06513
1.29545 3.20321 -1.17593
-0.14822 3.09341 -0.14448
1.16804 3.11291 -0.356662
-0.0370616 3.06528 -0.895542
-0.464721 3.02917 -0.428171
0.162712 2.98664 -1.44228
-1.28809 2.92226 -0.0683927
-0.156984 3.00737 -1.03016
-0.288666 3.07587 -0.152766
-0.173692 3.02159 -0.942532
0.391872 3.05602 0.344382
-0.474146 2.95196 -0.874306
0.544893 3.17929 -0.705887
-0.725839 3.01406 -0.0859193
0.388462 3.14154 -0.243208
1.21779 3.13038 -0.477015
-1.00175 3.01372 0.352722
-0.893004 2.92981 -0.456184
0.598096 3.162 -0.388834
-0.616131 2.96771 -0.613981
-1.2035 2.91788 -0.171962
0.372471 3.15587 -0.453379
0.291483 3.12788 -0.140007
-0.887222 2.99241 -0.0429624
-0.37859 3.00253 1.15389
0.0615643 3.115 -0.619486
-0.480897 3.05623 0.158443
0.868242 3.12663 -0.225878
0.1589 2.97275 0.91955
0.481331 3.17297 -0.726089
0.132696 3.04196 0.527656
-0.00848374 2.95759 -1.36552
-0.705207 3.03933 0.384393
0.499292 3.10455 -1.36342
0.905916 3.10411 -0.137234
-0.178263 3.04906 -0.778043
0.643318 3.16642 -0.424652
0.249582 3.05726 -1.29688
-1.1511 2.92016 -0.213133
0.360988 2.9369 -1.71856
-0.436475 3.05353 0.443305
-0.624872 3.04211 0.179988
1.10431 3.18934 -1.40374
0.0680755 3.11869 -0.564875
0.881815 3.18141 -0.576515
0.259074 3.13195 -0.879306
0.897911 3.09742 -0.102119
1.54562 2.99624 -0.312726
-0.102232 3.02721 0.727088
1.28924 3.20348 -1.14853
-0.41866 3.05441 -0.21785
0.327726 3.14646 -0.345714
-0.618612 2.98601 -0.501812
0.48302 3.1715 -0.82502
0.26005 3.1452 -0.66214
-0.103743 2.95445 1.26961
0.321027 3.10858 0.0330071
0.347448 3.072 0.270478
-0.415414 3.06198 0.184826
-0.637346 3.04124 0.669194
-0.0107722 3.02326 0.714188
1.40068 3.1558 -0.795692
0.641725 2.9331 0.729455
-0.909434 2.96158 -0.250404
-0.346807 3.05854 -0.350937
0.781609 3.1727 -1.29351
-0.119425 2.98976 1.02521
-0.307718 3.04298 0.642462
0.855493 3.18886 -1.24408
-0.0124303 3.093 -0.72231
0.625686 3.08216 -1.55004
-0.170419 3.08823 -0.349489
0.330684 3.14781 -0.842106
-0.0722359 2.94825 1.27816
0.692421 3.19225 -0.766059
0.160082 3.13328 -0.546318
0.477691 3.07451 -1.45466
-0.453577 3.03849 0.734453
0.817455 3.20263 -0.933845
1.49435 3.07466 -0.524932
0.901589 3.1239 -0.229371
-0.330407 3.07155 0.0460229
1.07588 2.9816 0.206723
-0.887998 2.96073 -0.284258
0.175848 2.9815 -1.46831
-0.678487 3.00049 -0.301507
-0.5201 3.0517 0.10582
-0.859741 2.96449 -0.297481
0.859112 3.12711 -0.223848
-1.56887 2.94475 0.252748
0.557099 2.99901 0.526259
-0.2923 3.06948 0.23658
0.0229845 2.99555 0.880755
1.31028 3.04008 -0.201405
-0.335379 3.03262 -0.632409
0.0458531 3.04188 0.559303
-0.911951 3.01046 0.188269
0.974294 3.20327 -0.831416
-1.39055 2.98033 0.365517
-0.168392 2.97355 -1.14961
1.40495 3.04843 -0.326839
0.721324 3.17516 -1.21339
0.265681 3.01392 -1.45652
0.559764 3.13448 -1.28806
1.01554 3.19891 -1.28264
-0.289584 3.04179 0.653376
-0.518451 3.04339 -0.132511
0.493654 2.95023 0.777074
-1.05438 3.02222 0.525901
0.905739 3.17334 -0.521441
0.548923 3.12683 -0.116597
-0.284791 3.05889 0.431389
-0.00748068 3.08017 0.249919
-0.380877 3.00953 1.07538
-0.35213 3.06636 -0.17772
-0.193098 2.93386 1.56187
1.42565 2.99192 -0.161048
0.46394 3.01585 0.50843
1.07363 3.21075 -1.11257
-0.872023 3.03574 0.637137
-0.260503 3.07898 0.0150375
0.167607 3.02927 -1.31371
0.942327 3.08576 -0.0787232
1.26814 3.12807 -0.510677
1.20476 3.12929 -0.460841
0.558098 3.08222 0.138798
0.952164 2.95857 0.387634
1.36463 3.19059 -1.03654
-0.80573 3.01592 0.0846504
0.00435974 3.02444 -1.15321
1.50082 3.15363 -0.925519
-1.00841 2.92852 -0.325519
0.214569 3.07235 -1.19599
-0.229802 3.07674 0.164168
-0.94747 3.00415 0.16394
-0.355453 2.98852 1.28202
1.35446 3.1399 -0.653707
0.601408 3.17666 -1.02898
-0.84429 2.97772 -0.22644
0.370909 3.14452 -0.965091
1.1514 3.12743 -0.409262
-0.0256965 3.07354 -0.858937
-0.133299 3.09048 0.0165413
0.161946 2.98988 0.822616
-0.966994 3.02879 0.556576
0.0475216 3.09899 0.0644416
1.53709 2.94183 -0.137184
0.139105 3.11968 -0.139035
0.522865 3.16096 -1.06573
-1.43041 2.93939 0.140093
-0.799421 3.03904 0.844789
-0.50979 3.03144 0.87989
-0.757464 3.03707 0.452546
-0.336876 3.06986 -0.127496
1.41366 3.10321 -0.547557
-0.679415 3.03585 0.908065
-0.510269 2.99269 -0.621229
-0.988916 3.00339 0.211184
-0.649138 3.04337 0.436002
-0.280397 2.98839 1.18914
0.0280892 3.06932 0.351839
0.627754 3.02266 0.381004
-0.622635 2.9616 -0.637825
-0.0225251 3.09608 0.0553349
0.0512926 3.11961 -0.390067
-0.319023 3.07095 -0.184423
