ply
format ascii 1.0
comment Created by Open3D
element vertex 200
property double x
property double y
property double z
end_header
-0.40746 2.02234 2.30177
-3.04196 0.67277 -0.513444
-2.38869 2.41745 -0.804269
-2.25962 -0.426352 2.16855
-2.89782 -0.915251 0.982638
-3.06936 -0.0742195 0.366036
-1.80953 0.0132918 2.56655
-1.48594 -0.597034 3.05805
-2.30173 1.15903 1.93619
-3.14202 1.55797 0.508933
-2.71184 2.88203 0.288292
-0.333674 2.03882 2.29751
-2.54577 -0.807535 1.78549
-2.02828 -0.818322 2.5393
-2.90017 2.47213 -0.0562615
-2.36219 3.04761 0.770791
-2.75153 -1.03342 1.38917
-2.7409 0.107398 1.43742
-2.56609 0.508988 1.71762
-2.12561 -0.966196 2.45533
-3.02259 -1.21908 0.488179
-1.50785 2.83064 1.41504
-0.813536 1.71562 2.44548
-2.90188 0.585339 1.17134
-2.60447 2.71381 -0.265995
-2.23489 0.238637 2.11979
-3.05105 -0.176603 -0.48558
-2.22119 2.53398 1.48028
-1.89561 1.56802 2.1077
-1.82592 2.44725 1.70189
-2.995 2.25656 -0.042552
-3.07481 -0.273458 -0.236346
-2.68789 0.48525 1.54635
-1.40994 0.671926 2.67633
-2.12191 0.414014 2.20894
-2.99089 1.38232 -0.530056
-2.94465 2.55165 0.222748
-1.99421 2.81386 1.33122
-2.82739 2.13874 -0.487927
-2.49164 1.90365 -1.07851
-2.74488 -0.547297 1.38998
-1.70834 2.02882 1.99582
-1.66647 1.61509 2.20354
-1.61522 2.7959 1.44167
-2.9785 -0.452216 0.737936
-1.71331 -0.764327 2.88826
-2.95271 2.25959 -0.152983
-1.85407 -0.228338 2.58194
-0.27758 2.08143 2.26634
-2.61424 2.45386 -0.535391
-1.04626 2.50484 1.80474
-2.0594 2.3464 1.67833
-3.06159 0.947498 0.810125
-3.01868 0.837732 -0.575517
-3.07328 -0.76199 -0.185285
-2.20282 2.12193 -1.2105
-2.99371 0.452324 0.913262
-2.84662 2.4014 1.01797
-3.09181 0.442175 -0.258782
-3.08466 0.686147 -0.324645
-3.10296 2.06924 0.491601
-0.760179 2.39376 1.93335
-1.38462 0.962244 2.5889
-2.95532 2.30477 0.879733
-1.88693 0.749345 2.34004
-2.08968 0.267621 2.26119
-1.97484 -0.626524 2.5515
-3.0062 1.25722 -0.526348
-3.09862 2.00165 0.60361
-1.88359 -0.132514 2.53133
-3.02353 0.921571 -0.546936
-3.03694 2.35549 0.496047
-2.89642 1.72604 -0.600547
-3.11018 0.613907 -0.152521
-2.78904 -0.0343983 1.33201
-3.05294 1.91619 0.825148
-2.50345 -0.0335295 1.81193
-1.84454 -0.979359 2.81966
-3.06498 0.107027 -0.400637
-2.09258 2.37985 1.64315
-1.87412 -0.326714 2.5857
-2.62154 2.07539 -0.817962
-2.94578 2.12804 0.996869
-2.20834 2.73005 1.32781
-2.90908 2.64869 0.353459
-2.88793 2.66447 0.263588
-3.03839 2.28575 0.631849
-2.41449 -0.906996 2.01924
-3.08439 -0.185116 -0.0153199
-2.44714 2.61239 1.28654
-2.80555 -0.749724 1.24471
-1.16555 1.94227 2.21383
-1.69087 -1.12878 3.0769
-3.14346 1.54556 0.498006
-1.79215 2.75977 1.44559
-2.54907 -0.382805 1.7525
-3.04633 0.30226 0.676944
-3.04642 -0.701589 0.306803
-2.461 1.99301 -1.05491
-2.89693 -0.799408 0.987207
-1.04552 2.50678 1.80293
-2.86308 -0.0776082 1.16166
-1.26497 0.649733 2.76998
-3.15425 1.35559 0.194394
-3.15496 1.50138 0.307177
-1.01841 2.50517 1.80674
-3.11911 1.69822 0.632414
-3.07561 -0.244521 0.180578
-2.89259 2.47493 0.877096
-2.35247 0.281045 1.98724
-2.46085 -1.01717 1.96307
-2.60138 1.56376 1.59061
-1.86356 -0.296482 2.58897
-2.26695 1.54589 1.88139
-3.11937 1.34002 0.645822
-3.0553 -0.265707 0.3824
-2.84324 1.94585 -0.581869
-2.59183 -0.810997 1.70269
-2.88331 2.15348 1.09433
-3.08634 1.92541 -0.00329351
-2.05101 1.38252 2.07269
-1.38244 2.44447 1.81363
-2.74907 2.50103 -0.309082
-2.55911 2.99888 0.285499
-3.04906 0.0471035 -0.498585
-1.86957 0.365953 2.43721
-2.83092 -0.218026 1.22028
-2.84895 1.47725 -0.794488
-1.38419 0.661683 2.69534
-3.08226 1.51838 -0.217882
-2.87883 1.48218 -0.737185
-0.787916 2.25897 2.05316
-1.79609 2.66122 1.53957
-2.49279 0.291775 1.81746
-1.87641 -0.739898 2.69705
-2.94526 0.505042 1.05783
-2.21946 2.0932 1.72653
-2.39067 1.52832 1.78995
-2.0103 3.04085 1.01194
-2.86735 1.38845 1.27498
-2.68461 -0.367247 1.51651
-2.45358 2.35024 1.4524
-1.9752 2.08009 1.85921
-2.95676 1.51666 1.11113
-3.1017 1.73585 0.705099
-3.1054 0.242501 0.000857614
-0.965107 1.95374 2.25466
-1.17064 1.03774 2.66593
-1.45373 -0.882271 3.22476
-3.14224 1.78031 0.339328
-2.56842 1.8542 1.55639
-3.04088 0.542612 -0.527113
-2.12211 2.94137 1.12694
-2.81939 2.78242 0.438637
-2.93087 1.77547 -0.509896
-2.98541 1.33753 -0.557406
-2.73188 2.66619 -0.141867
-3.12309 1.85594 0.148486
-2.17331 0.52502 2.14527
-3.10668 0.53388 0.432938
-1.53705 1.58067 2.27474
-2.44588 2.75933 1.15584
-2.92959 -0.219185 0.957003
-3.12303 1.03131 -0.113265
-3.06185 0.0336864 0.47972
-2.94797 2.55917 0.579276
-1.66571 0.65647 2.51815
-2.37516 3.0801 0.638227
-3.00704 1.82428 0.967061
-1.1631 2.41821 1.87034
-2.65899 0.0658584 1.57654
-2.16408 2.82151 1.2564
-3.11058 1.90784 0.107732
-2.75299 -0.408552 1.37808
-2.76893 -0.555191 1.33666
-2.27905 2.69683 1.32148
-2.93812 2.35293 -0.0987327
-2.39209 2.13521 -1.02701
-3.12363 -1.55339 -0.191475
-2.97913 1.87414 1.01551
-2.42159 3.08244 0.387082
-3.03208 -1.22707 0.434876
-2.93944 2.57365 0.587854
-3.02338 -0.854768 0.452573
-1.54388 2.20949 1.94549
-1.37337 0.135891 2.88198
-3.14936 1.29089 0.423236
-1.95252 1.73492 2.01726
-2.8842 1.67717 -0.645741
-3.08044 0.444061 -0.333942
-3.03708 1.44989 -0.385237
-3.04755 1.4002 -0.369014
-3.01682 2.21871 -0.0116203
-3.05748 -0.088043 0.450129
-2.42628 0.167451 1.90663
-2.4798 1.98353 1.59181
-3.02129 0.746614 -0.579688
-1.31763 1.34774 2.46798
-1.99501 2.91496 1.2109
-3.01424 2.34186 0.131431
