ply
format ascii 1.0
comment Created by Open3D
element vertex 400
property double x
property double y
property double z
end_header
-0.976589 3.11831 -0.539933
0.234529 2.25544 -2.26596
-1.15522 2.97418 -0.929308
-1.58006 2.18634 -1.75221
-0.301216 3.05302 -0.628448
-0.702447 3.07082 -0.659398
-1.9579 2.53601 -1.29386
-0.645619 2.89437 -1.10521
0.331291 2.29982 -2.23233
0.210048 1.90122 -2.72596
-1.32885 3.17137 -0.364004
-1.09594 2.70692 -1.37087
-0.856366 2.16966 -2.03534
0.0273172 2.33244 -2.09705
-0.418948 2.41081 -1.88618
-1.3097 3.20527 -0.0847467
-1.23995 3.13681 -0.503432
-0.315092 1.93509 -2.46224
-2.0353 2.93118 -0.799978
-0.898659 2.045 -2.13744
-0.618392 2.80973 -1.26722
-0.431521 2.68945 -1.48616
-0.389408 2.37616 -1.93684
-1.22695 2.74746 -1.2915
-1.94176 2.91983 -0.856568
-0.43139 2.86466 -1.16651
-1.59054 2.17326 -1.75777
0.534392 2.69032 -1.58675
-1.0446 2.37402 -1.77352
0.536404 2.76388 -1.41778
-0.709303 3.13437 -0.388619
-0.656756 2.39604 -1.84985
-1.79328 2.40893 -1.47937
-0.179106 2.31731 -2.06354
-1.58213 2.47452 -1.50395
-1.32739 2.60055 -1.45173
0.523255 2.37035 -2.18348
0.432846 2.77468 -1.3825
-1.49207 3.05534 -0.724282
-1.84016 2.50796 -1.37186
-0.963335 2.32391 -1.84851
0.124289 2.92245 -0.994928
-0.259402 2.07327 -2.33275
-0.47717 2.50931 -1.74511
0.0675967 2.35053 -2.0822
-2.09484 2.57828 -1.18805
0.174782 2.82608 -1.24899
-1.00476 2.49512 -1.65242
0.861661 2.76378 -1.46537
-1.01198 2.56951 -1.56325
-0.0252083 1.85417 -2.67261
-1.76977 2.54708 -1.36404
-0.842382 2.1057 -2.10137
0.256794 1.99232 -2.63121
-0.357549 1.96305 -2.41651
-0.413939 2.80296 -1.28914
-0.470717 3.03406 -0.737965
-0.603251 3.12617 -0.387749
-1.51605 2.81165 -1.14165
-1.61795 2.66749 -1.29244
-0.598303 1.93168 -2.35549
-0.0694375 2.951 -0.93167
-1.56367 2.48918 -1.49643
-0.794695 3.14858 -0.341214
0.174437 2.91197 -1.02152
-0.375444 2.03819 -2.33056
0.510075 2.805 -1.31242
-0.895927 2.93023 -1.02901
-0.580314 2.29895 -1.98136
0.281189 2.79286 -1.3306
0.196734 2.78219 -1.35159
-2.00207 2.57722 -1.23498
-1.00631 3.05565 -0.741416
0.0858908 1.87111 -2.70402
-0.0648375 2.28918 -2.13075
-0.408348 3.03279 -0.729861
-1.39172 3.12199 -0.555949
-1.55496 3.18051 -0.317894
-0.105366 2.6422 -1.59984
0.1686 2.87665 -1.12087
0.324788 2.66586 -1.60812
0.695038 2.73221 -1.51572
0.292152 2.56116 -1.79931
-0.165062 2.77732 -1.34804
0.131828 2.25101 -2.23958
-1.70275 2.89508 -0.973354
-1.01485 3.00427 -0.869218
0.0548062 2.54816 -1.77938
-1.35131 3.01106 -0.837518
-0.70139 3.09286 -0.579212
0.585089 2.51761 -1.94396
-0.417417 2.46522 -1.81564
-1.70751 2.42331 -1.50298
-0.434796 2.24725 -2.08034
0.372089 2.65412 -1.63812
-1.33443 3.03708 -0.782647
0.0386002 2.41397 -1.98348
-1.02711 3.15331 -0.399105
0.412048 2.91707 -0.987446
0.00315416 2.45375 -1.91681
0.206385 2.62922 -1.66227
0.0686069 2.59149 -1.70929
-1.34432 2.2875 -1.76075
-0.956702 3.06341 -0.716504
-1.57193 3.13431 -0.501282
-0.0183205 2.71418 -1.47898
0.0385139 2.3226 -2.11372
-0.158391 2.92629 -1.01031
-0.106151 2.8323 -1.23449
-1.26335 2.24575 -1.82688
-1.77405 2.89817 -0.94765
-0.0859435 2.32318 -2.07995
-0.508755 2.02371 -2.29823
-1.47584 2.40808 -1.60427
0.131114 2.86161 -1.16142
-0.618817 3.0467 -0.723795
-0.399299 2.34521 -1.97303
-0.600371 2.08003 -2.20919
-1.77151 2.18695 -1.66427
0.201518 2.94806 -0.905705
-1.56658 2.61203 -1.36991
-1.42686 3.2015 -0.175037
-0.749601 2.32965 -1.90188
1.05416 2.76788 -1.49986
0.729836 2.62475 -1.76717
-2.12344 2.35157 -1.35973
-1.11733 2.58443 -1.52193
-1.11912 3.19121 -0.167507
0.614215 2.5368 -1.9155
-1.33668 3.20515 -0.103457
0.743228 2.59917 -1.82482
0.737858 2.73068 -1.52681
-0.983574 3.01473 -0.844498
-1.86297 2.64553 -1.22843
-1.49044 3.07926 -0.667212
-0.902487 2.69519 -1.41906
-1.5246 2.90055 -1.00891
-0.246516 2.33266 -2.02662
-1.82566 3.01838 -0.727768
-0.525837 1.95669 -2.35904
-1.20396 2.05767 -2.01016
-1.85924 3.07355 -0.5987
-2.16038 2.52126 -1.20359
0.156674 2.86897 -1.14164
0.215448 2.38806 -2.06552
-0.918242 2.01516 -2.15686
-0.300345 2.11954 -2.26681
-1.71299 2.22035 -1.66683
-0.0128556 2.37461 -2.02785
0.296846 2.86637 -1.14464
-1.21356 3.20323 -0.016313
-1.66918 3.04275 -0.72028
-1.96978 2.95684 -0.786515
-0.420777 2.89079 -1.11046
-1.71956 2.56245 -1.36833
-0.103182 1.88076 -2.60814
-1.66519 2.19687 -1.70646
-1.56384 3.18798 -0.275333
-1.79206 2.21725 -1.63205
-1.67335 3.12267 -0.519978
-1.50781 2.94359 -0.941527
-1.29882 2.21633 -1.83994
-1.75112 2.2099 -1.65701
0.171017 2.87243 -1.132
-0.827803 2.63945 -1.50831
-0.750626 3.12766 -0.441213
-1.86575 2.32581 -1.51411
1.05572 2.75938 -1.52423
-1.08639 2.99107 -0.897361
-1.38315 2.19674 -1.82464
-1.51384 3.10533 -0.59566
-0.715214 3.1089 -0.517143
-1.52762 2.81312 -1.13682
-1.49451 3.02673 -0.786628
-0.205995 2.90832 -1.06
-0.656812 2.95168 -0.981528
-0.291626 2.80989 -1.27945
0.276449 2.54093 -1.83177
-1.37947 2.72313 -1.29122
-0.698701 2.38376 -1.85402
-0.713736 2.85266 -1.18449
-0.984123 2.44974 -1.70864
-1.22844 2.55951 -1.52396
-0.0615696 2.51633 -1.80949
-0.0301105 2.82974 -1.24009
-0.0979859 2.42844 -1.93211
0.178716 1.94843 -2.65217
-0.192829 1.89912 -2.55
-1.90297 2.9021 -0.898019
-0.15582 1.8825 -2.58364
-1.14386 3.09371 -0.640363
-1.84812 3.03993 -0.677062
-2.1422 2.50749 -1.22548
0.184412 2.87743 -1.11813
0.477371 2.73597 -1.47723
0.172375 2.74721 -1.42643
-0.069823 2.99609 -0.786522
-0.730645 2.78476 -1.30229
-0.193341 2.05042 -2.38188
-1.91581 2.96473 -0.794208
-1.67628 3.05066 -0.70162
-0.269772 2.74755 -1.39938
0.236508 2.76157 -1.39948
-0.985573 2.34057 -1.82494
0.119073 2.7804 -1.35236
0.29723 2.94816 -0.89297
0.659974 2.77038 -1.41572
-1.22762 2.41948 -1.67368
-1.2337 2.825 -1.17896
-0.237404 3.02589 -0.716377
-1.5482 2.35772 -1.62338
0.644211 2.74818 -1.46908
-0.111766 2.29496 -2.11037
-0.555035 1.97265 -2.33231
-1.95928 2.6855 -1.14598
-0.492063 3.09124 -0.524192
-0.7133 2.2923 -1.95256
0.984618 2.77501 -1.46154
0.475333 2.4179 -2.08938
-1.56937 3.02912 -0.769184
0.400587 2.5913 -1.76449
-0.335329 2.55623 -1.70363
-1.61802 2.14524 -1.76682
-0.197127 2.89272 -1.09766
-0.559984 2.47036 -1.7801
-1.19464 2.70753 -1.35139
-0.463818 3.07678 -0.578625
-0.213025 3.03144 -0.689648
-0.454326 2.32803 -1.98021
-1.15938 2.4612 -1.65001
-0.127485 2.77039 -1.36331
-0.176607 2.8117 -1.27806
-1.50201 2.15781 -1.80792
-0.756734 3.12238 -0.468974
-0.221445 2.81489 -1.27074
0.175526 2.95489 -0.886231
0.838448 2.78661 -1.39904
-1.51415 3.09516 -0.623308
-1.66447 2.58807 -1.36245
-1.24166 2.66657 -1.39395
-0.404693 2.76921 -1.35195
-0.209066 2.22272 -2.17406
1.01317 2.73068 -1.58987
-0.579222 2.96232 -0.952275
0.37136 2.32009 -2.2144
-0.515988 2.84905 -1.19743
-1.0223 2.7441 -1.33106
-0.790695 2.34629 -1.87268
-1.36555 3.17403 -0.353497
0.0390368 2.73765 -1.43737
-1.77315 3.08083 -0.6079
0.790406 2.84647 -1.21785
-1.44175 2.61022 -1.40948
-0.524119 2.56181 -1.66495
0.547112 2.73298 -1.49244
-1.36762 2.29397 -1.74662
0.31078 2.88455 -1.09311
-1.07665 2.06077 -2.05706
-0.303549 1.96355 -2.43662
-1.1523 2.99103 -0.894681
-1.05721 3.17672 -0.267817
0.282925 2.55682 -1.80524
-1.31967 3.19148 -0.24229
-1.0449 2.59714 -1.52246
-0.176527 2.13242 -2.29256
0.670442 2.71039 -1.56352
-0.355241 2.92026 -1.03994
0.560514 2.59297 -1.79353
-0.0385674 2.82864 -1.24258
0.224902 2.94182 -0.923524
-1.99098 2.46551 -1.33995
-1.50782 2.89976 -1.01369
-0.711359 2.52275 -1.68296
0.871867 2.69313 -1.64684
-1.1285 2.13574 -1.97267
0.896618 2.77875 -1.4316
-2.05899 2.91396 -0.815683
0.800234 2.82368 -1.28769
0.0242919 2.11436 -2.38294
-1.75191 2.66391 -1.25121
-0.366183 2.67064 -1.52355
-0.868746 3.11101 -0.547089
0.451856 2.7872 -1.35349
-0.580282 2.91001 -1.07202
0.0694389 2.27035 -2.19423
-1.477 3.16136 -0.411706
-1.60838 3.03488 -0.749774
-1.58906 2.87203 -1.03769
0.340366 2.72078 -1.49647
0.301717 2.17269 -2.40622
0.729782 2.72589 -1.53706
0.311669 2.13787 -2.45864
-0.164921 2.99504 -0.808492
-0.941599 2.77101 -1.30219
0.318792 2.30469 -2.22105
-0.886595 3.14026 -0.423734
-0.0920436 2.33183 -2.06681
0.723082 2.62414 -1.76685
-1.78174 2.59246 -1.31472
-1.47263 3.1844 -0.30139
-0.0489861 2.39847 -1.98558
-1.35932 2.97521 -0.908003
-0.583087 2.17312 -2.1185
-1.7334 3.12664 -0.493971
-0.283049 2.21724 -2.15897
-0.535615 2.63524 -1.5578
-1.3429 3.20171 -0.154467
-1.42766 2.89376 -1.03901
-0.685638 2.3192 -1.93051
-1.24516 3.08736 -0.660961
-0.48476 2.07819 -2.25036
-0.0340673 2.99132 -0.796223
-0.377071 2.848 -1.20106
-2.01401 2.63531 -1.1731
-0.627387 3.00822 -0.838197
-0.78671 2.91853 -1.05481
0.600412 2.88089 -1.09916
-1.18662 2.1931 -1.90108
-1.14303 2.10638 -1.99278
0.932548 2.8211 -1.31586
-0.950494 3.1796 -0.179075
-1.24063 3.17096 -0.354918
-0.282609 2.24247 -2.12891
-2.0206 2.75034 -1.04707
-1.61243 2.62854 -1.3373
-0.723007 2.88474 -1.12326
-0.0444422 2.11827 -2.35406
0.379783 2.19937 -2.39751
-0.435873 1.93388 -2.41632
-0.95536 2.83517 -1.19836
-0.541192 2.9336 -1.01827
0.803839 2.7072 -1.59694
-1.13535 2.21916 -1.89556
0.663967 2.71818 -1.54413
-1.58192 2.26875 -1.68555
0.574503 2.62653 -1.72888
-0.594363 2.67975 -1.48329
0.0240413 2.44198 -1.93882
-0.075235 2.47726 -1.86588
0.130454 1.84078 -2.76163
-1.40076 2.44046 -1.5988
-1.84181 2.4695 -1.40571
-1.05884 3.11262 -0.572544
-0.454153 3.04803 -0.686813
-0.793956 3.03267 -0.788134
-1.41657 2.52549 -1.50813
-0.976919 2.39461 -1.77062
-0.182916 2.75581 -1.38898
-0.220358 2.56976 -1.70131
-0.407709 2.8897 -1.11251
-0.383482 2.75303 -1.38227
0.0113819 1.99339 -2.52598
-0.269561 2.86507 -1.16383
-1.66599 3.10371 -0.575458
-0.209762 2.95393 -0.94012
-1.50295 3.07842 -0.667756
-1.78748 2.26791 -1.59599
-0.672524 3.12735 -0.412434
-0.556876 2.16911 -2.13089
-1.73715 2.83136 -1.05394
-1.75653 2.67566 -1.23668
-1.70812 2.49591 -1.43676
-0.766099 2.89465 -1.10282
-0.994263 2.11269 -2.04165
-1.67102 2.24288 -1.66828
-1.11952 2.88311 -1.10101
-1.05509 2.12373 -2.00995
-0.786469 3.13212 -0.431356
-1.00315 2.19622 -1.96152
-0.216379 2.63264 -1.60249
-2.06133 2.88491 -0.857197
-1.00171 3.15439 -0.386448
0.0379479 2.66629 -1.57343
-0.0682679 3.00598 -0.750615
-1.23745 3.20385 -0.0448306
0.372103 2.23338 -2.34491
-0.271208 2.61888 -1.61768
0.113841 2.91588 -1.01518
-1.05504 2.48543 -1.65102
-0.837051 3.09063 -0.615805
-0.194325 2.37672 -1.98167
-1.08356 3.11991 -0.549825
-1.67417 3.06915 -0.660367
0.277662 2.30972 -2.20074
-0.63262 2.88187 -1.13059
-0.658849 2.10133 -2.168
-0.0471584 2.38365 -2.00688
-1.31292 3.15455 -0.438809
-0.491077 2.18507 -2.1338
-1.17456 3.02136 -0.827485
-0.401201 3.04525 -0.684614
-0.117373 2.08017 -2.37444
-1.19751 2.37228 -1.72999
0.377653 2.4389 -2.02731
-1.67864 3.15601 -0.406424
-1.22453 2.48268 -1.60911
-0.874413 2.99828 -0.880864
0.160995 2.64674 -1.62377
-0.311449 2.06863 -2.31992
-1.35018 2.28417 -1.76162
