ply
format ascii 1.0
comment Created by Open3D
element vertex 250
property double x
property double y
property double z
end_header
-2.31886 0.0765349 2.46068
-3.71895 -0.310474 0.738586
-2.37481 1.92745 -0.462287
-2.83696 1.59716 0.779084
-2.83698 0.0206207 2.23905
-2.06854 1.90948 1.44082
-0.54725 3.04862 1.40909
-2.08047 2.17034 0.819089
-2.17994 0.131094 2.51089
-2.99145 1.28263 1.38994
-3.69453 0.563396 0.859121
-2.36822 1.90286 1.01458
-3.39651 0.702964 1.63368
-2.01923 1.6629 1.82063
-3.25997 0.542274 1.88133
-3.37648 0.0762743 1.9027
-1.76263 1.97281 1.64275
-1.25228 2.90573 0.511931
-1.41535 2.2567 1.56748
-2.58958 1.73909 -0.274395
-3.78691 0.272683 0.923131
-1.44639 2.7105 0.615495
-2.51203 1.44337 1.69118
-1.63008 2.46335 0.913832
-2.5371 1.86561 0.0762408
-2.81812 0.699774 2.10087
-1.7724 1.86814 1.76745
-3.71476 -0.205428 1.36662
-2.30735 2.08193 0.139023
-3.13217 1.25259 1.17747
-2.20482 0.000302477 2.50328
-3.71451 -0.377843 1.02137
-2.74248 -0.243385 2.2541
-3.66231 0.148213 0.339804
-3.71011 -0.319084 0.702865
-0.592467 3.05645 1.3398
-2.38215 1.95142 -0.336238
-3.71214 -0.094009 0.510442
-2.57874 0.993088 2.06552
-2.26502 2.11946 0.18107
-2.33581 2.05718 0.177446
-1.93351 2.08987 1.2762
-3.7268 0.46063 1.18339
-3.48043 0.139546 1.80495
-2.79881 1.54569 -0.123979
-3.756 0.0703411 1.36993
-1.81989 2.50986 -0.601995
-3.71061 0.0587789 1.4844
-1.21687 2.56075 1.31719
-3.04101 0.63471 1.99668
-3.67544 0.360835 0.463503
-2.67521 1.75174 0.253565
-1.67051 2.67656 -0.414685
-3.21878 -0.266476 1.96802
-2.61918 1.75215 0.89129
-1.46478 2.89321 -0.438555
-2.46476 1.92563 0.595937
-2.26964 0.178402 2.47486
-3.28103 1.16748 0.645773
-2.10223 1.95377 1.3221
-2.11847 2.00421 1.19684
-1.54342 2.59295 0.738834
-2.59771 1.80582 0.069644
-3.03203 0.156896 2.134
-3.4621 -0.31887 1.72506
-3.72669 0.16195 0.536647
-3.30492 1.10947 1.09454
-1.11493 2.98348 0.623951
-2.4975 0.39826 2.35502
-2.36451 1.63148 1.57143
-3.33881 1.05026 1.17775
-2.33897 2.01256 -0.259853
-2.48009 0.107322 2.39665
-2.06907 2.2617 0.439689
-2.13132 2.23722 0.129142
-0.658723 3.00963 1.31952
-1.59752 2.75335 -0.471362
-3.49578 0.59358 1.59767
-3.39887 0.85382 1.45162
-2.36223 1.80917 1.26037
-1.9024 1.72689 1.83367
-3.59568 0.593491 0.43589
-3.16423 0.412335 2.00494
-1.50622 2.28037 1.44127
-2.27485 1.97091 1.00976
-3.4804 -0.163955 1.7702
-1.2292 2.7011 1.04753
-2.37753 0.217494 2.43034
-2.175 2.19754 0.184975
-3.1059 1.19853 1.36378
-2.32829 1.9768 -0.473602
-1.37661 2.80585 0.494826
-2.97309 0.629119 2.04306
-3.31354 0.919805 1.49705
-3.6618 0.64335 0.959643
-2.10617 2.26024 0.0908981
-2.28379 0.735245 2.34332
-2.72554 -0.0238283 2.29004
-3.40618 0.90447 0.319481
-1.927 1.50127 2.04062
-3.5058 0.699462 1.47094
-3.18035 0.180152 2.0418
-3.19266 0.504951 1.95085
-2.28806 0.551132 2.40323
-3.76742 0.371847 1.05884
-2.16824 1.54006 1.84835
-2.05762 1.78389 1.64074
-1.45384 2.90713 -0.47069
-1.16799 2.92948 0.644777
-2.04722 2.19074 0.831683
-2.5858 1.8035 -0.0200634
-3.35553 0.98239 0.311547
-2.10945 2.21037 0.557542
-2.1604 0.4126 2.48488
-1.38274 2.93628 -0.0874855
-3.29507 1.09838 1.17047
-1.47492 2.78566 0.253856
-2.74995 -0.0484716 2.27719
-3.40945 0.391039 1.81594
-3.77595 0.324656 1.11787
-0.654387 2.9772 1.37138
-3.70315 0.48741 0.711307
-2.34421 1.89135 1.09481
-3.69879 0.397809 1.38159
-0.888735 2.90337 1.17391
-1.27293 2.99525 0.139382
-2.76609 1.57508 -0.150987
-2.84611 1.56707 0.153029
-2.1159 1.91673 1.37405
-1.81335 2.53333 -0.280588
-1.92148 2.35827 0.545141
-1.15629 3.02563 0.40769
-3.60771 0.657563 1.28972
-1.68505 2.64607 -0.771783
-2.64977 1.70574 -0.155534
-2.07846 2.26038 0.395452
-1.48733 2.82789 -0.0368044
-2.1543 2.14957 0.687755
-3.77708 0.0937601 0.729933
-0.909697 2.93612 1.08778
-3.7467 -0.0859969 0.635831
-3.47391 -0.315158 1.7133
-1.9783 2.34565 -0.540663
-3.3485 0.679114 1.71094
-3.13221 0.607174 1.94721
-3.72092 -0.129415 0.558478
-2.34631 1.23156 2.02277
-1.39306 2.5393 1.12596
-3.73711 0.274563 0.62335
-2.71317 0.800536 2.10753
-1.71342 2.63199 -0.441823
-2.57273 0.800686 2.18147
-1.79928 2.54649 -0.198656
-3.53617 -0.128464 1.7178
-2.35143 0.220402 2.4402
-3.54825 0.15973 1.72925
-1.35454 2.81248 0.532303
-1.75908 1.63189 2.0237
-2.3791 1.31432 1.93049
-1.58492 2.73449 -0.0197251
-3.57419 0.597596 0.373211
-3.01205 1.42739 0.354186
-3.73155 -0.086431 0.576104
-3.40643 0.569093 1.72755
-2.35232 2.04164 0.138177
-0.978325 2.94069 0.973002
-0.844784 2.92352 1.20176
-3.68644 0.577304 1.11283
-2.51419 0.563076 2.30502
-2.27593 2.10032 -0.0668809
-3.71565 0.524715 0.944873
-1.21174 2.64069 1.18648
-2.41416 1.97712 0.500619
-3.73508 -0.0330104 0.569345
-3.6664 -0.476397 0.822322
-3.73627 0.332092 1.32658
-3.78275 0.0855174 1.2711
-3.18924 1.02366 1.52978
-2.00401 2.31888 -0.534461
-2.59005 1.45413 1.60414
-1.9112 2.43545 -0.324081
-1.5295 1.83538 1.97446
-2.5892 0.453254 2.30298
-3.26729 1.18822 0.802303
-3.41811 1.0073 0.952383
-3.6879 -0.225439 0.504517
-2.35047 2.03683 0.414848
-2.10179 2.01558 1.19665
-3.57241 0.552661 1.51204
-2.89149 1.29682 1.50499
-3.66632 0.622492 1.09066
-3.71149 0.163541 0.486689
-2.78803 1.42684 1.41884
-3.57785 -0.119207 1.66785
-1.88213 2.40865 0.449111
-3.67859 -0.215562 0.466051
-1.66992 2.65964 -0.819542
-3.78187 0.0653969 1.27472
-2.76016 1.56623 1.15656
-2.94161 1.5128 0.705095
-1.65409 2.58761 -1.43686
-1.6091 2.61022 -1.66487
-1.81922 2.30659 -1.5351
-1.63054 2.40826 -2.28062
-1.99699 2.27121 -0.825658
-1.63692 2.66225 -1.15117
-2.07218 1.89322 -1.53361
-1.70704 2.56094 -1.19145
-1.77367 2.20071 -2.02003
-1.95253 2.22957 -1.17808
-2.24132 1.79041 -1.2209
-1.77926 2.39535 -1.45052
-1.82925 2.05137 -2.09531
-1.73383 2.21769 -2.1776
-1.8714 1.9533 -2.10907
-1.66117 2.45247 -1.92377
-2.00681 2.06545 -1.40076
-1.70275 2.48627 -1.54932
-2.14314 1.98197 -1.1281
-2.36017 1.90696 -0.586009
-1.69644 2.38852 -1.91686
-2.3686 1.8834 -0.625787
-2.15971 1.90774 -1.23651
-1.6205 2.52037 -1.9558
-1.99684 1.72663 -2.03001
-1.73782 2.27531 -2.0118
-2.14609 1.88609 -1.32091
-2.06867 2.18897 -0.809566
-1.99677 1.76655 -1.97289
-1.61131 2.51146 -2.0582
-1.88119 2.00533 -1.9766
-2.31096 1.96864 -0.573888
-1.74676 2.25237 -2.02509
-1.68393 2.4435 -1.8139
-2.12427 2.12993 -0.780047
-1.95771 2.05043 -1.60741
-1.59388 2.70529 -1.26392
-1.81141 2.15626 -1.95106
-1.81073 2.48064 -0.900142
-2.1037 2.08276 -1.00932
-1.99661 1.91519 -1.7346
-1.7488 2.46688 -1.35333
-1.95575 1.95769 -1.79544
-1.77391 2.11743 -2.20638
-1.69631 2.59691 -1.06529
-1.85056 2.30927 -1.38236
-1.54132 2.73812 -1.57241
-1.73901 2.17336 -2.25598
-1.86912 2.24813 -1.47863
-2.04958 2.18438 -0.91068
