ply
format ascii 1.0
comment Created by Open3D
element vertex 400
property double x
property double y
property double z
end_header
-3.07463 -1.20869 -0.234194
-3.02377 0.961772 0.456488
-3.17245 -0.855105 -0.498215
-2.97365 0.101203 -1.2223
-2.96425 -0.934444 0.382924
-3.05368 -1.01647 -0.0011789
-3.09827 -0.544324 -1.4294
-3.11766 -0.541081 -0.0561893
-3.03067 0.936972 0.565118
-2.95501 1.5102 0.277137
-3.08354 -1.47117 -0.532313
-3.15643 -0.341228 -0.572962
-2.995 0.531418 -0.575288
-3.03539 0.7306 0.30215
-3.0622 0.403221 -0.0745007
-2.97004 -1.72024 -0.464613
-3.11073 -1.31414 -0.476285
-2.92897 1.13834 -0.178391
-3.19997 -1.16586 -1.33236
-2.94584 0.664974 -0.661884
-3.12243 -0.357306 -0.0750144
-3.10187 -0.068728 0.041708
-3.05363 0.469689 -0.0623094
-3.17053 -0.460259 -0.676591
-3.20488 -1.08899 -1.25396
-3.09157 -0.421627 0.132447
-2.96681 0.109302 -1.23642
-3.01145 0.258215 0.951675
-3.06609 0.167465 -0.666015
-2.98945 0.0808635 0.996736
-2.97354 -1.27836 0.0478023
-3.06625 0.319511 -0.300481
-3.05846 -0.286733 -1.33078
-3.03594 0.657305 0.105705
-3.09581 -0.242951 -1.11589
-3.13997 -0.281449 -0.832921
-3.03832 0.911025 0.773635
-2.9962 0.0199218 0.905488
-3.18854 -1.15142 -0.770302
-3.0961 -0.435494 -1.33515
-3.04891 0.274697 -0.611747
-2.97373 -0.455576 0.703866
-2.97401 0.978571 -0.0715813
-3.08427 0.223231 -0.0849406
-3.0375 0.71972 0.3474
-3.1015 -0.688191 -1.5344
-3.01111 -0.182044 0.690894
-3.10307 0.018705 -0.579875
-2.96553 0.202841 1.30105
-3.12304 -0.0932198 -0.55513
-2.92263 1.42736 0.0480205
-3.11527 -0.442448 -1.25685
-2.97138 0.620502 -0.587562
-2.97855 1.39937 0.358526
-2.93618 1.07591 -0.20534
-3.09767 -0.284386 0.115766
-3.02765 -0.874675 0.199915
-2.95057 -1.24884 0.147382
-3.19274 -0.689778 -0.915302
-3.16001 -0.520656 -1.07095
-2.91416 0.977972 -0.434672
-2.99484 -0.57105 0.53485
-3.10186 -0.251458 -1.09345
-2.97447 -1.34667 -0.0234314
-2.97074 -0.41555 0.74535
-2.95997 0.963724 -0.191094
-2.97573 -0.0344485 0.997249
-3.14682 -0.685094 -0.275636
-3.03794 0.495247 -0.270847
-3.00798 -0.0706017 0.772482
-3.02173 -0.0689162 0.685906
-3.11048 -0.62446 -1.45275
-3.12624 -1.0155 -0.307812
-2.93652 1.4742 0.15399
-3.02881 0.756104 0.198196
-3.01338 -0.865419 0.260479
-3.14657 -1.30048 -0.632941
-3.10141 -1.57124 -0.739693
-3.0706 0.131438 0.325412
-2.99112 -0.316063 0.716383
-3.03195 0.235232 0.741818
-2.98816 0.218594 1.12631
-3.04296 0.438123 0.656407
-3.06879 -0.160172 0.338932
-3.02184 0.915602 0.360948
-3.20715 -0.91824 -1.04849
-3.14753 -0.885057 -0.347543
-3.05666 0.367718 0.428912
-3.18675 -0.999336 -0.663234
-3.03224 -1.09473 0.0170861
-3.03521 0.654732 0.904708
-3.07314 0.318522 -0.0491024
-3.06997 -0.251712 -1.24855
-3.02199 0.639754 -0.158994
-3.03 0.278028 0.779762
-3.17906 -1.05385 -0.632541
-3.04654 0.599218 0.349962
-3.04149 -1.35752 -0.253172
-2.92326 -0.387563 0.979033
-3.05235 0.515265 0.335745
-3.04508 0.268597 0.611403
-3.05658 0.291532 0.463218
-3.02975 0.121182 -0.972642
-3.11314 -1.02791 -0.254743
-3.15615 -1.39783 -0.794341
-3.05887 0.0171418 0.444418
-3.03368 0.752126 0.307964
-3.0261 -0.514868 0.432018
-3.05031 -0.2675 0.42569
-3.01532 0.216955 -0.915265
-3.20737 -0.959416 -1.11219
-3.03552 0.691924 0.193936
-2.95096 0.909425 -0.317575
-3.07369 -0.100377 -1.04545
-3.00404 -0.283945 0.670805
-3.05304 -0.929573 0.063403
-3.04675 0.512253 -0.0848134
-2.96793 0.784769 -0.378139
-2.95824 -0.0219978 -1.39251
-2.93967 -0.524132 0.797252
-3.14388 -0.416326 -1.04699
-3.02913 -1.67074 -0.590919
-3.0492 0.37106 -0.41356
-2.95809 0.278529 1.48126
-3.01707 0.491036 1.09592
-2.99803 -0.445176 -1.64359
-3.13055 -0.161641 -0.646179
-2.97151 -1.59553 -0.297844
-3.03309 0.628951 0.941549
-2.98325 -1.71096 -0.493209
-3.0221 0.555286 1.0939
-2.98613 0.239468 1.16528
-3.13953 -0.903125 -0.311375
-3.14514 -0.626503 -1.30158
-3.18019 -1.21066 -0.754408
-3.14218 -0.246363 -0.397797
-3.2035 -0.845858 -0.881822
-3.04046 0.60193 0.0504296
-3.2076 -1.21495 -1.09934
-2.92667 0.987694 -0.359584
-2.93772 0.474211 -0.932281
-3.19507 -1.35873 -1.09878
-3.07021 -0.665248 -1.61366
-2.99669 -0.297806 0.700006
-3.03955 0.725296 0.500734
-2.93295 0.69029 -0.69093
-2.98654 0.890903 -0.089543
-2.97947 -0.0204516 -1.32853
-3.04266 0.642214 0.284376
-2.97545 -0.259019 0.833079
-2.92 -1.75368 -0.363087
-3.20174 -1.19336 -0.94238
-3.20554 -1.1727 -1.26126
-3.08429 -0.478755 0.157345
-3.12318 -0.433262 -1.20558
-2.92451 1.34068 -0.0105181
-2.97224 0.0360531 -1.29445
-3.08779 -1.61319 -0.740086
-2.97101 -0.0684914 -1.39989
-3.17041 -1.4019 -0.897057
-3.20408 -0.918841 -0.845119
-3.00193 0.232687 -0.958477
-2.97122 -0.0336004 -1.3662
-2.99273 -0.304032 0.716012
-3.1283 -0.126041 -0.353319
-3.00016 -1.24073 -0.00112969
-3.01549 -0.237204 -1.42601
-2.96278 0.303606 1.47706
-3.16082 -0.872891 -0.423439
-2.98992 0.207492 -1.04185
-3.17009 -1.2895 -0.759803
-3.01693 -1.1585 0.0169559
-3.19327 -0.697465 -0.925295
-3.19566 -1.08574 -0.788922
-3.04257 -0.476147 0.374687
-3.10637 -0.67565 -0.0344599
-3.08082 -0.265243 0.235983
-3.04422 0.471153 0.631567
-3.17197 -0.487506 -0.828614
-3.064 0.318196 -0.344306
-3.13166 -0.471378 -0.143422
-3.08943 0.0925894 -0.579699
-3.12656 -0.176298 -0.759052
-3.06158 0.378869 0.305161
-3.03979 -0.242539 0.497009
-3.0532 0.514604 0.230376
-2.963 1.4178 0.269758
-2.92424 1.26026 -0.0832173
-3.20479 -1.03581 -1.22733
-2.92145 1.30582 -0.0568769
-3.12835 -1.15354 -0.41515
-3.20392 -1.27369 -1.10802
-3.06674 -0.63573 -1.60291
-2.9881 -0.314802 0.732112
-3.004 0.129608 0.924552
-3.03286 0.00486378 0.642886
-2.96081 -0.715652 0.567012
-3.13509 -0.34402 -0.19383
-2.9694 1.04746 -0.0212606
-3.20823 -1.15626 -1.20876
-3.2002 -1.21468 -0.944463
-3.08438 -0.128923 0.223753
-3.02225 -0.00867762 0.711808
-3.05461 0.241402 -0.625412
-3.03196 -0.086856 0.611016
-2.91937 -0.511119 0.890749
-2.97587 0.107028 1.11693
-3.08178 0.0157085 -0.815199
-3.18144 -0.593445 -0.647185
-2.97572 -0.831042 0.424342
-3.05085 -0.0791407 -1.1301
-2.98591 0.158778 1.08848
-3.03042 0.724329 0.157711
-2.9312 0.950286 -0.379626
-3.15214 -0.739228 -1.37169
-2.9727 -1.08862 0.225088
-3.03734 0.440465 -0.395575
-2.9552 0.22518 1.4221
-3.03888 0.796994 0.753436
-3.19994 -1.12044 -0.857422
-3.0354 0.421734 0.772826
-3.0828 0.201839 0.0686205
-2.95144 0.122964 -1.27105
-3.04679 -0.434648 0.373758
-3.08065 0.250193 -0.179063
-3.16167 -0.382809 -0.664421
-2.98343 -1.02848 0.240533
-2.96351 -0.850294 0.452974
-3.04373 0.512477 -0.142827
-3.09555 -0.00650518 -0.735985
-3.065 -0.13458 0.37093
-3.06483 -0.238505 0.346725
-2.96573 0.181298 -1.1629
-3.01043 -1.21615 -0.0123586
-3.07046 -0.257419 0.305679
-2.93957 -0.550375 0.776935
-2.95525 0.129987 1.29425
-3.17528 -1.26133 -0.766692
-3.13404 -0.436215 -1.14558
-3.15487 -0.339504 -0.725896
-3.09891 -0.213041 0.106981
-3.01486 0.787394 0.0371961
-2.97734 0.362112 1.41955
-3.08946 -0.686086 0.0467457
-3.03313 0.922417 0.611163
-3.10609 -0.409247 0.0430469
-3.15747 -0.373789 -0.487351
-3.05481 0.328256 -0.444456
-3.08593 -1.49053 -0.565239
-3.0497 -0.0147675 0.511278
-3.19327 -1.33268 -1.01591
-2.92279 -0.0640413 1.28977
-3.14385 -0.35052 -0.93377
-3.09587 0.119071 -0.105011
-2.99884 0.161393 0.988327
-3.03162 0.100335 -0.991255
-2.96316 -0.307825 0.858505
-2.94518 0.544655 -0.816525
-2.93876 1.10635 -0.156476
-3.1691 -0.891639 -0.486141
-3.00023 -1.48781 -0.256903
-3.04357 0.442855 0.645625
-3.0385 -1.58195 -0.500675
-3.13105 -0.148896 -0.573754
-2.99226 0.937949 0.0284113
-2.99704 0.263221 1.09031
-3.06459 -0.536036 0.237766
-3.02792 0.485743 0.922057
-3.04133 -0.242025 0.488275
-2.93982 -0.500223 0.815463
-3.06599 -0.481029 -1.48543
-3.20276 -0.837213 -0.866657
-3.09896 0.105494 -0.296624
-2.99447 0.392581 1.26658
-2.97457 0.425393 -0.835053
-2.95631 0.175916 1.34319
-3.1966 -1.15051 -1.36164
-2.93681 0.00844981 1.28325
-2.99263 1.07355 0.202866
-3.15595 -0.58769 -1.19402
-3.09494 -0.0118864 0.0940664
-3.05618 -1.17228 -0.133851
-2.9896 -0.00581203 0.931062
-3.10484 -0.560227 0.0151173
-3.02481 0.852459 0.312711
-3.12055 -1.46292 -0.683602
-3.20086 -1.14939 -0.890473
-3.20299 -0.82437 -0.95486
-3.02072 0.118721 0.786809
-3.01343 1.13611 0.479566
-2.98835 0.248386 1.15485
-3.00846 1.19926 0.472709
-2.98483 -0.720193 0.472513
-3.15419 -0.390561 -0.399159
-3.03101 0.921995 0.556025
-3.02209 -1.29541 -0.125554
-3.03723 0.675224 0.192186
-3.01737 0.489358 1.08935
-3.1311 -0.508281 -1.24974
-3.08441 -1.56652 -0.657503
-3.04718 0.5862 0.26195
-3.19257 -0.924792 -0.690188
-2.99951 0.669134 -0.325044
-3.16959 -1.44093 -0.949731
-3.01347 0.758522 -0.0327725
-3.10665 -0.00882344 -0.0819666
-3.00672 -1.6674 -0.50749
-3.19856 -0.792825 -0.795145
-3.04523 0.416267 -0.359147
-3.14806 -1.15838 -0.516709
-2.97002 0.849658 -0.273978
-2.95635 -0.696249 0.598619
-3.08667 -0.370943 0.175213
-3.13088 -0.706816 -1.44059
-3.07865 -0.816477 0.0288269
-3.13373 -0.630425 -0.177805
-2.92064 -0.228583 1.13391
-2.99624 0.323543 -0.865853
-2.96169 0.452342 -0.859242
-2.92932 0.0667504 1.40512
-2.9427 -1.53819 -0.141048
-3.06573 -1.45669 -0.446654
-3.01991 0.721442 -0.0216422
-3.167 -0.868617 -1.39968
-3.14839 -0.463173 -1.08198
-3.12979 -0.540622 -0.135308
-2.9916 1.02993 0.142287
-3.02041 1.136 0.562228
-2.92266 1.0695 -0.287568
-3.15906 -0.511956 -0.381084
-3.09238 -0.60712 0.0663001
-2.99149 0.326557 1.21229
-3.00822 0.319731 -0.809461
-2.99494 0.24149 1.0889
-3.01095 0.00616475 -1.19372
-3.02219 0.418717 0.953303
-3.116 -0.107456 -0.116154
-3.05025 0.544648 0.349572
-3.05843 0.441443 0.274057
-2.93291 1.54838 0.180622
-3.0876 -0.101081 -0.964699
-3.08043 -0.389433 -1.3513
-3.09812 -1.19881 -0.319116
-3.01157 -0.920584 0.226754
-3.09888 -0.912026 -0.117154
-3.11716 -0.221292 -0.945298
-3.0723 0.172494 -0.595664
-3.0735 -0.119861 0.310471
-3.07635 0.222418 0.182382
-3.08248 -0.47324 0.16928
-3.09716 -0.174456 0.118796
-2.96278 1.24771 0.13932
-3.06688 -0.383639 0.287829
-3.18089 -1.34404 -0.902878
-3.02212 -0.600261 0.400041
-3.18158 -1.21294 -0.76667
-2.99554 -0.121283 -1.37756
-2.97407 -1.24563 0.0777614
-2.99844 0.688094 -0.302774
-3.19809 -0.828934 -1.10915
-3.1594 -0.606621 -1.19338
-3.09892 -0.341574 -1.22129
-3.13434 -0.573369 -0.171081
-2.96973 0.528366 -0.722436
-2.99327 -0.0190295 -1.28294
-3.17534 -0.657991 -0.511959
-2.9722 0.481059 -0.773249
-3.00428 -1.26014 -0.0328757
-3.00226 0.419567 -0.698327
-3.08003 0.110317 0.216383
-3.1929 -1.10238 -1.37722
-3.03236 -1.36246 -0.226737
-3.05698 0.13371 0.47247
-2.95107 -0.75043 0.57623
-2.93829 -1.7356 -0.389973
-3.02427 1.07364 0.571083
-3.08391 0.11587 0.15824
-2.97978 -0.437898 0.689258
-3.10146 0.00936404 -0.630214
-3.0685 -1.09639 -0.118672
-3.04795 0.556471 0.117979
-3.0966 -1.22772 -0.337624
-3.19504 -1.25781 -0.931779
-3.03118 0.892079 0.520891
-3.11777 -0.510462 -0.050588
-2.97408 0.725263 -0.422753
-3.04491 0.611604 0.256876
-3.10426 -1.39565 -0.53223
-3.00389 0.699734 -0.236234
-3.16464 -0.96842 -0.49002
-3.00035 -0.907951 0.277061
-2.97995 1.0465 0.0599765
-3.06523 0.0928742 -0.806424
-3.04008 0.709994 0.674286
-3.14286 -1.51539 -0.877153
-3.10298 -0.0675165 -0.786984
-3.12768 -0.837274 -0.216336
-3.04745 0.21638 0.57798
-2.97126 0.956727 -0.120677
-3.02821 0.121981 -0.979211
