ply
format ascii 1.0
comment Created by Open3D
element vertex 400
property double x
property double y
property double z
end_header
-0.543427 -2.36854 1.94994
-0.836443 -2.92406 0.794265
-1.21981 -2.77949 0.97684
-1.27916 -2.20142 1.79349
-1.13214 -2.92008 0.726482
0.735684 -2.56066 2.26158
-1.07386 -2.89732 0.788976
0.0590997 -2.82021 1.38486
0.0446407 -2.92654 1.03414
-0.0824201 -2.51747 1.97142
0.646466 -2.69577 1.93889
-0.625139 -2.43266 1.81831
-1.07162 -3.15582 0.198739
-1.09137 -2.59866 1.33836
-1.15552 -2.92641 0.707821
-1.33729 -2.86748 0.781021
-1.2031 -2.1929 1.83759
-0.421539 -2.11361 2.30782
-0.891916 -2.86564 0.910881
-0.575047 -3.08299 0.408227
-0.515696 -2.35314 1.98486
0.725782 -2.8082 1.60471
-0.977981 -2.66687 1.27078
0.363989 -2.83674 1.43484
-0.0574577 -2.77199 1.46669
-0.691496 -2.54635 1.60988
-0.666045 -3.00457 0.628526
-0.789567 -2.86318 0.950231
0.714494 -2.88707 1.23659
-0.134523 -2.88663 1.11721
-0.547108 -2.56562 1.65041
-1.70688 -2.23689 1.57958
0.27957 -2.84757 1.37443
-0.975169 -2.35218 1.75271
-0.422563 -1.99615 2.41632
0.315197 -2.54968 2.11274
0.0252728 -2.97582 0.840729
-0.387228 -2.90727 0.973827
0.475322 -2.77878 1.6546
0.733766 -2.51181 2.34686
0.499243 -2.80662 1.57231
-1.12238 -2.79241 0.984526
-1.09961 -2.87042 0.837632
-0.61836 -2.33483 1.95527
0.253556 -2.05304 2.68148
0.334233 -2.66725 1.88967
-0.627295 -2.68846 1.38713
-1.2813 -2.76673 0.980382
-0.218907 -2.48189 1.95717
0.883319 -2.73895 1.86342
-0.160276 -2.97914 0.803259
-0.606894 -2.65063 1.46911
-0.400352 -2.64104 1.58879
-0.730531 -2.35879 1.86617
-1.47941 -2.48896 1.3478
-1.46791 -2.56788 1.23917
-1.39108 -2.39785 1.50535
0.935537 -2.52221 2.38726
-0.461624 -2.32836 2.04524
0.100258 -2.52788 2.04685
0.100844 -2.21572 2.46169
-1.54655 -2.25429 1.62001
-0.250188 -2.56984 1.7958
-0.697861 -2.41847 1.80119
0.229325 -2.50651 2.14507
-1.2941 -2.42567 1.50861
0.525745 -2.78465 1.6508
-0.0675623 -2.16084 2.43677
0.398369 -2.82998 1.46715
-0.135195 -2.17424 2.38999
-0.574115 -2.63887 1.50694
0.895388 -2.57953 2.27046
-0.462295 -2.95592 0.812395
-0.0921124 -2.99896 0.737675
0.454907 -2.46108 2.31875
-1.33461 -2.50532 1.38046
1.15959 -2.69191 2.00722
1.0298 -2.76451 1.76203
-0.0297588 -2.83633 1.30432
-0.0157771 -2.95027 0.934293
0.555093 -2.54949 2.21634
-0.271612 -2.83875 1.20345
-0.616237 -2.26968 2.03746
0.364233 -2.69602 1.83622
1.07911 -2.50793 2.43989
0.238868 -2.76912 1.59892
-1.19951 -2.971 0.605616
-0.56599 -3.0021 0.654449
1.30345 -2.74562 1.70429
-1.10011 -2.69879 1.16475
0.0559864 -2.66672 1.76331
-0.851652 -3.11144 0.314288
-0.13505 -3.0092 0.694372
0.0222535 -2.30105 2.32799
-1.0143 -2.93248 0.728405
0.211975 -2.97632 0.844158
-0.31973 -2.23745 2.2284
-1.90238 -2.19715 1.55758
0.213762 -2.44716 2.22904
0.181303 -2.46758 2.18288
0.737677 -2.50817 2.35422
-0.114335 -2.72855 1.54546
-0.0556804 -2.23782 2.36179
0.932108 -2.69481 2.00278
0.260178 -2.17437 2.57656
-0.382443 -1.98786 2.44293
-0.0994544 -2.73092 1.54693
0.251285 -2.94152 1.00449
-0.0797951 -1.89605 2.65604
-0.1079 -2.97305 0.833969
-0.109046 -2.89165 1.10997
0.36989 -2.13152 2.6634
0.472997 -2.60642 2.07608
-0.787355 -2.73177 1.23038
-0.582319 -2.06649 2.27319
0.450449 -1.97746 2.81678
-0.222065 -2.976 0.803394
0.53601 -2.51984 2.25982
0.175262 -2.74298 1.64139
-0.696179 -2.69044 1.35149
-0.622655 -2.98283 0.697695
-1.82245 -2.24024 1.53598
-0.275015 -2.35867 2.10361
-0.240025 -2.2645 2.2383
-0.29235 -2.51799 1.86142
0.247314 -2.74018 1.67886
0.044525 -2.92698 1.03252
0.93249 -2.58985 2.25768
-1.52565 -2.25198 1.63096
0.133507 -2.48708 2.12937
0.31926 -2.79641 1.55058
-0.557741 -2.95317 0.795559
-0.11316 -2.2027 2.37123
0.22639 -1.82909 2.82788
0.288294 -2.84958 1.37004
-0.218098 -2.17293 2.35002
1.21763 -2.7565 1.71805
0.908931 -2.65301 2.11029
-1.02893 -2.18967 1.92327
0.282199 -2.10256 2.65199
0.808616 -2.36774 2.57978
0.759482 -2.85071 1.41885
-0.558668 -2.08409 2.26797
0.81317 -2.64575 2.10728
0.343646 -2.01817 2.74604
-0.574848 -3.04878 0.513961
-1.32444 -2.63367 1.18984
-0.855798 -3.11523 0.30395
-1.51604 -2.16023 1.73781
0.465735 -2.57766 2.12849
0.0867502 -2.34969 2.30002
-0.801181 -2.37015 1.81516
-0.533989 -2.24043 2.1144
0.791484 -2.84941 1.41957
0.299927 -2.95569 0.939165
-1.63599 -2.28159 1.55397
-1.04403 -2.75428 1.08444
0.775509 -2.27152 2.67979
0.833751 -2.83502 1.48267
-0.526917 -2.77123 1.26023
-0.986048 -2.42276 1.65209
0.942898 -2.85661 1.31086
0.372216 -2.73921 1.73113
-0.609877 -2.63446 1.49764
-0.463768 -2.18302 2.21464
-1.19763 -3.01443 0.513685
-1.03469 -2.65942 1.2601
1.19759 -2.68757 2.01411
-0.61318 -1.99255 2.32633
-1.8456 -2.36704 1.38133
-1.1066 -2.67595 1.20227
-0.130348 -2.28837 2.26633
-1.28259 -2.68119 1.1274
0.753026 -2.86508 1.34696
-1.42074 -2.64283 1.1416
-1.43169 -2.75115 0.96216
0.746183 -2.33507 2.59928
0.594139 -2.58429 2.16713
0.863471 -2.78915 1.68195
0.617124 -2.74709 1.79006
-1.07787 -3.00546 0.551847
-1.1426 -2.66376 1.20907
-0.976252 -2.83129 0.956249
-1.26755 -2.6267 1.22211
-0.343294 -1.99905 2.45226
0.464733 -2.7619 1.70136
-0.848626 -2.76345 1.14184
0.425303 -2.10791 2.70647
-0.768739 -2.04863 2.19781
-0.724914 -3.01572 0.587344
-1.59262 -2.50323 1.2879
-0.968607 -2.9624 0.671476
1.09141 -2.70832 1.96216
0.664932 -2.64274 2.07128
-0.813504 -2.43173 1.72385
-1.82703 -2.16427 1.61744
0.0273949 -2.94529 0.960859
-1.11876 -2.86516 0.842871
-0.494708 -2.99126 0.700425
0.215942 -1.86619 2.80084
-0.0474096 -2.71059 1.61787
0.783266 -2.48357 2.40886
0.145089 -2.4417 2.20362
-0.672205 -3.06065 0.468494
0.20166 -2.08781 2.62991
0.836299 -2.81095 1.59309
-1.00284 -2.37193 1.71331
-1.77214 -2.32244 1.45798
-0.752104 -2.00326 2.24863
-0.68243 -2.72021 1.29915
1.01128 -2.5169 2.41269
-0.676663 -2.66389 1.41107
-1.88416 -2.34341 1.39791
-1.00845 -2.81799 0.972597
0.742259 -2.79291 1.66384
-0.80992 -2.07639 2.15033
-0.651407 -2.66876 1.41377
0.245183 -2.80849 1.48834
0.571539 -2.54332 2.23372
-1.35769 -2.8563 0.796817
0.24307 -2.90141 1.16984
1.15084 -2.70612 1.96031
-1.10234 -2.35314 1.69083
-0.760813 -2.9651 0.713011
-0.552764 -2.15777 2.19615
-1.02035 -2.01299 2.11003
0.0678056 -2.91112 1.09532
-1.19268 -2.22554 1.80517
-0.101256 -2.31687 2.24668
-0.923603 -2.17594 1.98987
0.92368 -2.76971 1.75523
-1.33804 -2.14048 1.8345
-0.0570706 -2.94051 0.961382
-1.20701 -2.9355 0.677698
1.06477 -2.52045 2.4156
-0.558761 -2.53729 1.69173
0.751228 -2.78601 1.68983
-0.260486 -2.19776 2.30246
-0.781356 -2.27366 1.94811
0.0789185 -1.93066 2.70055
-1.6437 -2.14102 1.70814
-0.333128 -2.05681 2.40597
-0.688544 -2.48342 1.7106
-0.373111 -2.10483 2.34074
-0.158577 -2.86387 1.17668
-0.667536 -2.00147 2.29168
0.232396 -2.52725 2.11236
-1.11462 -2.35192 1.68666
-0.0274665 -2.66742 1.72147
0.826379 -2.75835 1.79401
-1.48831 -2.48317 1.3525
-1.16972 -2.06898 1.98506
0.206585 -2.67072 1.8253
-0.870818 -2.09841 2.09815
-1.5362 -2.11108 1.78197
0.00767354 -2.57958 1.91037
-0.144085 -2.67869 1.64076
-1.27665 -2.31273 1.6628
-1.09053 -2.99562 0.571802
-0.242386 -2.39104 2.07725
-0.947455 -2.56086 1.4633
0.429586 -2.78255 1.62896
-0.513153 -2.99746 0.678221
0.177536 -2.49673 2.13575
-0.450394 -2.87084 1.05116
-0.0998675 -1.89815 2.64558
-1.21616 -2.59364 1.29484
0.36408 -2.15149 2.6429
0.446781 -2.81327 1.53652
-0.42263 -2.20232 2.21474
0.258176 -2.66942 1.85146
0.115371 -2.07912 2.59903
-1.47609 -2.10731 1.81058
0.345045 -1.81149 2.88247
-0.975758 -2.69987 1.2123
-1.08857 -2.52266 1.45894
0.940809 -2.35669 2.63112
-0.250347 -2.42078 2.03152
0.522214 -2.67243 1.95365
0.00912529 -2.33611 2.27857
0.43132 -2.82161 1.50438
1.11872 -2.80091 1.5387
-0.722943 -2.89068 0.907968
1.05193 -2.53165 2.39327
-0.793548 -2.40286 1.77446
-0.0606907 -2.60957 1.82032
-0.903917 -2.16469 2.01192
0.204101 -2.45068 2.21921
-0.0461735 -2.44694 2.09969
-0.849365 -3.07619 0.408743
-0.156236 -2.74869 1.4791
-0.184959 -2.83262 1.25425
-0.892219 -2.5942 1.43407
-1.22269 -2.74242 1.04276
-0.631604 -2.90428 0.903612
1.07737 -2.68009 2.05194
0.00229269 -2.99743 0.749943
-1.24154 -2.18605 1.82771
-0.69211 -2.36351 1.8796
0.606829 -2.3122 2.57597
-0.808447 -2.9907 0.637294
-0.900768 -2.81409 1.01818
0.66282 -2.36706 2.53103
-0.284279 -2.30676 2.16485
0.534988 -2.07867 2.77249
-0.527997 -2.43361 1.86738
0.0660409 -2.38456 2.24426
-0.82044 -3.08269 0.393724
0.386742 -2.54769 2.14859
-0.169062 -2.46471 2.00951
0.370615 -2.07874 2.70893
-1.06271 -2.81584 0.958773
0.546839 -2.51111 2.27869
1.11121 -2.75802 1.76654
0.462775 -2.78696 1.6257
-0.777559 -2.56017 1.54488
0.541409 -2.90842 1.15679
-1.21243 -2.1752 1.85304
0.0987525 -1.91766 2.71828
-1.01342 -2.25364 1.85696
-0.971158 -2.52314 1.5117
-1.18263 -2.17943 1.86207
0.42027 -2.78161 1.62881
-1.99601 -2.23681 1.4864
-0.0375562 -2.93965 0.968729
-0.788422 -2.65503 1.37561
-0.636878 -2.96521 0.742639
0.859215 -2.83037 1.50006
-0.607008 -2.21558 2.10522
-0.541413 -2.86353 1.03683
-1.36077 -2.42766 1.47809
0.671249 -2.59769 2.16861
-1.85875 -2.36332 1.38182
-0.309233 -1.97049 2.49269
0.979966 -2.80383 1.59744
0.52874 -2.33585 2.51763
0.177037 -1.97317 2.71127
0.398734 -2.22661 2.58469
0.82417 -2.39802 2.54553
-0.885966 -2.8226 1.00561
-0.908779 -2.40751 1.71072
-0.153841 -2.9968 0.739549
-1.58322 -2.55642 1.21663
0.532524 -2.6967 1.8991
0.0966138 -2.75285 1.58255
-0.828387 -2.73692 1.20294
-0.52072 -2.74146 1.32786
-1.07412 -2.96514 0.642647
-0.741654 -2.44803 1.73644
-1.00494 -3.16988 0.162069
0.966606 -2.83656 1.42464
-0.124727 -2.92258 1.00601
0.835516 -2.50038 2.39778
-1.43848 -2.6644 1.10174
-0.703995 -2.56982 1.56481
0.0452188 -2.02704 2.61142
0.469688 -2.83346 1.47208
0.883322 -2.75358 1.81421
0.81002 -2.76155 1.78156
0.048079 -2.83381 1.34091
0.381141 -2.94053 1.00898
1.09798 -2.59068 2.28019
-1.234 -2.41151 1.5537
-0.150444 -2.05547 2.49591
1.20599 -2.64393 2.147
-1.31265 -2.09875 1.88979
0.0544279 -2.12936 2.52559
-0.711565 -2.64376 1.4319
-1.38776 -2.40227 1.5009
-1.09837 -3.04802 0.452046
0.999965 -2.71987 1.92957
0.367647 -2.39144 2.37854
-1.18754 -2.22706 1.80578
0.135768 -2.33559 2.3417
0.746324 -2.77021 1.74443
-0.259969 -2.22438 2.27368
-0.584307 -2.61213 1.55064
-0.488513 -2.96853 0.769078
-1.50822 -2.5979 1.18094
-0.424464 -2.68649 1.48753
1.07463 -2.83257 1.36291
-0.28897 -2.63404 1.65814
0.303957 -2.34161 2.41356
-1.83454 -2.21536 1.55959
-1.42139 -2.78029 0.915519
-1.15184 -2.86225 0.839343
-1.28288 -2.6098 1.24319
-0.740123 -2.47779 1.69309
1.03546 -2.75188 1.81195
-1.32188 -2.83649 0.842341
-0.771344 -2.14288 2.10132
-1.43913 -2.41286 1.46626
-1.17599 -2.6347 1.2446
-1.0033 -3.02422 0.520261
-0.510567 -2.78768 1.23023
0.0629182 -2.9111 1.09419
-0.870188 -2.08067 2.1164
-0.488803 -2.66233 1.50411
-0.310248 -2.49728 1.88524
-0.708964 -2.45716 1.73961
