ply
format ascii 1.0
comment Created by Open3D
element vertex 250
property double x
property double y
property double z
end_header
-2.01309 -1.28319 -2.39558
-2.86278 -2.42059 -0.646298
-0.115157 -3.08823 -0.134506
-0.920862 -2.97386 -1.23061
-2.35269 -1.677 -2.17135
-0.323618 -2.46984 -1.94836
1.51261 -2.07165 -2.23593
-0.014706 -2.76903 -1.42895
-1.89187 -1.20468 -2.45834
-1.37701 -2.76635 -1.72539
-2.24841 -2.93604 -1.01457
-0.438991 -2.77341 -1.54085
-2.11258 -2.64915 -1.79397
-0.546465 -2.20015 -2.24007
-2.18804 -2.39573 -1.98338
-2.60286 -2.18076 -1.86979
-0.116432 -2.24251 -2.15756
1.12814 -2.68355 -1.34143
0.334065 -2.18038 -2.16501
-0.432626 -3.09033 -0.261476
-2.53102 -2.80649 -0.992362
0.83732 -2.6827 -1.38553
-1.00525 -2.45236 -2.05648
0.47546 -2.60216 -1.60094
-0.381048 -3.06218 -0.633303
-1.82651 -2.12388 -2.23565
-0.223867 -2.15814 -2.24668
-2.91716 -2.35938 -1.27778
-0.0863633 -3.01684 -0.754234
-1.44781 -2.89417 -1.51444
-2.00021 -1.14125 -2.41337
-2.96737 -2.31796 -0.897405
-2.48103 -1.43526 -2.10854
-2.41381 -2.75061 -0.397024
-2.85551 -2.41564 -0.609546
1.50254 -2.12408 -2.17223
-0.129479 -3.08387 -0.262148
-2.65581 -2.59911 -0.490581
-1.44982 -2.14006 -2.28487
-0.040139 -3.00092 -0.805012
-0.131131 -3.01455 -0.784063
-0.0700363 -2.51731 -1.84198
-2.41151 -2.82987 -1.29542
-2.60664 -2.31792 -1.79538
-0.742096 -3.09256 -0.351076
-2.7487 -2.56537 -1.36114
0.700646 -3.075 -0.165098
-2.75069 -2.50143 -1.46701
0.736293 -2.27665 -2.01195
-2 -2.26889 -2.11883
-2.29693 -2.87141 -0.577102
-0.591906 -3.05691 -0.771131
0.88002 -3.03296 -0.391477
-2.7557 -1.83175 -1.8318
-0.688323 -2.88844 -1.38118
1.17711 -3.02296 -0.429756
-0.399212 -2.94314 -1.14752
-1.9105 -1.30876 -2.43827
-1.49618 -3.0565 -0.982073
-0.289567 -2.54681 -1.84783
-0.238083 -2.61603 -1.74267
0.662655 -2.65528 -1.4703
-0.46283 -3.07041 -0.610149
-2.36375 -1.92995 -2.1118
-2.90461 -2.02768 -1.586
-2.48846 -2.76804 -0.58991
-1.64794 -2.94785 -1.39497
1.25185 -2.60869 -1.47008
-1.88076 -1.64239 -2.38904
-0.74725 -2.48654 -1.99519
-1.73034 -2.91868 -1.45774
-0.0730704 -3.07555 -0.352625
-2.08543 -1.4355 -2.34448
0.137908 -2.89444 -1.09219
0.144167 -2.98698 -0.788366
1.42913 -2.14752 -2.13978
0.995515 -3.03897 -0.358897
-2.2494 -2.66036 -1.72862
-1.96824 -2.78344 -1.66344
-0.553532 -2.6602 -1.74891
-0.425463 -2.15149 -2.27017
-2.07183 -2.96605 -0.617428
-2.24275 -2.21698 -2.0633
0.316763 -2.28821 -2.05178
-0.327011 -2.74835 -1.55521
-2.81583 -2.13115 -1.67422
0.884904 -2.4291 -1.7946
-1.94537 -1.42281 -2.40783
0.0749186 -2.98302 -0.830655
-1.50801 -2.80302 -1.6769
-0.0464785 -3.08737 -0.137602
0.977368 -2.71569 -1.2971
-1.96835 -2.20556 -2.16107
-1.87368 -2.75304 -1.72535
-2.19064 -2.94269 -1.13368
0.185443 -2.99058 -0.758229
-1.49504 -1.70082 -2.47376
-2.32063 -1.55559 -2.2064
-1.69882 -3.04675 -0.594586
-0.646401 -1.98459 -2.40309
-2.1539 -2.76062 -1.63807
-2.42691 -2.07347 -2.03147
-2.1843 -2.308 -2.03858
-1.64185 -1.57457 -2.47781
-2.4758 -2.82823 -1.15081
-0.739532 -2.22706 -2.2322
-0.447969 -2.34175 -2.10325
1.20112 -3.0301 -0.402946
1.17347 -2.60955 -1.47479
0.0194299 -2.75481 -1.44665
-0.437658 -3.07795 -0.523523
-1.60771 -3.06038 -0.609162
0.0495068 -2.86823 -1.19044
-1.67252 -1.37497 -2.51483
1.18882 -2.91948 -0.777595
-1.66524 -2.91831 -1.46435
0.947946 -2.82392 -1.0614
-2.35183 -1.56058 -2.18715
-2.38209 -2.42342 -1.87818
-2.52758 -2.79271 -1.19371
1.39798 -2.11327 -2.18
-2.27729 -2.92342 -0.851155
-0.448029 -2.73222 -1.61411
-2.4793 -2.72946 -1.4667
1.2302 -2.27979 -1.97147
1.25657 -2.83025 -1.01095
-0.693576 -3.09236 -0.333482
-0.816735 -3.08619 -0.622768
-0.336058 -2.52299 -1.88693
0.654144 -3.02108 -0.479464
0.283274 -2.82529 -1.21993
1.29977 -2.70944 -1.27563
-2.21379 -2.84578 -1.45329
0.923676 -3.09546 -0.0409808
-0.521656 -3.09012 -0.366053
0.140002 -2.90939 -1.04954
1.03092 -2.91801 -0.795534
-0.0512392 -2.83686 -1.29781
-2.61145 -2.7235 -0.755552
1.25767 -2.33343 -1.89868
-2.69958 -2.60494 -0.613185
-2.90738 -2.04117 -1.57592
0.46471 -3.07581 -0.177488
-2.11375 -2.58283 -1.86063
-2.0702 -2.329 -2.06423
-2.69705 -2.57347 -0.526371
-1.11534 -2.12789 -2.3112
0.643453 -2.43209 -1.82409
-2.43333 -2.83038 -0.705592
-1.68588 -2.1088 -2.27038
0.825252 -3.04184 -0.352934
-1.60745 -1.98972 -2.34009
0.655709 -3.00269 -0.561583
-2.81676 -2.20571 -1.63478
-1.92792 -1.4033 -2.4179
-2.62165 -2.39632 -1.7293
0.988973 -2.69604 -1.33472
-0.437405 -1.94643 -2.4234
-1.05881 -2.22347 -2.2471
0.89547 -2.92759 -0.785599
-2.04135 -2.96518 -0.558457
-1.06962 -3.0804 -0.776149
-2.6772 -2.6053 -0.555774
-2.23446 -2.5524 -1.84513
-0.144987 -3.02474 -0.742108
1.2392 -2.41025 -1.79068
1.2681 -2.25441 -2.0036
-2.28645 -2.88836 -1.26136
-1.76382 -1.76994 -2.38905
-0.00892886 -3.04623 -0.562239
-2.30816 -2.90999 -1.08561
0.824255 -2.34989 -1.90996
-0.308597 -2.95735 -1.07081
-2.64003 -2.64336 -0.564805
-2.96364 -2.25895 -0.677972
-2.53966 -2.72636 -1.39531
-2.73496 -2.61464 -1.27116
-1.72339 -2.72035 -1.78579
0.427122 -3.07661 -0.175873
-1.03142 -2.53459 -1.9769
0.528065 -3.04006 -0.410261
-0.128423 -1.91535 -2.43341
-1.89188 -1.75606 -2.35588
-1.50513 -3.02833 -1.13779
-1.76658 -2.99515 -1.23022
-2.73212 -2.49839 -0.446653
-0.205384 -2.96518 -1.00551
-0.218788 -2.61092 -1.74566
-2.31179 -2.70829 -1.63541
-1.32428 -2.67815 -1.83883
-2.23611 -2.90665 -1.25307
-2.46665 -2.76771 -0.542435
-1.14425 -2.70133 -1.79321
-2.82751 -2.25256 -1.58999
0.365718 -2.8473 -1.1423
-2.71076 -2.50543 -0.412624
0.953508 -3.10238 0.000919721
-2.74949 -2.60042 -1.26879
-0.970995 -2.8218 -1.58233
-1.03543 -3.0126 -1.13619
1.04257 -3.16763 0.612748
1.13674 -3.19402 0.824778
0.752384 -3.13069 0.786863
1.10788 -3.20377 1.47244
0.459068 -3.09899 0.116695
1.0472 -3.14557 0.317825
0.288087 -3.05474 0.903165
0.936529 -3.14111 0.385172
0.809314 -3.12586 1.28202
0.533221 -3.10956 0.466415
0.0358973 -3.05264 0.632308
0.824629 -3.14076 0.68052
0.681462 -3.08689 1.39688
0.881208 -3.13845 1.42823
0.586222 -3.05841 1.43812
1.04387 -3.18367 1.11785
0.426706 -3.08956 0.726648
0.961412 -3.16155 0.749348
0.218661 -3.08336 0.488784
-0.093965 -3.08891 -0.0100408
0.973216 -3.16772 1.12948
-0.10804 -3.08807 0.0347898
0.177434 -3.06992 0.613915
1.12623 -3.20313 1.12917
0.324035 -2.9913 1.42711
0.884772 -3.14516 1.25281
0.188847 -3.06279 0.701073
0.349099 -3.09661 0.124547
0.34054 -3.00535 1.36088
1.14756 -3.211 1.22983
0.588924 -3.0725 1.29619
-0.0196191 -3.08925 -0.0391172
0.86522 -3.13982 1.27211
0.999142 -3.17298 1.01511
0.263608 -3.0944 0.112956
0.492282 -3.08463 0.929169
1.13039 -3.16349 0.413616
0.737871 -3.11182 1.22858
0.74865 -3.10894 0.128796
0.291938 -3.09469 0.346221
0.39656 -3.0526 1.08977
0.875571 -3.14439 0.567017
0.466993 -3.06146 1.136
0.788941 -3.11002 1.48449
0.942818 -3.13094 0.254089
0.70121 -3.12528 0.639647
1.25385 -3.20681 0.699782
0.862607 -3.12963 1.51605
0.665441 -3.11925 0.749352
0.379859 -3.09963 0.222803
