ply
format ascii 1.0
comment Created by Open3D
element vertex 400
property double x
property double y
property double z
end_header
2.89553 1.51442 0.539933
1.429 1.76067 2.26596
2.91992 1.2862 0.929308
2.66324 0.428705 1.75221
2.3718 1.94582 0.628448
2.6681 1.67469 0.659398
3.17767 0.408786 1.29386
2.50315 1.59011 1.10521
1.39196 1.86048 2.23233
1.19584 1.49289 2.72596
3.18213 1.30286 0.364004
2.68903 1.13913 1.37087
2.13972 0.928636 2.03534
1.62997 1.6686 2.09705
2.00094 1.40846 1.88618
3.19256 1.34037 0.0847467
3.09483 1.34128 0.503432
1.59112 1.14551 2.46224
3.51183 0.633483 0.799978
2.08148 0.810585 2.13744
2.42405 1.54951 1.26722
2.20686 1.5966 1.48616
1.95555 1.40484 1.93684
2.81033 1.07516 1.2915
3.43767 0.6916 0.856568
2.33066 1.72058 1.16651
2.66141 0.412045 1.75777
1.52447 2.28021 1.58675
2.41733 0.940042 1.77352
1.57506 2.33365 1.41778
2.71789 1.71478 0.388619
2.15865 1.22986 1.84985
2.97141 0.43533 1.47937
1.76523 1.51194 2.06354
2.86849 0.631015 1.50395
2.77748 0.90026 1.45173
1.30609 2.04608 2.18348
1.65593 2.26807 1.3825
3.2155 1.1054 0.724282
3.07459 0.472206 1.37186
2.32443 0.962068 1.84851
1.9786 2.15437 0.994928
1.64945 1.2826 2.33275
2.11176 1.43694 1.74511
1.61428 1.70988 2.0822
3.30439 0.341844 1.18805
1.87475 2.12193 1.24899
2.47479 1.05384 1.65242
1.345 2.56357 1.46537
2.5325 1.10134 1.56325
1.32892 1.29327 2.67261
3.05248 0.549641 1.36404
2.08461 0.893302 2.10137
1.2272 1.59036 2.63121
1.64091 1.13526 2.41651
2.27469 1.68929 1.28914
2.47825 1.81256 0.737965
2.6371 1.78397 0.387749
3.06015 0.916128 1.14165
3.03027 0.742137 1.29244
1.78897 0.942842 2.35549
2.13577 2.03757 0.93167
2.8658 0.654434 1.49643
2.78832 1.66445 0.341214
1.93573 2.18242 1.02152
1.7067 1.17574 2.33056
1.62276 2.34412 1.31242
2.7055 1.43847 1.02901
2.03595 1.21526 1.98136
1.77602 2.17368 1.3306
1.82819 2.10641 1.35159
3.23805 0.406692 1.23498
2.87224 1.4491 0.741416
1.26234 1.38381 2.70402
1.66454 1.57285 2.13075
2.43325 1.85576 0.729861
3.19167 1.22349 0.555949
3.34849 1.14944 0.317894
1.94282 1.79381 1.59984
1.91488 2.15332 1.12087
1.65539 2.11471 1.60812
1.4405 2.42343 1.51572
1.60443 2.01759 1.79931
2.08058 1.84715 1.34804
1.49849 1.68492 2.23958
3.25116 0.843105 0.973354
2.84194 1.40673 0.869218
1.76307 1.84058 1.77938
3.08466 1.17362 0.837518
2.68294 1.69102 0.579212
1.3665 2.19394 1.94396
2.03833 1.44801 1.81564
2.92093 0.506147 1.50298
1.89649 1.2816 2.08034
1.61364 2.13985 1.63812
3.09113 1.20396 0.782647
1.67964 1.73423 1.98348
2.956 1.50345 0.399105
1.77132 2.35404 0.987446
1.73283 1.73729 1.91681
1.7132 2.00507 1.66227
1.78395 1.88097 1.70929
2.56809 0.666929 1.76075
2.84265 1.48967 0.716504
3.32782 1.10477 0.501282
1.93217 1.90626 1.47898
1.61509 1.66956 2.11372
2.1812 1.9572 1.01031
2.0778 1.92768 1.23449
2.48131 0.694662 1.82688
3.30376 0.794873 0.94765
1.70351 1.58197 2.07995
1.79072 1.07123 2.29823
2.74634 0.659193 1.60427
1.93075 2.11617 1.16142
2.59191 1.71677 0.723795
1.94066 1.37597 1.97303
1.89533 1.04628 2.20919
2.79905 0.29376 1.66427
1.9421 2.22709 0.905705
2.95472 0.739245 1.36991
3.27275 1.25486 0.175037
2.17736 1.11726 1.90188
1.21179 2.70259 1.49986
1.33991 2.37205 1.76717
3.16431 0.161312 1.35973
2.61754 1.0374 1.52193
3.04786 1.46519 0.167507
1.35947 2.2281 1.9155
3.21156 1.32121 0.103457
1.31235 2.36343 1.82482
1.40914 2.45263 1.52681
2.82723 1.43625 0.844498
3.18799 0.553353 1.22843
3.23127 1.12347 0.667212
2.54394 1.26763 1.41906
3.12906 0.972944 1.00891
1.82375 1.47512 2.02662
3.42526 0.84338 0.727768
1.75541 1.01176 2.35904
2.30632 0.603664 2.01016
3.48801 0.858647 0.5987
3.31042 0.255181 1.20359
1.91788 2.13945 1.14164
1.53627 1.84096 2.06552
2.07423 0.77564 2.15686
1.71112 1.28637 2.26681
2.78129 0.358758 1.66683
1.68819 1.67001 2.02785
1.81693 2.23673 1.14464
3.12314 1.40691 0.016313
3.33184 0.971261 0.72028
3.48364 0.697957 0.786515
2.34163 1.74656 1.11046
3.02784 0.596013 1.36833
1.40286 1.25694 2.60814
2.73089 0.375955 1.70646
3.36004 1.14844 0.275333
2.83501 0.300655 1.63205
3.3913 1.02482 0.519978
3.14761 1.01525 0.941527
2.48558 0.648778 1.83994
2.80087 0.324406 1.65701
1.91019 2.15204 1.132
2.45172 1.28103 1.50831
2.74236 1.68081 0.441213
2.96388 0.325312 1.51411
1.20467 2.69768 1.52423
2.8832 1.34681 0.897361
2.53137 0.575295 1.82464
3.26624 1.12535 0.59566
2.70406 1.69259 0.517143
3.06936 0.908986 1.13682
3.197 1.08344 0.786628
2.20215 1.91083 1.06
2.55159 1.62272 0.981528
2.1931 1.78068 1.27945
1.60123 1.99219 1.83177
2.90098 0.950111 1.29122
2.17963 1.19152 1.85402
2.52182 1.51244 1.18449
2.42811 1.03635 1.70864
2.67849 0.941209 1.52396
1.82285 1.73578 1.80949
2.02222 1.97964 1.24009
1.78645 1.64788 1.93211
1.25138 1.50412 2.65217
1.47923 1.20653 2.55
3.3977 0.706492 0.898019
1.44131 1.22095 2.58364
2.99642 1.37875 0.640363
3.45637 0.842737 0.677062
3.28783 0.258299 1.22548
1.90425 2.16505 1.11813
1.59707 2.27217 1.47723
1.82068 2.06445 1.42643
2.16793 2.06919 0.786522
2.48577 1.45248 1.30229
1.58658 1.31315 2.38188
3.45107 0.741698 0.794208
3.34245 0.971833 0.70162
2.13357 1.75206 1.39938
1.78549 2.11996 1.39948
2.35194 0.95813 1.82494
1.88184 2.05023 1.35236
1.87449 2.29484 0.89297
1.49228 2.42562 1.41572
2.57889 0.842772 1.67368
2.86993 1.12522 1.17896
2.3075 1.97176 0.716377
2.7619 0.572417 1.62338
1.48773 2.39878 1.46908
1.70181 1.54375 2.11037
1.78734 1.0024 2.33231
3.28436 0.513515 1.14598
2.53378 1.8379 0.524192
2.12528 1.11652 1.95256
1.266 2.65846 1.46154
1.3736 2.04582 2.08938
3.25163 1.0322 0.769184
1.54907 2.11559 1.76449
2.04464 1.57041 1.70363
2.66103 0.372801 1.76682
2.18485 1.90607 1.09766
2.14278 1.35084 1.7801
2.75925 1.06977 1.35139
2.50358 1.84764 0.578625
2.29418 1.99292 0.689648
1.96742 1.32491 1.98021
2.56013 0.920526 1.65001
2.04911 1.86882 1.36331
2.11305 1.86329 1.27806
2.58789 0.463721 1.80792
2.74295 1.67277 0.468974
2.14701 1.83384 1.27074
1.96531 2.21354 0.886231
1.37756 2.5633 1.39904
3.25927 1.11794 0.623308
3.007 0.653084 1.36245
2.76353 1.00756 1.39395
2.24429 1.67197 1.35195
1.71953 1.42387 2.17406
1.21447 2.6473 1.58987
2.50425 1.68511 0.952275
1.37796 1.90314 2.2144
2.37944 1.64972 1.19743
2.66324 1.2175 1.33106
2.21818 1.09997 1.87268
3.20997 1.27879 0.353497
1.90821 1.96342 1.43737
3.43228 0.924669 0.6079
1.45386 2.57166 1.21785
2.86518 0.826233 1.40948
2.18208 1.44086 1.66495
1.54564 2.31937 1.49244
2.58914 0.655028 1.74662
1.81993 2.25944 1.09311
2.21849 0.695878 2.05706
1.60308 1.1738 2.43662
2.92978 1.30018 0.894681
2.99384 1.49872 0.267817
1.60789 2.00801 1.80524
3.18986 1.32357 0.24229
2.57531 1.0976 1.52246
1.63267 1.38302 2.29256
1.44246 2.39061 1.56352
2.31613 1.81374 1.03994
1.43716 2.22985 1.79353
2.02742 1.97288 1.24258
1.92115 2.23921 0.923524
3.15121 0.335543 1.33995
3.11663 0.98425 1.01369
2.28686 1.28085 1.68296
1.28783 2.52084 1.64684
2.30817 0.712226 1.97267
1.33087 2.59888 1.4316
3.51641 0.604555 0.815683
1.43079 2.56249 1.28769
1.4779 1.51225 2.38294
3.12245 0.644881 1.25121
2.14736 1.6295 1.52355
2.81411 1.58552 0.547089
1.65134 2.29036 1.35349
2.46801 1.64737 1.07202
1.55628 1.65448 2.19423
3.27982 1.19102 0.411706
3.28328 1.00869 0.749774
3.15447 0.907197 1.03769
1.68321 2.16456 1.49647
1.32298 1.74967 2.40622
1.41146 2.44353 1.53706
1.29132 1.73209 2.45864
2.23443 2.0012 0.808492
2.62521 1.29359 1.30219
1.40424 1.85508 2.22105
2.84742 1.59359 0.423734
1.71394 1.58377 2.06681
1.34425 2.36684 1.76685
3.09303 0.573266 1.31472
3.29302 1.2104 0.30139
1.73061 1.66133 1.98558
3.06498 1.14261 0.908003
1.94893 1.12432 2.1185
3.43657 0.985169 0.493971
1.76797 1.36768 2.15897
2.24213 1.48466 1.5578
3.21352 1.31438 0.154467
3.05571 1.03669 1.03901
2.12474 1.1551 1.93051
3.06356 1.30263 0.660961
1.81228 1.12673 2.25036
2.13927 2.09109 0.796223
2.28047 1.74721 1.20106
3.28757 0.439325 1.1731
2.57076 1.6835 0.838197
2.62 1.50742 1.05481
1.61254 2.46165 1.09916
2.38982 0.711689 1.90108
2.29768 0.681191 1.99278
1.33541 2.65423 1.31586
2.92042 1.57622 0.179075
3.11947 1.36495 0.354918
1.7855 1.38583 2.12891
3.37356 0.516004 1.04707
2.99882 0.718498 1.3373
2.55106 1.52857 1.12326
1.52927 1.46642 2.35406
1.28664 1.82373 2.39751
1.67567 1.05925 2.41632
2.68031 1.32923 1.19836
2.45705 1.69169 1.01827
1.34588 2.48268 1.59694
2.372 0.766369 1.89556
1.45255 2.39154 1.54413
2.72284 0.485662 1.68555
1.451 2.26347 1.72888
2.31515 1.47459 1.48329
1.70974 1.74374 1.93882
1.80489 1.69849 1.86588
1.20938 1.39387 2.76163
2.71615 0.735179 1.5988
3.04856 0.443844 1.40571
2.94967 1.45224 0.572544
2.47642 1.83415 0.686813
2.70583 1.58301 0.788134
2.78746 0.784125 1.50813
2.38403 1.00246 1.77062
2.07799 1.81931 1.38898
1.97291 1.66128 1.70131
2.33162 1.75503 1.11251
2.21785 1.67552 1.38227
1.40149 1.41759 2.52598
2.21652 1.8353 1.16383
3.37269 1.01662 0.575458
2.23707 1.94042 0.94012
3.23952 1.11403 0.667756
2.86759 0.339715 1.59599
2.68692 1.73583 0.412434
1.92756 1.14002 2.13089
3.23043 0.773723 1.05394
3.13403 0.649923 1.23668
2.9727 0.557052 1.43676
2.58854 1.50511 1.10282
2.19695 0.790849 2.04165
2.76755 0.404366 1.66828
2.83028 1.24705 1.10101
2.24776 0.755643 2.00995
2.77086 1.65863 0.431356
2.2623 0.843628 1.96152
2.01456 1.70855 1.60249
3.49752 0.582359 0.857197
2.9388 1.52217 0.386448
1.85852 1.91219 1.57343
2.17382 2.07727 0.750615
3.14047 1.39045 0.0448306
1.31612 1.84235 2.34491
2.0436 1.66005 1.61768
1.98134 2.14234 1.01518
2.50349 1.01144 1.65102
2.77729 1.59352 0.615805
1.818 1.54318 1.98167
2.9723 1.43992 0.549825
3.35403 0.9864 0.660367
1.43688 1.82955 2.20074
2.48512 1.59046 1.13059
1.95174 1.01999 2.168
1.71884 1.65215 2.00688
3.15898 1.30223 0.438809
1.89232 1.19783 2.1338
2.96696 1.30588 0.827485
2.43701 1.86963 0.684614
1.5539 1.38791 2.37444
2.52422 0.830688 1.72999
1.45752 1.9916 2.02731
3.41861 1.04466 0.406424
2.62139 0.889646 1.60911
2.73841 1.5018 0.880864
1.75769 1.98537 1.62377
1.68297 1.24251 2.31992
2.56988 0.660431 1.76162
