ply
format ascii 1.0
comment Created by Open3D
element vertex 250
property double x
property double y
property double z
end_header
3.05114 -0.195943 1.4457
2.88913 -2.34535 0.7904
0.337771 -2.2384 2.10807
1.5984 -1.77232 2.3474
3.2381 -0.730244 1.42956
1.45356 -0.78126 2.69773
0.0404989 0.284631 3.39065
0.930914 -1.20691 2.71779
2.97851 -0.0612258 1.48276
2.23676 -1.47718 2.31099
2.59785 -2.30728 1.62255
1.34841 -1.2834 2.60641
2.8864 -1.59157 1.95831
1.78308 -0.483354 2.59696
3.0378 -1.3176 1.8699
3.31426 -1.36195 1.47902
1.37908 -0.422164 2.75996
-0.0828043 -0.820428 3.09735
1.00045 -0.224103 2.91578
0.673317 -2.26928 2.05004
2.81676 -2.31744 1.40092
0.185646 -0.88922 2.99875
2.08446 -0.928266 2.45907
0.601542 -0.821537 2.91951
0.828037 -2.01244 2.27764
2.85409 -0.849624 1.99435
1.51277 -0.342605 2.71098
3.27068 -1.94584 1.10708
0.642436 -1.81101 2.44646
2.19005 -1.71909 2.23926
3.0421 -0.0764392 1.36653
3.10641 -2.15591 0.828132
3.29922 -0.630898 1.17412
2.39534 -2.5886 1.05427
2.863 -2.36097 0.768011
0.0176279 0.205084 3.38313
0.418134 -2.16465 2.17604
2.64102 -2.50101 0.905149
2.56431 -0.708972 2.1964
0.629923 -1.75417 2.48622
0.696015 -1.80643 2.44374
1.18556 -0.795806 2.77413
2.88017 -2.11689 1.65077
3.28497 -1.5083 1.5247
0.982069 -2.31965 1.97297
3.18488 -1.99351 1.36809
-0.333271 -1.94295 2.46732
3.23991 -1.88457 1.38814
0.584917 -0.253415 3.06053
2.94532 -1.08244 1.94698
2.40024 -2.5333 1.29427
1.07927 -1.9965 2.26691
-0.364996 -1.71965 2.65257
3.40347 -1.17683 1.15593
1.47884 -1.54423 2.48051
-0.59508 -1.59223 2.79629
1.11297 -1.62746 2.50018
2.9891 -0.156005 1.53263
1.95374 -2.16856 2.00635
1.37511 -0.886164 2.7034
1.27908 -0.982344 2.70853
0.376705 -0.876326 2.95661
0.884897 -2.05899 2.23415
3.22925 -0.955705 1.55895
3.40752 -1.51519 1.07548
2.5627 -2.51228 1.15041
2.2973 -1.89479 2.11746
-0.121945 -0.648757 3.1777
2.95584 -0.421562 1.73997
1.83623 -0.904978 2.55564
2.39877 -1.86331 2.10042
0.418782 -2.08669 2.24924
3.09291 -0.362232 1.48625
0.628447 -1.44789 2.66427
0.465073 -1.69322 2.5458
0.0632864 0.144564 3.34784
-0.479388 -1.70539 2.68645
2.96708 -1.68325 1.86775
2.70212 -1.72028 2.03168
1.55039 -1.11477 2.60679
1.69473 -0.389994 2.63428
2.23757 -2.50555 1.47872
3.11701 -1.15649 1.77452
0.9601 -0.376122 2.91252
1.26049 -1.21969 2.64624
3.3858 -1.51046 1.23634
0.351422 -0.445303 3.09554
3.00833 -0.269581 1.57599
0.545861 -1.68809 2.53898
2.323 -1.57581 2.25023
0.281572 -2.21341 2.1388
0.0220674 -0.919742 3.02759
2.9379 -1.00041 1.94346
2.65411 -1.63032 2.08913
2.61355 -2.22304 1.72368
0.41434 -1.70009 2.54772
2.67983 -0.288217 1.99571
3.22331 -0.609443 1.38284
1.91571 -2.45621 1.67907
1.94298 -0.260932 2.50759
2.84354 -1.7793 1.92144
3.24712 -1.12973 1.57988
3.0595 -1.21908 1.84584
2.79869 -0.240792 1.85036
2.85654 -2.22199 1.53484
1.94285 -0.571203 2.52755
1.63442 -0.636212 2.65179
-0.629298 -1.60543 2.79521
-0.0533891 -0.67233 3.14752
0.910908 -1.17478 2.73355
0.817599 -2.10735 2.19772
1.84758 -2.42779 1.73609
0.754195 -1.39964 2.66806
2.8335 -0.0816799 1.72536
-0.423794 -1.307 2.94168
2.34751 -1.83777 2.13206
-0.0738327 -1.14822 2.94548
3.23951 -0.634702 1.36121
3.14617 -1.46372 1.74184
2.92124 -2.18747 1.51465
0.109231 0.183331 3.33573
2.53371 -2.40374 1.50306
1.39312 -1.21277 2.61907
3.02374 -1.96405 1.65759
0.147573 -0.117545 3.24991
-0.360385 -1.08136 3.05157
0.931764 -2.31396 1.98302
1.19045 -2.17932 2.10068
1.43394 -0.860785 2.69105
-0.128251 -1.73313 2.60087
0.570898 -1.27386 2.75718
-0.261206 -0.822012 3.14861
2.79938 -1.97072 1.8415
-0.586555 -1.95803 2.50176
0.80441 -2.23671 2.07486
0.604599 -1.48338 2.64948
-0.281318 -1.34714 2.88384
0.894951 -1.34625 2.66859
2.75276 -2.42213 1.16772
0.0882916 -0.191035 3.25382
2.74402 -2.44742 0.964311
3.40517 -1.532 1.07727
-0.127961 -2.01365 2.37421
2.91956 -1.50371 1.95345
2.97837 -1.18203 1.92434
2.69355 -2.47452 0.891843
2.29621 -0.574731 2.34748
0.570676 -0.509346 3.01186
2.58182 -2.47204 1.28577
2.75354 -0.771886 2.06545
-0.339105 -1.76689 2.6118
2.71845 -0.617157 2.06108
-0.0864728 -1.67064 2.63874
3.36948 -1.58905 1.26227
2.99799 -0.243513 1.57643
3.2664 -1.61005 1.53109
0.0314269 -0.879259 3.04205
1.77587 -0.152215 2.58378
2.21942 -0.66452 2.39728
-0.172106 -1.40451 2.82622
2.1802 -2.52966 1.4556
1.48539 -2.16762 2.08096
2.69437 -2.47418 0.939494
3.01118 -1.52998 1.87189
0.685705 -1.84322 2.41932
0.0500392 -0.317455 3.23237
0.131546 -0.0674388 3.26848
2.7598 -2.13911 1.72314
2.86438 -0.477354 1.87585
0.475752 -1.92045 2.38353
2.68488 -2.26578 1.6223
0.460099 -0.338734 3.08591
0.996269 -1.65343 2.50228
2.67001 -2.48476 0.986466
2.98222 -2.24045 0.657614
3.03605 -2.02364 1.58654
3.12768 -2.07841 1.35279
2.55827 -1.52126 2.16805
-0.097143 -2.02753 2.35766
2.06825 -1.04446 2.4551
-0.0582438 -1.82929 2.51783
1.51944 -0.0219996 2.70135
2.9536 -0.528667 1.79161
2.04336 -2.05893 2.07756
2.31128 -2.06573 1.99897
2.67617 -2.47758 0.778215
0.874743 -1.66383 2.51236
1.26416 -0.970482 2.71517
2.97217 -1.79404 1.81698
2.24847 -1.32791 2.34276
2.71397 -2.14098 1.75201
2.51884 -2.53286 1.13088
2.07368 -1.31284 2.40798
3.35704 -1.65357 1.26213
0.461009 -1.30882 2.76046
2.6403 -2.49583 0.771567
-0.633791 -1.97805 2.49391
3.13786 -2.07407 1.33557
1.82118 -1.46922 2.43596
1.64625 -1.89415 2.26734
-1.03376 -2.35758 2.20668
-1.22546 -2.47113 2.13682
-0.884999 -2.52814 1.95238
-1.54843 -2.8695 1.7401
-0.279927 -2.20599 2.20982
-0.880485 -2.16596 2.37184
-0.560753 -2.69294 1.63211
-0.823732 -2.23867 2.28075
-1.19909 -2.79772 1.67468
-0.529575 -2.39558 2.03764
-0.20312 -2.61449 1.68608
-0.888158 -2.44919 2.0543
-1.15527 -2.87858 1.52435
-1.33744 -2.86959 1.62572
-1.0988 -2.91311 1.43949
-1.30523 -2.66669 1.91316
-0.580751 -2.56913 1.82147
-1.03913 -2.46023 2.08536
-0.27822 -2.49263 1.8717
0.253129 -2.30531 2.0425
-1.25287 -2.68494 1.86513
0.240856 -2.33572 2.00884
-0.311445 -2.56998 1.76947
-1.37958 -2.6607 1.95472
-0.875843 -2.9431 1.28864
-1.24588 -2.76999 1.73762
-0.368247 -2.61233 1.71696
-0.191701 -2.24495 2.15635
-0.853404 -2.90902 1.34513
-1.45115 -2.71884 1.9084
-1.02409 -2.83898 1.53578
0.206177 -2.26403 2.09214
-1.24007 -2.78384 1.71401
-1.21299 -2.61292 1.94881
-0.11363 -2.26453 2.12522
-0.744978 -2.66334 1.72404
-1.00098 -2.20835 2.36172
-1.11102 -2.7793 1.66687
-0.529653 -2.12546 2.33333
-0.262729 -2.39292 1.99676
-0.752393 -2.76575 1.56454
-0.869891 -2.36826 2.14708
-0.836029 -2.77642 1.57278
-1.29154 -2.91203 1.5331
-0.759188 -2.15185 2.35573
-0.763159 -2.45417 2.01566
-1.25621 -2.36848 2.27105
-1.36942 -2.92094 1.55881
-0.792291 -2.5261 1.93006
-0.270193 -2.295 2.11226
