ply
format ascii 1.0
comment Created by Open3D
element vertex 400
property double x
property double y
property double z
end_header
-1.82103 -1.35703 -0.743554
-3.13911 -2.14805 -0.667068
-1.40142 -1.59331 -0.70213
-2.10144 -3.0678 0.551325
-1.80795 -1.35455 -0.743598
-0.714042 -1.55827 0.791008
-0.61022 -1.27897 -0.436193
-1.33758 -2.13058 -0.416461
-1.41482 -2.12154 -0.483276
-1.75358 -2.71369 -0.0179857
-2.74311 -2.52997 -0.641977
-1.9828 -2.70862 -0.322832
-2.58327 -2.61052 -0.60368
-0.435782 -0.956958 -0.424133
-1.54323 -1.11346 -0.72313
-0.517099 -1.23333 -0.364777
-0.68529 -1.6865 0.222972
-0.73479 -1.39847 -0.477807
-2.53579 -2.6308 -0.58901
-3.2814 -2.48382 -0.634779
-2.35492 -1.90939 -0.734765
-0.685637 -1.68499 0.0683807
-1.94457 -2.56113 -0.443982
-1.71974 -0.75051 -0.645639
-1.62161 -1.02701 -0.71051
-1.9035 -1.95164 -0.712885
-2.47623 -2.66146 -0.564807
-1.5221 -1.118 -0.7234
-1.21743 -2.275 0.162619
-0.89647 -1.64885 -0.450767
-2.2139 -3.15498 0.399808
-2.01836 -2.72251 -0.334067
-0.501966 -1.20507 -0.366668
-1.82474 -2.82171 0.63587
-0.781752 -1.47003 -0.474536
-1.88989 -2.56079 -0.41192
-2.77928 -1.79459 -0.700253
-1.84544 -2.78447 -0.0214098
-1.74103 -2.39039 -0.470419
-1.0167 -1.73367 -0.48884
-1.85481 -2.8636 0.383166
-1.10833 -1.10797 -0.688214
-1.24017 -2.24682 0.645646
-1.5495 -1.48982 -0.735396
-1.17584 -2.21332 0.487608
-0.419157 -1.31141 0.30519
-1.77077 -1.94656 -0.694908
-2.08729 -1.47498 -0.741843
-2.25643 -3.19122 0.450804
-2.38995 -2.11831 -0.714617
-0.410298 -1.16627 -0.263676
-2.50197 -1.68805 -0.72399
-0.783227 -0.764783 -0.605592
-1.16823 -1.1204 -0.697686
-2.82527 -2.5824 -0.631343
-1.66018 -2.54003 -0.232362
-1.86751 -2.83646 0.0927391
-1.50958 -2.23791 -0.451125
-1.69607 -1.56253 -0.743134
-1.20008 -1.00315 -0.695004
-2.24178 -3.17882 0.432326
-2.00579 -2.45015 -0.549327
-2.35669 -2.7395 -0.489838
-0.320692 -1.10235 -0.140626
-0.563656 -1.13155 -0.467425
-0.871407 -1.77312 0.7756
-0.397162 -0.972218 -0.380675
-0.861085 -1.54957 -0.4897
-2.70657 -2.56756 -0.629627
-2.01812 -2.46229 -0.546508
-2.36237 -3.26875 0.408841
-0.646528 -1.45157 -0.344448
-2.1021 -2.6564 -0.447025
-1.58455 -2.61057 0.132121
-1.18171 -1.20371 -0.699807
-0.754088 -1.552 -0.3851
-1.6312 -2.36788 -0.418783
-2.20576 -1.82968 -0.74181
-1.93885 -2.93487 0.449891
-0.345526 -1.21383 0.146606
-1.58392 -0.728004 -0.649341
-0.665029 -0.753481 -0.571025
-0.983711 -1.62516 -0.533037
-1.03759 -0.653375 -0.628398
-1.13482 -2.16659 0.502528
-0.621002 -1.14226 -0.506017
-1.74475 -2.7684 0.339577
-1.51021 -2.55644 0.403443
-1.75314 -2.59309 -0.26036
-0.955228 -1.77599 -0.397652
-1.32567 -1.19315 -0.718224
-1.36442 -2.38591 -0.00843164
-1.91435 -0.860219 -0.655734
-0.623401 -1.55181 -0.151227
-1.78753 -2.51426 -0.387656
-1.45189 -2.17997 -0.460644
-0.700326 -1.22704 -0.529565
-0.88074 -1.76994 -0.30984
-1.62472 -0.717421 -0.643977
-2.3716 -2.73039 -0.500509
-1.72923 -2.729 0.669248
-1.01404 -2.01631 0.571486
-2.41841 -1.71766 -0.732638
-0.953492 -1.98282 0.410174
-2.15688 -2.52153 -0.55771
-1.41547 -2.46382 0.164689
-1.17108 -2.21824 0.0654277
-1.3284 -0.950427 -0.69762
-1.98062 -2.71867 -0.309135
-2.64314 -3.48819 0.747847
-1.9375 -1.67412 -0.747978
-2.82208 -2.47459 -0.656501
-0.996809 -1.94609 -0.229797
-1.85361 -1.11271 -0.713638
-0.724986 -1.0712 -0.580137
-0.787648 -1.20657 -0.583296
-1.59937 -2.06577 -0.608582
-1.5877 -1.67455 -0.720958
-1.37786 -2.25665 -0.310131
-1.56944 -2.41346 -0.313131
-0.666153 -0.987667 -0.564776
-2.50046 -2.74462 -0.527747
-1.17574 -0.920142 -0.684114
-2.25482 -1.44756 -0.727177
-1.77553 -2.32615 -0.534415
-2.43101 -2.53827 -0.610159
-1.10656 -2.10516 -0.124797
-2.06168 -1.53181 -0.746303
-1.09699 -2.1354 0.0154123
-1.37637 -1.88264 -0.607689
-2.53575 -2.48092 -0.642558
-0.55821 -1.52133 0.219089
-2.17126 -2.08965 -0.710478
-1.39729 -2.3735 -0.131784
-1.15015 -1.97359 -0.40052
-2.31299 -1.5738 -0.733318
-1.22031 -2.23737 0.598716
-1.44184 -2.2292 -0.406854
-1.06014 -2.07733 0.536226
-0.457024 -1.12609 -0.365392
-1.88704 -2.86071 0.130233
-1.31015 -0.789218 -0.669706
-2.82001 -2.55798 -0.637476
-3.15484 -2.48782 -0.643759
-1.57784 -0.934355 -0.695716
-1.35049 -2.39052 0.505901
-1.71039 -2.37562 -0.464462
-2.33161 -3.24845 0.443003
-1.71699 -2.61432 -0.180221
-1.51614 -1.2358 -0.732906
-1.29387 -2.35349 0.290084
-2.05415 -2.11187 -0.694647
-1.21252 -1.59949 -0.650883
-2.40272 -2.28606 -0.684352
-0.592518 -0.790162 -0.544744
-1.15207 -2.02533 -0.343876
-1.9856 -2.72136 -0.309939
-1.36087 -2.33368 -0.149507
-0.840771 -1.74423 0.751981
-1.41881 -2.46134 0.120113
-0.999248 -2.04774 0.112787
-1.27978 -2.20894 -0.250592
-3.19792 -2.44761 -0.645416
-2.16283 -2.90126 -0.228948
-1.71318 -1.21736 -0.733504
-1.97928 -2.95828 0.635395
-2.19358 -2.53431 -0.561371
-0.680681 -1.67316 0.0226284
-1.25121 -2.24612 0.691334
-1.9591 -1.99412 -0.710499
-2.64128 -2.29264 -0.689719
-2.19486 -2.9365 -0.208465
-0.697038 -1.69799 0.261931
-1.82113 -2.78756 0.0469832
-1.26789 -2.30944 0.487715
-1.76265 -2.64664 -0.185238
-1.0336 -2.05138 0.519821
-2.02692 -2.11185 -0.691234
-1.59411 -2.45461 -0.283412
-0.448699 -1.13551 -0.34864
-1.47637 -1.36108 -0.733275
-2.5811 -2.06529 -0.717149
-1.7442 -1.75115 -0.729375
-1.88626 -2.80585 -0.0472347
-2.2339 -1.28492 -0.707929
-1.48107 -1.51733 -0.725527
-1.26817 -1.29401 -0.710635
-0.84912 -1.83601 -0.119353
-1.66033 -2.63601 -0.025271
-0.900676 -0.869614 -0.640354
-2.42998 -2.81804 -0.461915
-1.25002 -1.73107 -0.620371
-0.935228 -1.09804 -0.651143
-0.400225 -0.885995 -0.415008
-1.69596 -2.69119 0.70411
-0.799935 -1.62681 -0.367674
-0.999765 -1.15413 -0.664681
-1.4755 -1.44793 -0.730148
-1.27238 -2.21569 -0.227095
-2.15104 -1.46771 -0.737336
-1.08451 -1.44124 -0.64864
-0.997716 -1.02027 -0.666758
-1.84953 -2.84196 0.65037
-1.53545 -2.57582 0.461347
-1.87239 -1.1252 -0.714436
-1.45765 -2.4749 0.631049
-1.2393 -2.05428 -0.404223
-0.650594 -1.63753 0.0364069
-2.19291 -1.40777 -0.728312
-2.27817 -1.52928 -0.732796
-1.56023 -2.56001 -0.000989366
-2.26773 -3.15713 0.169587
-0.69899 -1.69941 0.0496243
-0.862799 -1.68926 -0.380143
-1.16365 -2.11341 -0.228164
-1.83791 -1.9037 -0.714551
-1.1247 -2.18232 0.29181
-1.99763 -2.61607 -0.426233
-1.51442 -1.25711 -0.733931
-2.12755 -1.77015 -0.745237
-0.860325 -0.782605 -0.624446
-0.899948 -1.94189 0.159365
-0.95004 -1.98162 0.0119778
-2.67399 -3.5083 0.8066
-0.624354 -1.50733 -0.237525
-2.30253 -1.73635 -0.740551
-0.768986 -1.78957 0.215945
-0.679008 -1.67471 0.0492687
-1.05835 -2.11167 0.133506
-1.51162 -0.696915 -0.64505
-0.61882 -1.55898 0.457314
-2.90158 -2.0146 -0.69401
-2.39707 -1.98683 -0.728768
-0.79156 -1.81192 0.279944
-0.706076 -1.61161 -0.238718
-0.703612 -1.34756 -0.480172
-1.42043 -1.50072 -0.718514
-0.445687 -1.34289 -0.0458392
-1.97034 -1.92306 -0.724689
-2.05263 -1.34416 -0.732098
-1.1992 -2.25879 0.19571
-1.53367 -2.03107 -0.600604
-2.15482 -3.1105 0.579903
-1.07457 -2.09704 -0.0511156
-0.958173 -1.98983 0.00921016
-0.568132 -1.40694 -0.270585
-0.899076 -1.76162 -0.346106
-2.23782 -3.08087 0.00463396
-1.89387 -1.05477 -0.700556
-1.70023 -2.29062 -0.522807
-1.18555 -1.70517 -0.603507
-2.89606 -2.56698 -0.6368
-1.77088 -2.78114 0.572667
-1.18199 -2.23973 0.161211
-1.65648 -2.35235 -0.45051
-1.68587 -2.65556 -0.028997
-0.733165 -0.876565 -0.596911
-2.24611 -2.27574 -0.673598
-1.53263 -1.55917 -0.728052
-1.65866 -2.56175 -0.192973
-0.494701 -1.32875 -0.230989
-0.644654 -1.61198 -0.0555097
-2.15807 -2.13528 -0.70001
-0.831087 -1.7459 0.718282
-2.37096 -1.8028 -0.737089
-2.19372 -2.72995 -0.431481
-2.83667 -2.34958 -0.677721
-0.466329 -1.38558 0.279539
-2.17098 -1.9854 -0.727303
-1.87994 -0.90835 -0.670868
-2.2898 -2.75076 -0.457471
-1.22995 -1.98176 -0.463401
-2.33257 -1.32751 -0.703369
-1.57119 -0.702752 -0.643456
-2.98399 -2.20357 -0.682061
-1.5766 -2.10063 -0.582242
-0.385668 -1.12251 -0.263753
-1.24808 -1.39238 -0.699848
-1.72335 -2.37721 -0.470826
-0.464924 -1.37831 -0.0165908
-2.4165 -2.36329 -0.666081
-0.646384 -1.52279 -0.25818
-1.90678 -1.31566 -0.737409
-0.641814 -1.63315 0.189538
-0.685229 -0.845121 -0.580529
-1.31071 -1.41019 -0.709696
-1.43974 -2.49323 0.283466
-1.81263 -1.75058 -0.735831
-0.736612 -0.918338 -0.597651
-1.04964 -2.02839 -0.172984
-0.886993 -1.77479 -0.312735
-0.462179 -1.24927 -0.267733
-1.35457 -2.07319 -0.480637
-1.75683 -2.5855 -0.275229
-0.328306 -0.972904 -0.29349
-1.39967 -2.44703 0.44691
-1.63416 -2.57279 -0.132155
-1.6764 -2.55428 -0.229749
-2.17572 -2.30791 -0.654412
-1.72021 -2.14624 -0.612337
-0.820947 -1.32523 -0.567175
-1.26703 -1.96105 -0.505968
-3.22509 -2.47185 -0.640681
-2.58727 -2.37834 -0.672507
-2.33727 -1.54634 -0.72912
-1.87472 -2.86261 0.66387
-1.67383 -1.14484 -0.725998
-0.868965 -1.80491 -0.236124
-1.00722 -2.04523 0.397771
-1.22603 -2.12442 -0.304895
-1.79132 -1.45824 -0.748162
-1.10838 -2.15541 0.398052
-1.76695 -1.5088 -0.748004
-1.199 -2.19626 0.667808
-2.54634 -2.06243 -0.718732
-1.27094 -1.78639 -0.606245
-1.63064 -2.65671 0.538453
-2.84924 -2.41071 -0.66808
-1.52856 -2.57143 0.436432
-0.571147 -1.51767 0.362615
-1.6822 -1.93103 -0.682081
-1.27142 -2.31835 0.451961
-2.69981 -2.42578 -0.665321
-2.28033 -1.30115 -0.705318
-2.2469 -2.01401 -0.725884
-2.95379 -2.63493 -0.621067
-1.59523 -1.52549 -0.737496
-1.25226 -2.28375 0.540844
-0.379351 -1.2405 -0.0487259
-1.4525 -2.39856 -0.181456
-0.598081 -1.02491 -0.523137
-1.07395 -0.910472 -0.672235
-1.51081 -1.2671 -0.734198
-1.59853 -2.37399 -0.387144
-2.04295 -2.76726 -0.300825
-2.03827 -1.86038 -0.737179
-1.1262 -2.12524 0.635448
-2.18165 -2.71215 -0.440194
-1.0341 -1.91132 -0.33981
-0.449687 -1.35849 -0.00533647
-1.00756 -2.05874 0.271018
-1.37213 -1.8974 -0.599068
-1.58468 -2.625 0.413194
-1.15825 -1.55391 -0.645223
-1.83457 -2.3965 -0.514227
-1.14497 -1.48665 -0.657976
-1.46479 -2.48096 0.636033
-1.04722 -1.88066 -0.390326
-1.51002 -1.85667 -0.662898
-0.97718 -1.9654 -0.145084
-0.32037 -1.10791 -0.129924
-1.4068 -2.45648 0.171283
-1.48023 -2.22621 -0.440297
-1.58922 -1.67057 -0.721773
-1.87807 -2.87867 0.546692
-0.543849 -1.43455 0.521801
-1.96689 -2.95005 0.611554
-1.61905 -2.64515 0.544543
-2.17736 -1.36144 -0.724245
-2.48654 -3.36781 0.733468
-0.944024 -0.823316 -0.644154
-1.69232 -1.88472 -0.696448
-0.790375 -1.67552 0.759695
-0.831346 -1.69504 -0.333244
-0.660897 -1.65452 0.238079
-1.95768 -2.19215 -0.655412
-0.888667 -1.87192 0.561757
-0.603833 -1.55896 0.376504
-0.418324 -1.15453 -0.289137
-0.707429 -1.7016 0.334056
-0.479648 -1.41241 0.0673841
-1.56976 -1.40999 -0.739742
-0.694628 -1.52477 0.80426
-1.45888 -2.49244 0.0885747
-2.02541 -1.66815 -0.748875
-1.71171 -0.842595 -0.66939
-3.09259 -2.46322 -0.650743
-0.483471 -1.40248 -0.0275539
-0.505382 -1.42684 0.358308
-1.37433 -1.58865 -0.69731
-1.48855 -0.735792 -0.655859
-2.54584 -2.48147 -0.643264
-0.587173 -1.46657 0.600606
-2.43812 -1.92468 -0.731094
-1.40579 -2.44713 0.104662
-1.75998 -1.0845 -0.7144
-1.44222 -2.32878 -0.285686
-0.534319 -1.35447 -0.274875
-1.40992 -2.44431 0.540699
-1.84205 -1.60187 -0.748308
-1.82005 -1.1653 -0.723531
-0.417305 -1.29331 -0.0685678
-0.993215 -2.02897 0.401962
-0.472396 -0.995214 -0.442761
-1.79671 -1.1776 -0.726289
-1.74318 -1.85065 -0.712383
-0.41265 -1.30259 0.299643
-0.463816 -0.823644 -0.475464
-0.715415 -1.18483 -0.5515
-2.18021 -2.91825 -0.220945
