ply
format ascii 1.0
comment Created by Open3D
element vertex 250
property double x
property double y
property double z
end_header
-0.844777 0.6396 -0.889588
-2.79605 -0.0401628 -1.17404
-2.37579 -0.636091 -0.406945
-0.752268 -0.46248 -0.147723
-1.32094 -0.585064 -0.0468772
-0.983859 -0.478582 0.121393
-0.57754 -0.390851 -0.0357572
-3.67711 -0.459067 -0.299589
-0.413687 1.11506 -0.691238
0.408711 1.39629 1.09182
-0.393686 -0.300499 -0.0378907
-0.0437863 1.13325 -0.454961
-4.65124 -0.225681 -0.386726
-0.325484 0.499642 -0.610898
-1.21449 -0.583975 -0.155675
-1.91547 -0.131226 -1.01666
0.380608 0.517102 0.271455
-1.36769 -0.369291 -0.728241
-0.730958 0.699622 -0.84442
-0.72286 -0.300656 -0.491393
-2.28701 0.145706 -1.19773
-0.236833 -0.15515 -0.196689
0.474106 1.26997 0.937355
0.0614351 0.300113 0.606781
-1.14672 -0.289344 -0.713634
-0.592858 0.590249 -0.768994
0.618624 1.82803 0.466966
-0.0603572 0.000469023 0.311985
-6.07671 0.224772 -0.389287
0.0150278 0.0696767 0.330633
0.0998317 2.36475 -0.119197
0.39766 1.62145 1.21138
0.461061 0.904968 0.108267
0.0352986 0.328167 0.661238
-0.574078 0.772276 -0.773944
0.37741 0.614878 0.0704667
-0.982172 -0.355622 -0.585246
-5.47124 0.462947 -1.28153
-5.90523 0.503656 -1.19498
-2.02294 -0.555482 -0.657829
-6.63544 0.555768 -0.90311
0.458144 1.69113 0.105618
-1.57756 -0.419189 -0.743835
-2.35804 -0.547363 -0.691788
0.352774 0.463848 0.277674
-4.88236 -0.108896 -0.715456
-1.25601 -0.578836 -0.339967
-5.06126 0.0430959 -0.9363
-5.87315 0.679478 -1.35851
-0.137338 0.975512 -0.524568
0.277726 0.617559 -0.109611
-3.78851 0.479749 -1.44581
-6.43103 1.2614 -1.60497
-4.81132 -0.0583619 -0.881193
-1.98474 -0.649168 -0.214394
-3.98539 -0.394122 -0.403614
-0.0512336 0.184003 0.576614
-0.0470956 0.036556 0.362577
-0.274234 0.909691 -0.612414
-0.399487 -0.268951 -0.223386
-6.55188 0.401466 -0.470332
-4.91632 0.100596 -1.07411
-4.69209 -0.117709 -0.827205
-4.36052 -0.302699 -0.41311
-0.806101 -0.2941 -0.549488
-5.85263 0.376717 -1.06639
-0.536143 0.113937 -0.636797
-1.33278 0.0656641 -0.952771
0.337318 1.18066 -0.106642
-6.31662 1.09719 -1.53832
-4.40738 -0.194369 -0.819973
0.0449021 0.121292 -0.133298
-2.85873 -0.562359 -0.587463
0.174888 0.877566 -0.272667
-0.630093 -0.375964 0.128114
-0.0668845 -0.0698214 0.0645424
-4.14587 0.0939454 -1.22654
-6.12706 0.535921 -1.14858
0.627349 1.59874 0.468853
-1.75097 0.236215 -1.11825
0.421885 0.899332 0.75229
-0.600466 -0.32873 -0.358131
-0.116231 1.15545 -0.505344
-0.344844 -0.160605 -0.329084
-0.321024 0.0013651 -0.443067
0.0444591 0.0362131 0.090893
-1.5996 -0.633589 -0.188178
-1.58581 0.145992 -1.05083
0.642315 1.58703 0.647243
-1.13062 -0.539197 0.0223078
-3.43026 -0.482669 -0.588939
-4.69904 -0.159545 -0.71747
-0.855131 -0.494412 -0.201684
0.139582 0.534495 -0.25241
-2.99674 -0.414188 -0.860047
-0.726322 -0.334509 0.293194
-0.411166 -0.300434 -0.145434
-0.0779522 0.0783505 -0.264964
0.626302 1.50469 0.717202
-1.60824 0.158614 -1.0605
0.293759 0.886177 -0.146533
-3.23678 -0.27823 -0.997722
-2.24381 -0.491525 -0.773845
-0.204617 0.381433 -0.508755
-1.0502 0.44817 -0.947998
-1.11325 -0.534727 -0.377112
-1.58852 0.0809109 -1.03078
-2.26661 -0.62777 -0.1205
0.600189 1.60876 0.879721
-3.72791 -0.449919 -0.325768
-1.56268 -0.53654 -0.593188
-2.25746 -0.336498 -0.935118
-1.82465 0.404783 -1.17583
-3.52002 -0.445536 -0.663837
-3.28249 -0.162979 -1.09942
-0.0783169 1.13547 -0.479761
-4.7144 -0.205485 -0.459744
0.564311 1.94618 0.353694
-2.52636 -0.623406 -0.208073
-4.35973 0.634533 -1.50589
-3.28826 0.215761 -1.32366
0.575876 1.15927 0.34933
-2.75671 -0.570524 -0.592601
-5.53845 0.569017 -1.34962
0.556732 1.04079 0.345821
-5.5448 0.662235 -1.41258
0.525316 1.92207 0.268688
-0.0040113 1.82068 -0.340911
0.622341 1.44519 0.687914
-2.89093 -0.084325 -1.15393
0.286013 1.10098 -0.16591
-1.27001 -0.149959 -0.842683
0.222116 1.6274 -0.180769
-5.3085 -0.0188359 -0.550971
-5.20352 0.246663 -1.15005
-0.0144185 1.62955 -0.382244
-0.78912 -0.375221 -0.447098
-0.871942 -0.255775 -0.617216
-3.40477 0.07163 -1.25429
-6.25893 0.687294 -1.25887
0.355815 0.561797 0.060325
-2.77598 -0.59617 -0.474165
-1.82703 0.339553 -1.16216
-5.46538 0.020248 -0.442176
-1.85122 -0.594472 -0.553581
-3.07305 -0.505558 -0.681754
-0.471726 -0.301362 -0.259168
-2.10671 -0.392641 -0.869064
0.38885 0.789049 0.706376
-6.21424 0.305072 -0.643142
-6.43855 0.936287 -1.4123
-3.36032 -0.519643 -0.424892
0.372007 0.57586 0.489865
0.122312 0.125843 0.183979
-3.5847 -0.212624 -1.02721
-0.00535549 0.246991 0.609106
-0.237145 -0.144774 -0.215953
-1.24988 -0.544105 0.0681899
0.366499 0.944113 -0.0599569
-1.97737 -0.315826 -0.914048
0.522991 1.05673 0.691498
0.250599 0.506509 -0.103047
0.0929146 1.17277 -0.346392
-2.52065 -0.532243 -0.715133
0.518231 0.874913 0.339245
0.540085 1.05133 0.262345
-2.18083 -0.218128 -1.01101
-3.71402 -0.446238 -0.495568
0.275621 0.549906 -0.0854714
-3.33254 -0.193259 -1.07111
-6.49594 0.512583 -0.920979
-3.79856 -0.262464 -0.926442
-4.02287 0.0759933 -1.22662
-0.667709 0.7294 -0.817078
-0.967655 -0.445786 -0.463869
-0.636649 0.262089 -0.734179
-1.46753 -0.263966 -0.83709
-1.03938 -0.541689 -0.263357
-1.85263 0.03059 -1.07536
0.124113 1.85787 -0.22715
-1.25377 -0.553465 -0.425694
-1.76736 -0.420902 -0.786612
-2.58207 -0.566293 -0.638839
-0.181723 -0.0087674 -0.308506
-5.60373 0.367263 -1.15216
-4.59102 -0.136917 -0.842693
-0.178276 0.44457 -0.504426
0.229183 1.71039 -0.159157
0.522065 1.33997 0.170051
-4.12261 -0.362215 -0.389201
0.409844 2.05093 0.126666
-0.0696088 1.76693 -0.400692
-0.177516 0.557432 -0.523969
-5.93019 0.197954 -0.612989
-5.11142 -0.0608439 -0.647012
0.546486 1.45315 0.223726
-2.39876 -0.138932 -1.08497
0.419842 0.611814 0.232242
0.390435 0.665786 0.572346
-0.0203993 0.0811253 0.404019
-0.826172 3.12095 -0.559214
-0.777999 1.50726 -0.851937
-3.17508 4.15948 -1.31169
-2.82996 5.52006 -0.81014
-4.7785 7.89172 -0.817292
-4.21864 7.40479 -0.75989
-0.640354 2.62415 -0.584298
-2.64913 4.89177 -0.928848
-2.83358 4.05774 -1.21819
-1.46392 2.31283 -1.0473
-0.487714 1.91992 -0.64529
-1.90991 3.04158 -1.09388
-0.463185 2.19673 -0.577587
-0.733784 2.425 -0.684117
-3.20417 4.23689 -1.30456
-2.67843 4.04874 -1.16455
-0.387167 2.69028 -0.406332
-3.76476 5.53231 -1.17736
-1.85902 4.73712 -0.607894
-2.779 4.97202 -0.959434
-4.54004 6.84312 -1.07378
-0.721934 2.42652 -0.677276
-2.04799 4.99681 -0.615094
-1.30029 4.0921 -0.525486
-4.9536 7.20678 -1.10973
-4.86328 7.90242 -0.84745
-1.13376 2.99343 -0.760766
-3.65057 4.6298 -1.36185
-4.05945 7.0402 -0.822159
-0.729258 1.31788 -0.843484
-3.81234 5.61045 -1.17282
-0.681173 1.41723 -0.812888
-0.829474 1.54775 -0.872376
-4.23355 7.38651 -0.772766
-3.57507 6.28309 -0.878046
-4.05944 5.34965 -1.3238
-2.19302 5.18752 -0.62173
-1.52747 4.41672 -0.541106
-1.24167 4.21581 -0.448172
-0.805963 1.80794 -0.831078
-1.59004 3.57917 -0.831231
-4.97074 6.77282 -1.24321
-3.04824 6.32425 -0.62897
-5.19749 8.06056 -0.922413
-2.01813 3.18682 -1.10649
-3.54624 6.61907 -0.750411
-1.11452 1.77705 -0.975211
-4.5849 6.95156 -1.0565
-4.46333 7.34854 -0.880263
-1.90891 4.03655 -0.852728
