ply
format ascii 1.0
comment Created by Open3D
element vertex 250
property double x
property double y
property double z
end_header
-0.819872 0.257114 -1.08435
-0.531162 -0.742291 -2.89218
0.161285 -1.15229 -2.20472
0.306576 -0.372015 -0.754475
0.3234 -0.803209 -1.15743
0.288678 -0.726375 -0.775113
0.273366 -0.350498 -0.538533
-0.253798 -2.00183 -3.12248
-1.19786 0.397623 -0.547109
-1.25281 -0.506257 1.21774
0.219279 -0.23105 -0.381125
-1.13723 0.432438 -0.113408
-0.669708 -2.4958 -3.8932
-0.574307 0.334149 -0.535998
0.338373 -0.652733 -1.14004
-0.26996 -0.348188 -2.12738
-0.425668 0.0555998 0.549236
0.0776148 -0.270179 -1.56788
-0.855646 0.294382 -0.958136
0.14059 -0.0669374 -0.911121
-0.61848 -0.402874 -2.47818
0.100331 0.00168339 -0.329817
-1.12224 -0.354817 1.15366
-0.260481 -0.420998 0.465764
0.0413548 -0.142731 -1.37328
-0.719484 0.307693 -0.82395
-1.66006 0.15377 1.07842
-0.000291704 -0.28458 0.141394
-1.3806 -3.3089 -4.92682
-0.053308 -0.24842 0.22326
-2.30629 0.355639 0.413249
-1.47143 -0.588974 1.3201
-0.797181 0.266697 0.580209
-0.290925 -0.477634 0.483119
-0.894762 0.338346 -0.780953
-0.529665 0.222073 0.442287
0.142172 -0.152104 -1.17911
-1.53322 -2.21553 -4.95295
-1.65178 -2.54083 -5.23156
0.139413 -0.734369 -2.06757
-1.82978 -3.20604 -5.61487
-1.56934 0.333861 0.711803
0.0864391 -0.387649 -1.74928
0.0670132 -0.907255 -2.34754
-0.378423 0.0294575 0.522145
-0.840057 -2.36243 -4.2514
0.31868 -0.530373 -1.28271
-1.03112 -2.28072 -4.49778
-1.82433 -2.37644 -5.27498
-1.00265 0.418466 -0.255428
-0.557754 0.306047 0.256461
-1.23855 -1.07583 -3.73924
-2.50971 -2.46469 -5.75777
-0.882392 -2.1836 -4.28743
0.254968 -1.07264 -1.78634
-0.379503 -2.09803 -3.41407
-0.168892 -0.47429 0.339839
-0.0313337 -0.313869 0.188471
-0.967111 0.400882 -0.42636
0.18036 -0.0841017 -0.492162
-1.64658 -3.51381 -5.3152
-1.06532 -2.0793 -4.45821
-0.799674 -2.16026 -4.17225
-0.540294 -2.30728 -3.69607
0.116313 -0.0699455 -1.00986
-1.51253 -2.62254 -5.13487
-0.23646 0.195884 -0.782085
-0.350967 -0.0334928 -1.60128
-1.09902 0.387207 0.401673
-2.32453 -2.46324 -5.65676
-0.6705 -2.00208 -3.95945
-0.115501 0.143355 -0.0245969
-0.00880126 -1.29138 -2.67693
-0.838339 0.39644 0.122792
0.254914 -0.511212 -0.477975
0.0583002 -0.0973813 -0.0251446
-0.91919 -1.49721 -3.95158
-1.72355 -2.70785 -5.37068
-1.43333 0.138009 1.04684
-0.603304 -0.137567 -1.99732
-0.775198 -0.270177 0.937442
0.196148 -0.102186 -0.740246
-1.17454 0.431082 -0.196388
0.0804216 0.0420024 -0.494749
-0.0782596 0.160809 -0.51709
-0.0237927 -0.0426987 0.0957092
0.313257 -0.861622 -1.46801
-0.481131 -0.100054 -1.8436
-1.41242 0.00389184 1.16414
0.316829 -0.740471 -0.959611
-0.194808 -1.6256 -3.10901
-0.755865 -2.25537 -4.11863
0.316523 -0.393333 -0.872623
-0.507565 0.330018 0.0484191
-0.190318 -1.14431 -2.92336
0.2022 -0.696781 -0.446109
0.211939 -0.155855 -0.45963
-0.101394 0.171022 -0.207103
-1.33204 -0.068411 1.17971
-0.498104 -0.10471 -1.86472
-0.819712 0.367877 0.292943
-0.374094 -1.16681 -3.16989
0.030713 -0.76877 -2.29852
-0.431733 0.315114 -0.400626
-0.672897 0.164387 -1.3125
0.300933 -0.411568 -1.18639
-0.417029 -0.123172 -1.84482
0.184304 -1.31436 -1.94541
-1.43307 -0.204643 1.2754
-0.273322 -2.01062 -3.17625
0.209986 -0.508694 -1.66699
-0.129968 -0.635316 -2.37976
-0.784754 -0.1215 -2.06038
-0.250943 -1.61653 -3.2177
-0.499579 -1.10339 -3.247
-1.14684 0.431706 -0.154875
-0.704138 -2.47374 -3.98296
-1.79045 0.22151 0.988128
0.127811 -1.39975 -2.19972
-1.50036 -1.35682 -4.19351
-0.880651 -0.89606 -3.32157
-1.01618 0.165046 0.858903
0.0182548 -1.2269 -2.60202
-1.6525 -2.19253 -5.0281
-0.903646 0.146312 0.821467
-1.74751 -2.13827 -5.05498
-1.77729 0.26382 0.902311
-1.80013 0.423826 0.104843
-1.27547 -0.0525117 1.1487
-0.504967 -0.81887 -2.96152
-1.03269 0.396924 0.312231
-0.123452 -0.101915 -1.52312
-1.5619 0.415236 0.344229
-1.00269 -2.7409 -4.46835
-1.26562 -2.17835 -4.70246
-1.61606 0.434276 0.0388616
0.202914 -0.148222 -0.948817
0.0637832 -0.0521643 -1.09539
-0.758603 -1.03331 -3.39524
-1.90104 -2.6861 -5.51382
-0.482019 0.212711 0.410208
0.0441737 -1.33495 -2.54996
-0.720681 -0.139353 -2.06522
-1.06659 -2.91816 -4.51808
0.213908 -0.717908 -1.87769
-0.108437 -1.33976 -2.89089
0.197224 -0.101605 -0.57558
-0.0440059 -0.602447 -2.23222
-0.674897 -0.262757 0.86501
-1.49473 -3.18223 -5.17327
-2.18494 -2.65028 -5.70336
-0.139265 -1.71752 -2.96193
-0.476869 -0.118512 0.684488
-0.0936304 -0.062613 0.227942
-0.505161 -1.34604 -3.44724
-0.220855 -0.467349 0.406018
0.0893769 0.0177213 -0.339898
0.30086 -0.848831 -1.02561
-0.85965 0.347394 0.411807
-0.0966707 -0.482655 -2.14544
-0.912855 -0.147854 1.00658
-0.453643 0.275142 0.22017
-1.14623 0.431167 0.0653487
0.0206552 -0.984729 -2.48561
-0.748358 0.114404 0.758943
-0.920216 0.203726 0.759941
-0.234495 -0.518933 -2.34552
-0.280601 -1.86675 -3.26729
-0.490864 0.279811 0.257734
-0.478251 -1.15847 -3.27409
-1.76176 -3.11196 -5.5245
-0.492836 -1.55857 -3.56149
-0.878387 -1.42503 -3.85896
-0.871933 0.313002 -0.887265
0.237885 -0.247748 -1.11008
-0.404405 0.225862 -0.893574
-0.0485988 -0.234308 -1.69315
0.325901 -0.458539 -1.06143
-0.419087 -0.250057 -2.086
-1.80826 0.413086 0.279654
0.291032 -0.458595 -1.32833
0.0507564 -0.467351 -1.92314
0.0453146 -1.08516 -2.49325
-0.0370737 0.136174 -0.329178
-1.4595 -2.40602 -4.9945
-0.762343 -2.08905 -4.10622
-0.488568 0.3328 -0.366628
-1.64121 0.409305 0.377075
-1.21029 0.290973 0.739945
-0.436151 -2.18895 -3.50669
-1.93077 0.318753 0.748905
-1.76196 0.4276 0.00843388
-0.599907 0.358411 -0.358384
-1.33494 -3.04528 -4.9524
-0.927864 -2.54999 -4.38013
-1.31477 0.27246 0.810853
-0.356039 -0.583776 -2.54616
-0.51267 0.118368 0.572431
-0.558592 -0.165531 0.76411
-0.0685059 -0.327106 0.241945
-3.23926 0.215965 -0.442898
-1.65739 0.340832 -0.860127
-4.72912 -0.502736 -2.54669
-5.98073 -0.579969 -1.74086
-8.67582 -1.53932 -2.85341
-8.09029 -1.29123 -2.46683
-2.71761 0.304976 -0.398987
-5.33445 -0.430551 -1.78
-4.56143 -0.381395 -2.24194
-2.58449 0.154225 -1.37321
-1.99998 0.385098 -0.438319
-3.38547 -0.0137609 -1.62294
-2.2645 0.369382 -0.330663
-2.54348 0.311622 -0.566281
-4.81031 -0.519254 -2.55169
-4.52137 -0.331999 -2.09033
-2.72819 0.320432 -0.0830792
-6.18258 -0.846104 -2.68811
-5.02185 -0.226289 -0.997847
-5.43881 -0.477122 -1.88573
-7.61129 -1.28137 -3.00327
-2.54248 0.313396 -0.552667
-5.31258 -0.311623 -1.10456
-4.28046 -0.0122282 -0.624294
-8.04747 -1.46943 -3.28425
-8.70342 -1.56515 -2.93577
-3.17957 0.181511 -0.825966
-5.28218 -0.70749 -2.86608
-7.70478 -1.17731 -2.44331
-1.46203 0.347187 -0.849715
-6.26806 -0.871571 -2.70895
-1.54933 0.360048 -0.776697
-1.70759 0.329733 -0.905559
-8.07564 -1.29146 -2.48936
-6.87253 -0.907136 -2.23042
-6.0643 -0.921413 -3.03738
-5.52733 -0.37696 -1.1886
-4.64243 -0.108211 -0.754638
-4.38794 -0.0282011 -0.510682
-1.95697 0.333026 -0.817497
-3.84302 0.0142361 -1.12277
-7.62977 -1.41026 -3.45293
-6.80438 -0.786612 -1.66287
-8.92439 -1.69209 -3.21395
-3.54888 -0.0561629 -1.68978
-7.19209 -0.962985 -2.07305
-1.99015 0.260466 -1.15002
-7.72552 -1.31278 -3.00907
-8.08567 -1.34663 -2.73966
-4.35279 -0.120685 -1.30517
