ply
format ascii 1.0
comment Created by Open3D
element vertex 400
property double x
property double y
property double z
end_header
-1.43766 -0.987376 -0.740264
-1.93614 -1.24326 -2.75346
-1.36418 -0.474817 -0.943475
-0.633037 -0.561277 -2.16801
-1.77108 -1.64688 -1.0995
-1.5925 -1.13846 -0.915784
-0.604288 -0.154388 -1.42154
-1.648 -0.767772 -1.22332
-2.02199 -1.29095 -2.71446
-1.6732 -1.67509 -3.60066
-1.22257 -0.831951 -0.513913
-1.31373 -0.35325 -1.41047
-1.14714 -0.761827 -2.45655
-1.84827 -1.04985 -2.47774
-1.60418 -0.745446 -2.13916
-1.15144 -1.1859 -0.397128
-1.29591 -0.767872 -0.621465
-1.34672 -1.28953 -3.18084
-0.766661 -0.0237607 -0.725408
-1.02217 -0.90423 -2.68903
-1.64878 -0.688649 -1.37052
-1.72479 -0.738975 -1.63171
-1.60365 -0.778103 -2.21615
-1.24596 -0.29602 -1.30668
-0.830208 -0.0486984 -0.786449
-1.76334 -0.917273 -1.34141
-0.615024 -0.574724 -2.187
-2.27015 -1.64542 -2.07527
-1.15744 -0.506439 -2.01002
-2.26895 -1.79485 -1.95767
-1.52862 -1.47368 -0.796778
-1.4378 -0.637886 -2.08772
-0.639574 -0.288954 -1.70061
-1.70667 -0.928557 -2.41498
-0.840698 -0.281828 -1.66668
-1.10104 -0.281475 -1.52906
-2.17533 -1.43017 -2.68687
-2.21503 -1.69163 -1.87686
-1.16714 -0.364447 -0.701877
-0.6734 -0.19921 -1.51668
-1.18079 -0.573718 -2.12707
-2.0307 -1.71574 -1.48969
-1.49075 -1.11958 -2.89593
-1.61927 -0.682385 -1.93569
-1.8837 -1.06909 -2.46026
-0.528914 -0.0977244 -1.28931
-2.07935 -1.49715 -1.65603
-1.26144 -0.442461 -1.80342
-2.4345 -2.21768 -2.19138
-1.29932 -0.409357 -1.67013
-1.47872 -1.59174 -3.55048
-0.751471 -0.187691 -1.47849
-1.1093 -0.842457 -2.58816
-1.77438 -1.55866 -3.39766
-1.33956 -1.22576 -3.0952
-1.765 -0.84788 -1.44743
-1.71566 -1.30268 -1.0597
-1.57531 -1.60394 -0.851843
-1.08101 -0.180675 -1.11767
-0.935462 -0.165652 -1.3289
-1.146 -1.17138 -3.05128
-1.93214 -1.54614 -1.35362
-0.863871 -0.275741 -1.64782
-1.47651 -1.4366 -0.736646
-2.05759 -1.74906 -1.53082
-1.38524 -1.10949 -2.91886
-2.24898 -1.86691 -1.87868
-1.51029 -0.6104 -1.0901
-1.42844 -0.738843 -2.2986
-2.13625 -1.54874 -1.7626
-2.09335 -1.42776 -1.73497
-0.598422 -0.117502 -1.33453
-1.44779 -0.749069 -0.845727
-1.56694 -1.63668 -3.58551
-1.76418 -1.01555 -2.52348
-1.74342 -1.38461 -1.08596
-1.2194 -0.579752 -0.604656
-1.08956 -0.666872 -0.410443
-1.90325 -0.961996 -1.83206
-2.06688 -1.62469 -1.57788
-2.15353 -1.38184 -1.9933
-2.35403 -1.92022 -2.11464
-2.1107 -1.25666 -2.1628
-1.8998 -1.04117 -1.58047
-1.86808 -1.17207 -2.70436
-0.988637 -0.125127 -0.9178
-1.44772 -0.630338 -0.931893
-1.96632 -1.0465 -2.06919
-1.25035 -0.390326 -0.824029
-1.57843 -1.23545 -0.877904
-2.26781 -1.51339 -2.42374
-1.63493 -0.726193 -2.03719
-0.713528 -0.294278 -1.70946
-1.49309 -0.847669 -2.45391
-2.17788 -1.41646 -2.03985
-1.26273 -0.440063 -0.782751
-1.89815 -1.02806 -2.3184
-1.38317 -1.10012 -0.651612
-2.15879 -2.12548 -1.66284
-1.89519 -0.996518 -2.22427
-2.07983 -1.22656 -1.99516
-1.9895 -1.07678 -1.9965
-0.883013 -0.501323 -2.0727
-1.47203 -0.81931 -0.847058
-1.10882 -0.477696 -0.518346
-1.97109 -1.10113 -1.74511
-1.84991 -1.06251 -2.50356
-1.89897 -1.34969 -1.35027
-1.93539 -1.18956 -1.51648
-0.911328 -0.564058 -2.17547
-0.940398 -0.099468 -0.888074
-1.77047 -0.981306 -2.44378
-1.28177 -1.07112 -2.89074
-0.872798 -0.359288 -1.81629
-2.05236 -1.53335 -1.58073
-1.64285 -1.15466 -0.985157
-1.57879 -0.790907 -2.27269
-1.26067 -0.959636 -2.7329
-0.48951 -0.52336 -2.08672
-2.05048 -1.93508 -1.49683
-0.939456 -0.202996 -1.4385
-1.12199 -0.949486 -0.384929
-1.33287 -0.64524 -2.18335
-2.53242 -2.49169 -2.34985
-2.37167 -1.76939 -2.32329
-0.346812 -0.278562 -1.64062
-1.23629 -0.362725 -1.61521
-1.27211 -1.29283 -0.516009
-2.28995 -1.55502 -2.40621
-1.14466 -1.13244 -0.392404
-2.37591 -1.75211 -2.38033
-2.37648 -1.97065 -2.14807
-1.4649 -0.677482 -0.923145
-0.74524 -0.11003 -1.27984
-1.16814 -0.406838 -0.657423
-1.43421 -0.448187 -1.48249
-1.11144 -0.201673 -0.964477
-1.67177 -0.880507 -2.35623
-0.94298 -0.14726 -0.655304
-1.21722 -1.16157 -3.02933
-0.810391 -0.805261 -2.54893
-0.927665 -0.196435 -0.534912
-0.440315 -0.124555 -1.34784
-2.06312 -1.58655 -1.58289
-1.99532 -1.16581 -2.45983
-0.98447 -0.93971 -2.74182
-1.49639 -1.04269 -2.77585
-0.559681 -0.495771 -2.05439
-1.84565 -1.00417 -2.37296
-2.13032 -1.76488 -1.66222
-1.17197 -1.38567 -0.417922
-1.05268 -0.245739 -0.66714
-0.823734 -0.0534337 -0.708809
-1.77021 -0.972621 -1.30338
-0.798219 -0.189789 -1.47094
-1.44791 -1.4951 -3.43221
-0.577437 -0.532137 -2.11509
-1.07509 -0.702876 -0.384101
-0.497594 -0.484204 -2.02563
-1.04851 -0.381912 -0.506617
-1.13659 -0.234284 -0.895634
-0.863659 -0.587519 -2.2173
-0.522843 -0.500433 -2.05616
-2.06912 -1.61531 -1.58524
-1.45695 -0.48297 -1.59901
-1.52408 -1.35476 -0.79604
-0.524466 -0.353356 -1.80952
-2.53591 -2.46713 -2.36422
-1.4064 -0.550068 -0.933979
-0.787052 -0.590432 -2.22337
-1.15123 -0.444823 -0.598888
-1.55872 -1.29742 -0.844144
-1.07378 -0.176304 -1.11177
-1.16316 -0.322018 -0.753362
-1.87929 -1.24379 -1.35752
-1.64424 -0.85609 -1.12681
-1.83434 -0.966673 -1.47939
-2.09512 -1.23187 -2.19212
-1.13168 -0.232951 -1.30605
-1.40198 -0.627333 -2.09745
-1.60267 -0.658611 -1.27101
-1.24803 -0.474888 -1.89057
-1.14572 -0.332006 -1.62766
-1.88321 -0.950164 -2.07721
-1.97493 -1.26753 -1.55322
-1.81969 -0.930692 -2.22904
-1.68991 -1.56931 -3.45266
-1.40179 -1.41191 -3.33307
-0.850879 -0.0564687 -0.833118
-1.41354 -1.46111 -3.39538
-1.36515 -0.719632 -0.735775
-0.931562 -0.159352 -0.605717
-0.444792 -0.138522 -1.37965
-2.07414 -1.648 -1.58503
-2.24041 -1.6624 -1.96475
-2.07962 -1.33801 -1.77861
-1.90731 -1.73002 -1.28931
-1.57518 -0.587143 -1.37881
-1.51873 -1.18369 -2.97962
-0.86505 -0.0752604 -0.71741
-1.04894 -0.252193 -0.649828
-1.83584 -0.911066 -1.58968
-2.11415 -1.43339 -1.788
-1.17646 -0.552395 -2.0893
-2.05278 -1.33751 -1.69943
-2.08972 -2.08848 -1.55257
-2.33071 -1.96891 -2.03039
-1.05857 -0.415945 -1.87354
-1.27429 -0.310093 -1.17407
-1.8186 -1.60905 -1.16833
-0.784571 -0.386851 -1.87928
-2.32601 -1.89324 -2.05375
-1.73719 -0.982935 -2.49003
-1.20941 -1.12579 -2.98115
-0.69828 -0.0690901 -1.17508
-1.6616 -1.5517 -0.958447
-1.33316 -0.689892 -2.26656
-2.49418 -2.41901 -2.27724
-2.16725 -1.38165 -2.55301
-1.11575 -0.282202 -0.725487
-2.18135 -1.38122 -2.16802
-1.73143 -0.765134 -1.89856
-0.572416 -0.603376 -2.22543
-1.88571 -1.21631 -1.38506
-1.54498 -0.648555 -1.98032
-1.24862 -0.309009 -1.38302
-1.68737 -1.51279 -0.993832
-1.82374 -1.67565 -1.17118
-1.53172 -0.774827 -2.28628
-1.13362 -0.408009 -1.81957
-1.91954 -1.06768 -1.60677
-1.89716 -1.08065 -1.5204
-0.669041 -0.611221 -2.24948
-1.52818 -1.31168 -0.804294
-1.87321 -1.04128 -1.49776
-2.03526 -1.92533 -1.47325
-2.41646 -2.25494 -2.13891
-1.1524 -0.42248 -0.618972
-0.854473 -0.188673 -1.44698
-1.19633 -0.293758 -1.44004
-1.76335 -0.81933 -1.50621
-1.62813 -0.983538 -2.59692
-2.52068 -2.32784 -2.37099
-1.68424 -0.957329 -1.13504
-2.05766 -1.31383 -2.69525
-1.71495 -0.817276 -1.33826
-1.3782 -0.394435 -1.367
-1.31547 -0.616615 -2.13891
-1.20085 -0.807768 -0.495014
-2.00657 -1.18588 -1.73135
-0.986638 -0.246718 -0.555345
-2.36873 -2.4006 -2.01862
-1.02675 -0.240764 -1.47952
-1.61504 -0.649762 -1.82554
-2.27695 -1.73973 -2.01328
-0.870748 -0.489308 -2.05329
-2.13044 -1.84495 -1.6447
-0.90589 -0.83302 -2.59078
-1.37721 -1.25101 -3.12126
-1.36785 -0.500243 -0.915446
-1.33332 -1.23184 -0.582938
-2.10399 -1.24578 -2.16588
-1.19688 -0.980716 -0.45851
-1.29225 -0.387925 -1.61292
-1.58896 -1.0923 -2.80547
-2.34264 -1.84307 -2.13266
-1.80301 -1.10248 -1.28069
-2.27232 -1.54599 -2.26364
-1.97058 -1.25598 -1.55122
-2.06418 -1.94367 -1.51829
-0.530877 -0.201457 -1.52224
-1.12232 -0.208969 -0.970807
-1.47401 -0.557146 -1.83836
-2.45052 -2.05665 -2.31306
-0.926553 -0.723483 -2.4272
-2.44816 -2.31006 -2.19729
-0.742357 -0.0125166 -0.744904
-2.38414 -2.3272 -2.05662
-1.70987 -1.23118 -2.95032
-0.837292 -0.129762 -1.29014
-1.75768 -0.776459 -1.68595
-1.49207 -1.09176 -0.788611
-2.22316 -1.74514 -1.86914
-1.6851 -0.852101 -1.21873
-1.83958 -1.11537 -2.62922
-1.15137 -0.642828 -0.489372
-1.09135 -0.267972 -0.702273
-1.05722 -0.163315 -0.993535
-2.16779 -1.47762 -1.90961
-1.92845 -1.36425 -2.98483
-2.37276 -1.94954 -2.14986
-1.91231 -1.40824 -3.07453
-1.8688 -1.58013 -1.24606
-1.4403 -0.447107 -1.34319
-2.01682 -1.27838 -2.69603
-1.45646 -1.22297 -0.724789
-1.7715 -0.972649 -2.42344
-2.36788 -1.76083 -2.31944
-0.77185 -0.15729 -1.39846
-1.13149 -0.761339 -0.429418
-1.8353 -0.971605 -2.30904
-1.23959 -0.34274 -0.884273
-1.34085 -0.856496 -2.54793
-1.00869 -0.356897 -0.474416
-1.57523 -0.949254 -2.57638
-1.64058 -0.648984 -1.69211
-1.15861 -1.06235 -0.410545
-1.1731 -0.243933 -1.00431
-1.36987 -0.678767 -2.22402
-1.31127 -0.610628 -0.717314
-1.33976 -1.00867 -2.78423
-1.92507 -1.76385 -1.3136
-1.79157 -0.942511 -1.38713
-0.626739 -0.0807789 -1.23407
-1.65211 -1.02114 -1.04497
-1.57129 -0.682578 -1.14111
-2.26282 -2.25806 -1.83424
-0.92788 -0.64103 -2.29878
-0.893317 -0.756417 -2.47812
-2.44966 -2.5082 -2.16737
-1.35404 -1.474 -0.602588
-1.26628 -0.929984 -0.542964
-1.59205 -0.927005 -2.52432
-0.690263 -0.0314132 -1.04137
-0.916601 -0.182671 -1.39611
-1.60306 -0.689103 -1.21549
-1.66715 -1.18414 -2.90381
-1.99459 -1.4017 -2.97531
-1.26192 -1.23509 -3.12272
-1.4536 -0.473467 -1.23177
-1.70605 -0.934553 -1.19377
-2.41331 -2.00126 -2.23584
-0.98431 -0.62531 -2.26737
-2.33886 -1.85116 -2.11538
-0.694499 -0.468359 -2.02215
-2.2859 -1.59813 -2.21184
-1.622 -0.624132 -1.59695
-1.90261 -1.01283 -2.25661
-1.85749 -0.939195 -2.14494
-1.5714 -1.72692 -3.70002
-0.949013 -0.352483 -1.78391
-0.645867 -0.228227 -1.57994
-1.40137 -0.869041 -0.725726
-1.71445 -1.38446 -1.04393
-1.56296 -0.905005 -0.950239
-0.992954 -0.290984 -1.63189
-1.21814 -0.513556 -1.99265
-1.88653 -0.997163 -1.60875
-1.80825 -0.844716 -1.91596
-1.77713 -0.983736 -1.30971
-1.77177 -0.821336 -1.54035
-1.61363 -1.38333 -3.22756
-1.84987 -1.07895 -1.39952
-1.05623 -0.344609 -0.549378
-1.86706 -1.36769 -1.28701
-1.16048 -0.396991 -0.65503
-0.539989 -0.428709 -1.94125
-1.55176 -1.48527 -0.824109
-1.3561 -0.871479 -2.566
-0.937123 -0.101573 -1.01468
-0.840849 -0.123879 -1.26892
-0.76291 -0.23693 -1.58671
-1.5799 -0.666904 -1.18645
-1.00591 -0.788172 -2.51941
-0.608481 -0.478611 -2.0326
-1.36632 -0.405823 -1.10706
-0.970504 -0.757644 -2.47629
-1.50507 -1.32632 -0.774831
-1.06227 -0.68718 -2.35494
-1.83438 -0.86912 -1.8056
-0.728212 -0.00710225 -0.794784
-1.39236 -1.14304 -0.657077
-1.99271 -1.10407 -1.851
-1.90056 -1.78057 -1.2763
-1.17172 -1.31968 -0.416068
-2.0101 -1.36719 -2.89066
-1.79647 -0.822598 -1.80959
-2.0287 -1.67748 -1.49351
-1.22109 -0.429063 -1.80641
-1.51977 -1.04566 -0.836317
-1.73089 -0.887656 -2.29008
-1.38513 -0.869175 -0.703939
-1.05176 -0.279446 -0.615269
-1.99383 -1.24329 -2.66017
-1.65386 -0.761043 -1.24772
-1.23569 -0.910817 -2.66582
-1.8287 -0.977859 -2.33926
-1.246 -0.766548 -0.559665
-1.41257 -0.882236 -2.55864
-1.35667 -0.53149 -0.85673
-1.73833 -1.44985 -1.06937
-1.5916 -1.18724 -2.95146
-1.0483 -0.461641 -1.96699
-2.11724 -1.29503 -2.44855
-1.03308 -0.473893 -0.427358
-1.10156 -0.373964 -1.76282
-1.52545 -0.743065 -0.983141
-2.05813 -1.1997 -1.94203
-1.45188 -1.09963 -2.8816
-0.876328 -0.503278 -2.07672
