ply
format ascii 1.0
comment Created by Open3D
element vertex 400
property double x
property double y
property double z
end_header
1.45265 -0.68907 1.00237
2.84726 0.35729 2.15438
1.5666 -0.25236 0.67724
1.54214 0.93586 1.47038
1.82028 -0.93152 1.69608
1.65045 -0.71792 1.19641
1.20395 0.62584 0.75405
1.90588 -0.34287 1.02565
2.89405 0.26294 2.16301
2.98318 0.87191 2.98507
1.17865 -0.66387 0.78803
1.77484 0.16386 0.81436
2.09585 0.78256 1.71054
2.66272 0.30296 1.8643
2.32966 0.3378 1.47093
1.00771 -0.88786 1.04217
1.30441 -0.59245 0.77637
2.55107 0.93107 2.49388
1.01361 0.11773 0.27071
2.08457 0.93823 1.96663
1.99173 -0.19961 1.0316
2.17984 -0.07809 1.19402
2.36293 0.37618 1.53738
1.67348 0.15297 0.72354
1.09472 0.11665 0.31321
2.04148 -0.39179 1.19541
1.53429 0.95157 1.49399
2.73436 -0.49035 2.10963
1.91878 0.58936 1.26778
2.65266 -0.64762 2.17856
1.48733 -0.93774 1.43239
2.17768 0.4384 1.37777
1.3539 0.73825 1.00328
2.52824 0.39004 1.75013
1.50965 0.61726 0.95078
1.66311 0.38995 0.84354
2.99075 0.09715 2.24559
2.58134 -0.62619 2.05794
1.29378 -0.26949 0.49109
1.30395 0.63615 0.82976
1.98738 0.62681 1.38031
2.22689 -0.81985 1.91193
2.55644 0.74257 2.18527
2.25005 0.21791 1.31316
2.6814 0.26327 1.86679
1.0818 0.59836 0.65061
2.3836 -0.61726 1.8014
1.91362 0.42326 1.09464
2.84889 -0.77655 2.63207
1.88415 0.32662 0.99419
2.8043 0.97534 2.91732
1.35318 0.57587 0.7894
2.11755 0.85423 1.85071
2.9851 0.73599 2.76938
2.51148 0.90598 2.39768
2.10607 -0.28295 1.18895
1.80349 -0.75985 1.39051
1.53564 -0.98728 1.56427
1.45507 0.15947 0.55474
1.43866 0.38912 0.66885
2.33227 0.99889 2.35765
2.09957 -0.78199 1.71357
1.52089 0.59538 0.93276
1.41822 -0.93567 1.37831
2.26553 -0.82088 1.957
2.47933 0.81658 2.20358
2.58556 -0.72952 2.20349
1.74477 -0.28953 0.84488
2.26035 0.54171 1.57075
2.4779 -0.59615 1.89039
2.44518 -0.53374 1.77959
1.16084 0.58569 0.67992
1.54893 -0.50041 0.85021
2.89053 0.93353 2.96027
2.61884 0.3945 1.87021
1.82831 -0.79613 1.4695
1.25825 -0.47202 0.6186
1.03756 -0.58799 0.61487
2.39967 -0.13716 1.45842
2.3152 -0.73005 1.87301
2.63244 -0.35821 1.86075
2.7854 -0.64185 2.35159
2.69896 -0.15435 1.84492
2.25934 -0.35292 1.40071
2.77504 0.3922 2.07903
1.28443 0.0921 0.42092
1.60934 -0.38008 0.79196
2.5597 -0.04327 1.63988
1.42209 -0.23766 0.56207
1.6053 -0.78617 1.26232
2.92594 -0.17676 2.17152
2.30775 0.25995 1.39901
1.42067 0.70487 1.00142
2.37725 0.5648 1.73183
2.67143 -0.35478 1.91001
1.40474 -0.29791 0.58207
2.62882 0.17625 1.75873
1.34531 -0.78089 1.06226
2.36279 -0.96633 2.32948
2.58384 0.12694 1.68517
2.5932 -0.2424 1.73993
2.5387 -0.1214 1.62598
1.71663 0.77345 1.33494
1.56 -0.54671 0.90728
1.13565 -0.42673 0.50453
2.39373 -0.30213 1.52377
2.67518 0.31407 1.88778
2.09835 -0.66955 1.54907
2.23599 -0.49016 1.49016
1.783 0.8006 1.43573
1.23215 0.10803 0.39122
2.58937 0.35213 1.80021
2.38257 0.86762 2.17192
1.60051 0.66827 1.087
2.31761 -0.67511 1.7986
1.72574 -0.70214 1.23755
2.3681 0.42219 1.58022
2.30196 0.8223 2.00093
1.38454 0.9691 1.41839
2.21522 -0.93436 2.09982
1.4914 0.44595 0.75494
1.01109 -0.76355 0.83859
2.13486 0.55481 1.44723
2.97158 -0.85046 2.93085
2.92687 -0.42772 2.32459
1.07554 0.84741 1.00729
1.80972 0.34262 0.93616
1.15449 -0.9176 1.17521
2.92997 -0.22104 2.19504
1.00739 -0.86108 0.99517
2.96154 -0.38086 2.33774
2.81389 -0.65465 2.40806
1.61273 -0.41843 0.82531
1.25991 0.47735 0.6247
1.2662 -0.32262 0.5049
1.89978 0.10708 0.91376
1.40138 0.02543 0.49161
2.47611 0.38997 1.68485
1.11097 -0.08175 0.31525
2.38352 0.95267 2.32787
1.84825 0.99454 1.84312
1.0305 -0.18381 0.29927
1.03151 0.67063 0.71575
2.32008 -0.70556 1.84351
2.7623 0.15879 1.93279
2.07359 0.97667 2.02883
2.51248 0.69328 2.05878
1.43231 0.92495 1.3684
2.61478 0.25303 1.7733
2.39099 -0.77223 2.02555
1.00637 -0.9833 1.22007
1.1961 -0.17747 0.38916
1.04968 0.06262 0.27938
2.02022 -0.44979 1.22263
1.389 0.54611 0.78057
2.73302 0.95544 2.78021
1.47249 0.94081 1.42719
1.00676 -0.61738 0.63455
1.36663 0.94144 1.35324
1.09234 -0.35698 0.42574
1.38365 -0.05213 0.48134
1.75979 0.84228 1.48365
1.40107 0.94229 1.37866
2.32217 -0.72128 1.86836
1.97236 0.16071 0.99838
1.5005 -0.87653 1.33118
1.30067 0.84061 1.12956
2.98534 -0.82976 2.91656
1.58687 -0.31781 0.73054
1.69701 0.88342 1.50039
1.21694 -0.37455 0.51053
1.56252 -0.83117 1.30122
1.4466 0.1611 0.54912
1.32234 -0.20988 0.4812
2.10069 -0.60163 1.46519
1.84148 -0.45339 1.05333
2.16384 -0.35442 1.29617
2.70395 -0.11343 1.8407
1.58486 0.2412 0.68613
2.15352 0.46846 1.37887
1.90702 -0.2319 0.96296
1.941 0.47538 1.16786
1.74314 0.41207 0.92943
2.50688 0.05212 1.57383
2.27669 -0.52294 1.56929
2.53143 0.20098 1.64243
2.93894 0.81179 2.81834
2.65627 0.94998 2.66639
1.13456 0.13543 0.34015
2.69025 0.96357 2.73782
1.42773 -0.52212 0.78221
1.07466 -0.11715 0.30245
1.04919 0.6839 0.74292
2.32156 -0.74028 1.89542
2.65123 -0.56211 2.07322
2.46843 -0.45115 1.72682
2.01929 -0.90698 1.842
1.94792 -0.1062 0.95988
2.61278 0.7557 2.27774
1.08605 0.03713 0.29626
1.18331 -0.19107 0.38656
2.2284 -0.24938 1.30363
2.48862 -0.50946 1.80786
1.96793 0.61293 1.34386
2.406 -0.49347 1.69073
2.25412 -0.99127 2.25288
2.71624 -0.71411 2.35444
1.7794 0.58754 1.13678
1.6293 0.038 0.6651
1.9008 -0.88769 1.69125
1.55266 0.74314 1.15494
2.73499 -0.6574 2.30222
2.58385 0.40066 1.8296
2.358 0.94039 2.27438
1.17344 0.44722 0.54425
1.67025 -0.92893 1.56035
2.17017 0.59117 1.5269
2.91328 -0.84635 2.83811
2.92403 0.0308 2.13843
1.27377 -0.18598 0.44022
2.74363 -0.24826 1.9435
2.3151 0.0942 1.3488
1.51294 0.98572 1.5439
2.12396 -0.57163 1.45456
2.21391 0.30353 1.31748
1.71202 0.19913 0.77241
1.71563 -0.89733 1.54105
1.89686 -0.92155 1.74877
2.33707 0.46337 1.58018
1.81764 0.51582 1.09203
2.28546 -0.35745 1.4336
2.22127 -0.41382 1.40476
1.60629 0.95049 1.54847
1.51444 -0.85121 1.29794
2.19527 -0.39817 1.36334
2.19187 -0.93855 2.08194
2.8018 -0.82326 2.64028
1.23125 -0.34976 0.50133
1.4252 0.5016 0.7594
1.69813 0.27322 0.79556
2.13823 -0.22629 1.19421
2.54412 0.53047 1.89953
2.99613 -0.74772 2.80329
1.86491 -0.51819 1.138
2.91154 0.22009 2.16771
2.01324 -0.31982 1.11557
1.8021 0.0803 0.81834
2.10198 0.54639 1.40312
1.1542 -0.65428 0.76112
2.40472 -0.37197 1.58403
1.08369 -0.22399 0.34377
2.67959 -0.95729 2.71146
1.58089 0.41242 0.7949
2.19614 0.15845 1.23086
2.69536 -0.58473 2.15814
1.69822 0.77187 1.31678
2.37061 -0.82472 2.08512
1.94662 0.9625 1.87375
2.55295 0.89295 2.42675
1.552 -0.28673 0.68439
1.24913 -0.87038 1.14765
2.69637 -0.14338 1.83816
1.10723 -0.76458 0.89107
1.85266 0.30042 0.94833
2.59903 0.64314 2.10237
2.79599 -0.58484 2.29642
2.01786 -0.54716 1.31733
2.84496 -0.30852 2.11863
2.27367 -0.5164 1.55907
2.23639 -0.93033 2.11588
1.18475 0.71022 0.85533
1.41276 0.02082 0.49941
2.09573 0.28434 1.17887
2.94699 -0.61801 2.55312
1.89851 0.89127 1.69544
2.84998 -0.82539 2.71188
1.00426 0.14929 0.27442
2.72249 -0.90142 2.66555
2.75432 0.61567 2.27563
1.34074 0.42874 0.63321
2.22954 -0.07492 1.24832
1.50798 -0.73428 1.10767
2.57659 -0.66247 2.09857
1.9229 -0.40683 1.0899
2.72145 0.38166 1.99724
1.1333 -0.55106 0.62476
1.24342 -0.18308 0.42004
1.37524 0.09227 0.48134
2.58874 -0.47241 1.89857
2.93866 0.46425 2.37446
2.8147 -0.64097 2.39148
2.96329 0.51375 2.45922
1.98675 -0.84337 1.69808
1.83549 0.00608 0.8423
2.88226 0.25878 2.14382
1.42646 -0.82721 1.19297
2.58135 0.34156 1.7825
2.92296 -0.42426 2.31591
1.33501 0.52429 0.72045
1.069 -0.64277 0.69885
2.57876 0.22928 1.71506
1.45 -0.16589 0.55315
2.29302 0.70299 1.80867
1.04591 -0.34733 0.39412
2.49372 0.55953 1.86774
2.15134 0.05172 1.15974
1.03863 -0.82018 0.94237
1.46774 0.00164 0.53857
2.18186 0.5483 1.49076
1.38847 -0.45373 0.68783
2.38796 0.79453 2.05687
2.04164 -0.91561 1.88042
2.08474 -0.38619 1.23568
1.14016 0.51886 0.5942
1.78311 -0.59772 1.15214
1.81177 -0.32005 0.92306
2.51787 -0.96343 2.51311
1.84751 0.84103 1.56066
1.89078 0.92743 1.75388
2.80728 -0.94637 2.86582
1.24118 -0.98793 1.36114
1.21613 -0.7142 0.87983
2.4853 0.52544 1.82026
1.10526 0.37552 0.44641
1.45367 0.43756 0.71974
1.87513 -0.2866 0.96117
2.70149 0.62766 2.21848
2.98487 0.40572 2.39198
2.4576 0.95959 2.43077
1.78727 -0.09254 0.80714
1.91623 -0.47618 1.14473
2.88473 -0.62631 2.47268
1.88227 0.79846 1.52327
2.78294 -0.59921 2.29524
1.53528 0.84845 1.30914
2.82302 -0.37801 2.13525
2.09154 0.00615 1.09367
2.60396 0.13794 1.71418
2.52039 0.11836 1.6021
2.93838 0.96715 3.0939
1.65037 0.61067 1.05384
1.30783 0.68014 0.89019
1.43174 -0.62204 0.89941
1.78259 -0.81129 1.4526
1.67665 -0.56206 1.0187
1.62087 0.51195 0.9189
1.96086 0.54317 1.25628
2.2686 -0.30429 1.37923
2.37771 0.02831 1.41418
2.02766 -0.45433 1.23427
2.16219 -0.20736 1.21176
2.78852 0.78375 2.55822
2.12071 -0.4748 1.34979
1.12577 -0.31195 0.41415
2.03685 -0.70732 1.53748
1.25991 -0.31556 0.49642
1.36875 0.88832 1.25747
1.51905 -0.93578 1.45256
2.31288 0.70065 1.82826
1.29235 0.19814 0.4568
1.33403 0.4149 0.61706
1.40984 0.62205 0.88386
1.84409 -0.28446 0.93109
2.00288 0.88445 1.78514
1.46558 0.89372 1.33571
1.66033 -0.10326 0.69983
1.95557 0.88693 1.74271
1.47784 -0.86781 1.29909
1.98354 0.79047 1.60845
2.34126 -0.075 1.376
1.01792 0.19434 0.29681
1.3496 -0.80308 1.10028
2.4647 -0.23954 1.57606
1.99962 -0.93809 1.87963
1.0149 -0.9515 1.16286
2.96084 0.35536 2.31793
2.31771 -0.02996 1.34384
2.2327 -0.79702 1.88148
1.88264 0.45225 1.09061
1.56223 -0.69135 1.08812
2.49245 0.31006 1.64922
1.40696 -0.62939 0.89101
1.16444 -0.23054 0.39213
2.84985 0.26247 2.09931
1.92407 -0.32518 1.03125
2.25425 0.81177 1.92938
2.58732 0.25083 1.73648
1.2311 -0.61053 0.75165
2.35582 0.66183 1.82549
1.50852 -0.33828 0.68334
1.80612 -0.83793 1.51764
2.66038 0.69758 2.25602
1.81067 0.6359 1.22401
2.8418 0.02525 2.01959
1.02607 -0.4513 0.46688
1.76689 0.50874 1.03929
1.6848 -0.43907 0.90242
2.55205 -0.25569 1.69362
2.51902 0.76184 2.16677
1.71265 0.77866 1.3396
