ply
format ascii 1.0
comment Created by Open3D
element vertex 400
property double x
property double y
property double z
end_header
-0.958736 1.58227 -1.51255
-1.01076 2.70398 -2.56514
-1.01605 1.69397 -1.04581
-0.178446 3.5701 -1.16361
-0.959041 1.57629 -1.50066
0.372534 1.84209 -0.178007
-0.731334 1.24733 -0.328182
-0.897922 2.24542 -0.808548
-0.95368 2.24199 -0.894525
-0.649541 3.00207 -1.00257
-1.12281 2.9532 -2.08698
-0.923104 2.98541 -1.26788
-1.12044 2.99262 -1.90824
-0.642296 0.903016 -0.239964
-0.891247 1.28376 -1.30458
-0.657007 1.19679 -0.240006
-0.209189 1.81086 -0.201617
-0.795542 1.3826 -0.423628
-1.11556 3.00177 -1.85558
-1.06356 3.06312 -2.61266
-1.06607 2.24604 -1.88416
-0.356702 1.77091 -0.224966
-1.00051 2.80772 -1.28589
-0.702411 1.01624 -1.5529
-0.849195 1.22877 -1.39936
-1.09003 2.16412 -1.43835
-1.10535 3.01954 -1.78736
-0.894327 1.28198 -1.28325
-0.392961 2.49035 -0.57265
-0.828012 1.66673 -0.511818
-0.339669 3.64454 -1.27164
-0.935146 3.00545 -1.30009
-0.652003 1.16588 -0.232864
-0.0488002 3.28559 -0.947926
-0.809032 1.4629 -0.450208
-0.973734 2.80009 -1.22895
-0.969786 2.26724 -2.31397
-0.665934 3.09256 -1.0733
-0.992854 2.58581 -1.13765
-0.879425 1.76952 -0.611266
-0.300206 3.26967 -1.00324
-0.888136 1.16549 -0.884584
0.0789082 2.59137 -0.530712
-1.00804 1.63126 -1.21827
-0.0676681 2.50278 -0.500667
-0.0448368 1.40919 -0.0286308
-1.08112 2.1267 -1.30994
-0.970665 1.76664 -1.73766
-0.297904 3.70279 -1.29582
-1.10279 2.45452 -1.86251
-0.549264 1.12997 -0.139746
-0.982944 2.08482 -2.07867
-0.736657 0.776947 -0.647123
-0.896301 1.19143 -0.94019
-1.12131 3.02748 -2.15094
-0.812878 2.76135 -0.987991
-0.569638 3.17547 -1.06471
-0.948591 2.38444 -0.951419
-1.02509 1.73779 -1.34152
-0.858532 1.09236 -0.999602
-0.313186 3.68258 -1.28761
-1.06575 2.6957 -1.38766
-1.06423 3.0771 -1.64246
-0.420133 1.07637 -0.0519441
-0.723312 1.08985 -0.325043
0.309079 2.08147 -0.277165
-0.607807 0.917197 -0.192821
-0.840034 1.55506 -0.508473
-1.1242 2.98088 -2.0408
-1.06555 2.71111 -1.39601
-0.352042 3.79385 -1.38398
-0.689252 1.44041 -0.306347
-1.0186 2.93942 -1.41329
-0.48934 2.89664 -0.844597
-0.920696 1.27189 -0.932582
-0.748438 1.55348 -0.390139
-0.945167 2.54708 -1.03059
-1.06139 2.12859 -1.76236
-0.250169 3.37596 -1.05609
-0.174656 1.25847 -0.00577706
-0.709591 0.956381 -1.42907
-0.70906 0.74198 -0.531758
-0.893724 1.64866 -0.613288
-0.708629 0.739299 -0.921763
-0.043294 2.4517 -0.470898
-0.759049 1.1062 -0.382905
-0.323297 3.13969 -0.928085
-0.219926 2.89347 -0.747242
-0.847741 2.82958 -1.0678
-0.808514 1.81431 -0.528492
-0.924824 1.29785 -1.0757
-0.577004 2.59158 -0.710656
-0.728578 1.16995 -1.71321
-0.534111 1.57513 -0.230856
-0.944961 2.73434 -1.13906
-0.945686 2.3122 -0.912076
-0.799547 1.20113 -0.441079
-0.728227 1.80978 -0.445852
-0.698502 0.959352 -1.46998
-1.07079 3.07016 -1.66058
0.00214224 3.18124 -0.874804
0.0559914 2.29581 -0.382771
-1.00564 2.08668 -1.99256
-0.0934457 2.20747 -0.35682
-1.08271 2.8021 -1.51566
-0.429414 2.72138 -0.71468
-0.473466 2.40046 -0.556712
-0.83686 1.07882 -1.13598
-0.912971 2.99754 -1.26127
-0.0685349 4.16068 -1.5482
-1.04333 1.90768 -1.5454
-1.1154 2.92038 -2.17853
-0.692498 2.02558 -0.501183
-0.859226 1.37245 -1.60044
-0.802458 1.05097 -0.511047
-0.838841 1.1932 -0.537642
-1.04447 2.21072 -1.10345
-1.0432 1.81677 -1.20654
-0.828544 2.40013 -0.800014
-0.861345 2.59842 -0.944617
-0.768645 0.960895 -0.473373
-1.09142 3.11267 -1.78433
-0.826622 1.01133 -0.995458
-0.936676 1.79187 -1.9027
-1.03357 2.51995 -1.1961
-1.11753 2.88135 -1.78153
-0.628559 2.23002 -0.551077
-0.992742 1.81102 -1.69959
-0.503539 2.29041 -0.513833
-1.0086 1.9787 -0.935672
-1.1248 2.84947 -1.90085
-0.175909 1.62119 -0.121849
-1.10681 2.36769 -1.65976
-0.689181 2.55846 -0.763279
-0.852379 2.05137 -0.666073
-0.973682 1.92363 -1.92772
0.0351865 2.56531 -0.52094
-0.908738 2.36845 -0.882278
0.00851597 2.35646 -0.416811
-0.63193 1.0804 -0.20941
-0.539119 3.21279 -1.07185
-0.766288 0.931278 -1.15473
-1.12072 3.00184 -2.15291
-1.08255 3.02911 -2.49184
-0.812267 1.13433 -1.37846
-0.0870458 2.72054 -0.620847
-0.985257 2.56503 -1.11114
-0.315909 3.77496 -1.35461
-0.77964 2.85916 -1.01615
-0.936886 1.38711 -1.24949
-0.287371 2.61639 -0.607518
-1.10646 2.35941 -1.5398
-0.982564 1.65955 -0.85596
-1.11991 2.62113 -1.82837
-0.699498 0.762218 -0.449338
-0.812528 2.11402 -0.646685
-0.914132 3.00123 -1.26548
-0.697648 2.50692 -0.74097
0.292331 2.0402 -0.258525
-0.471137 2.70888 -0.725025
-0.392926 2.20612 -0.427934
-0.765364 2.3433 -0.709355
-1.06971 3.00351 -2.54336
-0.874067 3.23789 -1.37828
-0.917858 1.4251 -1.44278
-0.0762241 3.45536 -1.06176
-1.08712 2.82333 -1.54812
-0.397537 1.74712 -0.22988
0.123644 2.60524 -0.534771
-1.09558 2.21967 -1.48059
-1.10943 2.69277 -2.05583
-0.861997 3.28465 -1.39712
-0.174263 1.83454 -0.204283
-0.603121 3.10571 -1.03924
-0.0877706 2.61769 -0.564724
-0.790157 2.90066 -1.05251
-0.00185632 2.32088 -0.400293
-1.10518 2.35261 -1.51324
-0.842631 2.6509 -0.953583
-0.619149 1.09099 -0.196632
-0.975268 1.49197 -1.18016
-1.07635 2.45833 -2.05909
-1.06127 1.92953 -1.33841
-0.693656 3.11737 -1.1108
-0.874192 1.64008 -1.92052
-1.01131 1.64003 -1.14447
-0.950042 1.3771 -0.994348
-0.566747 1.90977 -0.371174
-0.641565 2.90211 -0.933812
-0.790716 0.898336 -0.738417
-1.05415 3.17741 -1.68888
-0.987503 1.79964 -0.854482
-0.862547 1.11703 -0.71596
-0.616273 0.829563 -0.222336
0.0436691 3.14559 -0.847298
-0.749372 1.64001 -0.412767
-0.8865 1.18371 -0.765691
-0.996686 1.573 -1.15716
-0.74531 2.35336 -0.697144
-0.959647 1.77891 -1.79983
-0.94543 1.47757 -0.77267
-0.851117 1.05857 -0.797496
-0.0387863 3.31494 -0.964458
-0.168092 2.93298 -0.758068
-0.862116 1.38909 -1.61541
0.0169275 2.86006 -0.683991
-0.872015 2.15022 -0.731771
-0.376564 1.7091 -0.207974
-0.931142 1.73735 -1.85356
-0.963252 1.87274 -1.90545
-0.604349 2.80969 -0.85345
-0.556677 3.60407 -1.35634
-0.377718 1.78333 -0.236888
-0.774211 1.7124 -0.459146
-0.725622 2.22782 -0.618803
-1.08299 2.10089 -1.3878
-0.250123 2.41076 -0.488144
-0.995042 2.87795 -1.32035
-0.943967 1.40612 -1.24266
-1.05371 2.05064 -1.70289
-0.754054 0.810364 -0.71922
-0.325944 2.09182 -0.352535
-0.474479 2.10584 -0.41213
-0.0156822 4.20266 -1.56409
-0.604168 1.5126 -0.255527
-1.02694 2.06954 -1.87813
-0.238682 1.92809 -0.256984
-0.372597 1.75475 -0.22399
-0.386689 2.28711 -0.465488
-0.702063 0.908373 -1.36701
0.0459812 1.73263 -0.135559
-1.01653 2.50698 -2.37511
-1.07895 2.33112 -1.90427
-0.182039 1.97113 -0.263631
-0.628561 1.63186 -0.307846
-0.785816 1.32609 -0.406862
-1.00438 1.60939 -1.08955
-0.387692 1.35804 -0.0975595
-1.08842 2.15342 -1.51119
-0.927203 1.63812 -1.73576
-0.358081 2.47849 -0.554407
-1.03191 2.16213 -1.04807
-0.159153 3.63177 -1.19985
-0.558103 2.23194 -0.511705
-0.478833 2.11503 -0.418268
-0.611785 1.39554 -0.231655
-0.759264 1.79814 -0.470792
-0.695364 3.48376 -1.37094
-0.827515 1.3333 -1.65154
-1.01801 2.46881 -1.13122
-0.968823 1.76178 -0.796782
-1.11703 3.03167 -2.22336
-0.101866 3.2171 -0.915767
-0.387018 2.44738 -0.547753
-0.969329 2.53184 -1.06331
-0.648741 2.92646 -0.953915
-0.76335 0.86868 -0.569992
-1.1182 2.57036 -1.67948
-1.02168 1.69263 -1.18372
-0.781378 2.7909 -0.975341
-0.557346 1.31239 -0.175122
-0.45781 1.66078 -0.222138
-1.11055 2.4089 -1.6342
0.258899 2.03061 -0.253774
-1.03724 2.15117 -1.92651
-1.01763 3.03715 -1.48033
-1.0996 2.80331 -2.22686
-0.086725 1.48473 -0.0589939
-1.09371 2.26679 -1.68802
-0.759074 1.20112 -1.67046
-1.0413 3.07687 -1.57089
-0.90901 2.06559 -0.749618
-0.874541 1.70835 -2.00365
-0.697812 0.930882 -1.42234
-1.05203 2.7082 -2.40499
-1.03069 2.24322 -1.06908
-0.538874 1.08249 -0.127124
-0.968766 1.46534 -0.948944
-0.990846 2.56855 -1.12407
-0.368217 1.40357 -0.102835
-1.12307 2.70114 -1.81958
-0.626658 1.52794 -0.275772
-0.934977 1.5695 -1.60407
-0.229416 1.74087 -0.17824
-0.742367 0.830197 -0.529573
-0.978599 1.49694 -1.00587
-0.322199 2.78514 -0.71316
-1.06228 1.94657 -1.405
-0.775516 0.908176 -0.562956
-0.657326 2.13087 -0.522849
-0.731898 1.8153 -0.451049
-0.572614 1.22042 -0.169246
-0.942013 2.18095 -0.848556
-0.859577 2.81987 -1.0754
-0.529596 0.920326 -0.113979
-0.155745 2.77195 -0.662432
-0.728059 2.80947 -0.940219
-0.813183 2.77975 -0.999573
-1.11401 2.58524 -1.60125
-1.06177 2.31823 -1.19954
-0.854238 1.31654 -0.537486
-0.941232 2.04615 -0.796513
-1.06998 3.03477 -2.56262
-1.12093 2.76135 -1.9802
-0.96019 1.90604 -1.95721
-0.0298068 3.34451 -0.981436
-0.893228 1.34874 -1.42214
-0.668339 1.85732 -0.415043
-0.118877 2.27727 -0.39446
-0.797581 2.23633 -0.68699
-0.993694 1.66658 -1.45949
-0.142089 2.40781 -0.463692
-1.0095 1.70665 -1.4235
0.111281 2.53851 -0.500709
-1.07961 2.44554 -2.02677
-0.987959 1.86031 -0.858604
-0.109998 3.05391 -0.817663
-1.10659 2.8659 -2.22219
-0.191211 2.92075 -0.756222
-0.0365671 1.65731 -0.114127
-1.07097 2.09068 -1.22718
-0.12423 2.618 -0.571109
-1.11911 2.83866 -2.075
-0.872844 1.66879 -1.96052
-1.09481 2.31494 -1.75332
-1.11679 3.11476 -2.25931
-1.01669 1.6766 -1.25344
-0.0308637 2.60278 -0.548404
-0.366608 1.24383 -0.0600899
-0.739704 2.58474 -0.817133
-0.744217 0.986737 -0.392812
-0.819995 0.976805 -0.898712
-0.947286 1.4143 -1.23675
-0.91899 2.55149 -0.99316
-0.914076 3.06213 -1.30756
-1.07783 2.11125 -1.59371
0.0948871 2.44419 -0.453524
-1.02186 3.01509 -1.47449
-0.785315 1.9763 -0.561676
-0.353007 1.38375 -0.0915562
-0.243957 2.2582 -0.409966
-1.0048 1.99335 -0.926656
-0.224359 2.98032 -0.79995
-0.968345 1.60352 -0.81458
-1.02965 2.60675 -1.23206
-0.962668 1.53427 -0.820555
0.02052 2.86893 -0.688574
-0.824109 1.93894 -0.589296
-1.04437 1.97829 -1.07817
-0.618269 2.05915 -0.465163
-0.411474 1.08411 -0.0486772
-0.421681 2.7138 -0.707248
-0.937096 2.36808 -0.924669
-1.04276 1.81331 -1.20912
-0.146217 3.33104 -0.997784
0.137094 1.61242 -0.085468
-0.097642 3.4383 -1.05546
-0.101778 3.04147 -0.80857
-0.915398 1.69107 -1.84967
-0.0600198 4.00163 -1.43051
-0.7782 0.86663 -0.792037
-1.071 2.04701 -1.25054
0.315283 1.96433 -0.226338
-0.733248 1.72067 -0.420729
-0.187552 1.77816 -0.184053
-1.09848 2.41658 -1.42165
0.0779761 2.12441 -0.300301
-0.0324532 1.7082 -0.133056
-0.569752 1.11497 -0.154093
-0.105482 1.85883 -0.202763
-0.296326 1.4603 -0.0961029
-0.988332 1.56186 -1.25826
0.393187 1.80891 -0.165859
-0.507106 2.74105 -0.760225
-1.03608 1.92657 -1.63116
-0.751545 1.0934 -1.52567
-1.08689 2.98711 -2.43943
-0.384128 1.42843 -0.116149
-0.020041 1.55361 -0.074522
-1.01211 1.68326 -1.02033
-0.724995 0.935235 -1.3368
-1.12489 2.85263 -1.91048
0.206716 1.67393 -0.107388
-1.06075 2.28445 -1.95944
-0.482896 2.6882 -0.718378
-0.858903 1.31986 -1.51799
-0.820656 2.49114 -0.84
-0.603659 1.33636 -0.213037
-0.0644693 2.79575 -0.659179
-1.03038 1.81388 -1.47215
-0.885894 1.4093 -1.55662
-0.397625 1.29846 -0.0861185
-0.111335 2.25933 -0.384503
-0.668168 0.944078 -0.26817
-0.893691 1.41347 -1.53161
-1.07298 2.02571 -1.31008
-0.0481493 1.3978 -0.0254205
-0.651999 0.774489 -0.307641
-0.807605 1.16075 -0.469286
-0.869899 3.26051 -1.38949
