ply
format ascii 1.0
comment Created by Open3D
element vertex 400
property double x
property double y
property double z
end_header
0.106811 -1.69962 1.78568
-0.156296 -2.98496 1.5393
-0.039187 -2.87785 1.93664
0.704299 -2.35838 2.31097
-0.0691762 -3.17644 1.75722
-0.373647 -0.965793 0.877845
-0.0985027 -3.06339 1.73539
-0.382661 -2.03015 1.055
-0.259613 -2.53254 0.90755
-0.211485 -1.45044 1.42474
-0.439708 -1.30949 0.812437
0.0395141 -1.81972 1.799
0.208961 -4.09978 1.47621
0.021526 -2.43805 1.98128
-0.0581301 -3.21317 1.76877
0.00171292 -3.18776 1.95189
0.678548 -2.27542 2.26685
0.501352 -1.50813 1.82325
-0.168829 -2.83093 1.6364
0.0656875 -3.61762 1.14644
0.121744 -1.66552 1.77721
-0.386401 -1.71838 0.594111
-0.0852775 -2.43789 1.8607
-0.384055 -1.95023 0.822167
-0.380346 -1.94053 1.18834
-0.0811977 -1.99737 1.76807
-0.0977801 -3.22257 1.32278
-0.200414 -2.74736 1.56836
-0.207285 -2.25533 0.431236
-0.311553 -2.4108 1.09616
-0.147637 -1.89563 1.66792
0.91957 -2.85631 2.57429
-0.373321 -2.03423 0.865605
0.292167 -2.09411 2.05318
0.723684 -1.51217 1.86117
-0.315273 -1.20326 1.16072
-0.146218 -2.84619 0.834591
-0.260267 -2.64071 1.24319
-0.426227 -1.65963 0.828531
-0.329901 -0.890679 0.914968
-0.408708 -1.76399 0.771043
-0.0852796 -2.82174 1.85921
-0.0963231 -3.00402 1.77775
0.183344 -1.74721 1.84737
0.411535 -0.941175 1.42498
-0.406879 -1.40735 1.05016
-0.223651 -2.17067 1.62271
-0.00582163 -2.90605 1.98903
-0.138865 -1.51844 1.5289
-0.426246 -1.37938 0.578859
-0.158869 -2.90247 0.974718
-0.205095 -2.08137 1.64075
-0.256146 -1.89134 1.52289
0.184708 -1.86374 1.90207
0.355112 -2.71291 2.30115
0.251139 -2.77863 2.24858
0.43244 -2.55056 2.2912
-0.35769 -0.80509 0.764467
0.143989 -1.60398 1.75762
-0.258197 -1.32512 1.30805
0.17866 -1.0917 1.46925
0.772069 -2.66802 2.4602
-0.23056 -1.6535 1.4878
0.0840623 -1.87431 1.85043
-0.256649 -1.20468 1.24386
0.335798 -2.46511 2.21411
-0.423252 -1.66195 0.78445
0.312802 -1.2121 1.5925
-0.390247 -1.9059 0.80799
0.307981 -1.27055 1.6288
-0.206137 -2.03259 1.62996
-0.398412 -0.924458 0.748734
-0.192302 -2.8971 1.23368
-0.100287 -3.01724 0.886648
-0.239426 -0.997544 1.13151
0.249042 -2.5735 2.19629
-0.406082 -1.18386 0.408057
-0.373067 -1.50476 0.406876
-0.364157 -2.14346 1.09293
-0.214327 -2.68958 0.91267
-0.345946 -1.0494 1.00773
-0.328548 -2.30341 1.24929
0.289371 -1.71604 1.87711
-0.421713 -1.45883 1.00204
-0.355553 -0.723037 0.666144
-0.416807 -1.74574 1.0011
-0.0178963 -3.3886 1.76174
-0.110482 -3.16783 1.24997
-0.260975 -1.57822 0.141669
-0.0549755 -2.60699 1.91661
-0.368565 -1.59202 1.2244
0.115789 -3.82578 1.33973
-0.0779544 -3.09145 0.903145
0.0615393 -1.1884 1.48198
-0.101161 -3.13366 1.65941
-0.0973331 -2.8546 0.677019
0.251387 -1.44273 1.71478
1.15659 -3.1014 2.72433
-0.183194 -1.15035 1.29044
-0.202824 -1.19473 1.29806
-0.326789 -0.883381 0.914777
-0.365435 -1.85908 1.26991
0.180576 -1.22336 1.55614
-0.435614 -1.20809 0.600433
0.207911 -0.956821 1.38464
0.725547 -1.47691 1.83902
-0.368742 -1.85453 1.25829
-0.199281 -2.58912 0.718534
0.796775 -1.22392 1.6738
-0.169362 -2.85207 0.944475
-0.308212 -2.42003 1.07154
0.250734 -0.863794 1.32813
-0.384194 -1.19607 1.01601
-0.193288 -2.39731 1.6873
0.645741 -1.65343 1.93626
0.482918 -0.784868 1.3135
-0.168486 -2.90176 1.02707
-0.315059 -1.01771 1.04142
-0.411307 -1.70282 1.0728
-0.20313 -2.23305 1.66398
-0.135622 -3.10058 1.31714
1.00524 -3.00079 2.65163
0.0452033 -1.46185 1.63197
0.184311 -1.3848 1.65566
-0.164561 -1.61925 1.549
-0.418916 -1.65041 1.02963
-0.258787 -2.53506 0.9069
-0.406357 -0.930323 0.712184
0.762218 -2.64331 2.4475
-0.21781 -1.25102 1.31496
-0.413595 -1.79943 0.912309
-0.184088 -2.93367 1.30632
0.25361 -1.25923 1.60478
0.814216 -0.975626 1.48857
-0.371093 -2.04018 0.856257
0.333225 -1.33963 1.67939
-0.2992 -1.56116 0.223389
-0.433188 -1.08883 0.667848
0.59725 -2.09356 2.16056
0.320443 -0.924773 1.39304
-0.178988 -0.687482 0.946441
-0.299117 -1.98142 0.478641
0.603574 -1.63129 1.91605
-0.430249 -1.10497 0.747016
0.445544 -0.868784 1.37525
-0.0177404 -3.41809 1.19413
0.103372 -2.71545 2.1111
0.12417 -3.8469 1.33866
0.929511 -2.6223 2.47928
-0.360571 -1.14942 1.04421
-0.025584 -1.16642 1.42007
0.193317 -1.93676 1.93853
0.311739 -1.63166 1.84109
-0.289996 -1.98183 0.451495
-0.140669 -2.70096 0.64643
0.785304 -2.77943 2.50752
-0.106348 -2.66777 1.83671
-0.0478856 -0.638574 1.01061
-0.309717 -1.89137 0.444862
-0.282377 -2.2808 1.4857
0.189893 -2.15043 2.0225
-0.170094 -2.15595 0.268955
-0.429701 -1.57564 0.949008
-0.191799 -2.05559 1.65519
0.38941 -1.55461 1.82286
0.0165258 -3.54007 1.72053
-0.0561753 -2.47729 1.90268
-0.399737 -1.17222 0.378429
0.801788 -1.68904 1.97835
0.799727 -3.06248 2.61263
-0.0369393 -2.57227 1.93756
0.117517 -1.30428 1.57955
0.0430385 -2.74797 2.05111
-0.261894 -2.08817 0.450314
0.148139 -2.82533 2.17051
0.0782178 -3.01532 2.106
-0.127428 -0.698742 1.00469
-0.379677 -1.08439 0.954898
-0.384644 -1.61401 0.512419
-0.437662 -1.48479 0.770584
-0.024082 -3.43685 1.63608
-0.011671 -2.58547 1.9699
-0.145772 -2.79792 1.72604
0.0799952 -2.64906 2.07765
0.690459 -1.44062 1.8119
-0.431863 -1.60275 0.858477
-0.182949 -2.52118 1.69996
0.275071 -0.817691 1.29891
0.753465 -1.83151 2.05508
-0.0738928 -3.30123 1.35407
0.409019 -2.84984 2.36992
-0.0922673 -3.20946 1.59633
-0.41113 -1.24461 0.446128
-0.422802 -1.16494 0.855104
0.107186 -1.99209 1.91241
1.15678 -3.00397 2.68513
-0.222135 -2.64803 0.888374
-0.0899264 -3.00432 1.79595
-0.133943 -3.08401 1.21053
0.751014 -0.978484 1.4894
-0.371676 -1.7661 1.24636
-0.307208 -0.825192 0.899581
-0.163797 -1.19535 1.33555
0.0069598 -3.50944 1.25623
0.366414 -0.985234 1.44858
-0.35841 -1.73502 0.494374
0.273323 -2.13269 2.05999
0.816047 -2.95555 2.58172
0.836817 -1.82072 2.05965
-0.222673 -2.28361 1.63043
-0.358594 -0.764106 0.71176
-0.192621 -2.16535 1.67322
0.871647 -3.10214 2.65037
-0.133911 -2.78883 1.75975
-0.401832 -1.63927 0.607376
0.716198 -1.86985 2.07056
-0.203943 -2.15276 1.65372
-0.403558 -1.88339 0.946187
-0.342112 -1.0301 1.00148
0.0112046 -3.17681 1.97556
-0.295261 -2.32951 0.802347
-0.399265 -1.24282 0.394155
0.348692 -2.22188 2.13093
-0.13642 -3.09617 1.44013
0.464457 -1.63069 1.88589
0.93971 -2.0889 2.22073
-0.286719 -2.43877 0.916106
0.612689 -2.26972 2.24653
0.0658066 -1.29484 1.54907
0.574922 -1.98575 2.10194
-0.394941 -1.51596 0.494819
0.855295 -2.41901 2.3728
-0.23606 -2.64547 0.960032
-0.035507 -3.27872 1.79899
-0.364573 -0.749267 0.668074
-0.113594 -1.86868 1.69438
-0.407549 -1.60499 0.611704
0.302239 -1.38103 1.69542
0.342388 -1.87124 1.97395
0.679658 -1.08425 1.56565
1.05813 -2.77515 2.5706
0.577873 -1.42837 1.78854
-0.00718253 -1.9236 1.8067
0.501792 -1.46467 1.79708
-0.329808 -2.32799 1.14309
0.805624 -1.73939 2.00873
-0.27979 -1.22908 1.22793
0.356534 -2.23375 2.13915
-0.354768 -1.65351 1.27481
-0.421036 -1.46888 0.595596
0.368383 -2.71771 2.31025
0.902642 -2.23872 2.29394
-0.393017 -1.49736 1.12744
0.699373 -1.92911 2.09967
1.04148 -2.6479 2.51137
-0.293724 -1.46768 1.32641
-0.339159 -1.76395 1.33565
0.504506 -2.38485 2.25979
-0.0304686 -3.4071 1.65543
-0.0107833 -1.45682 1.59567
-0.00170959 -2.25103 1.91538
-0.423766 -1.69425 0.855302
-0.12195 -3.12301 1.21608
-0.236838 -1.23001 1.28198
-0.278562 -2.53685 1.33044
0.799707 -1.24095 1.68601
0.0857586 -2.55284 2.0653
0.219966 -0.872826 1.32577
-0.404546 -1.81235 0.798903
0.342401 -1.52231 1.79063
-0.399011 -1.46062 1.09629
0.40463 -1.05266 1.50552
1.00839 -2.57758 2.47382
0.803186 -0.880166 1.41201
-0.107783 -2.49611 1.8344
0.103176 -2.34213 2.02806
-0.185832 -0.603618 0.857657
-0.0508428 -1.48664 1.58396
-0.426546 -1.30976 0.922456
0.0111872 -1.21805 1.47361
-0.397543 -1.85536 0.797249
-0.243107 -1.81817 0.224648
-0.206285 -2.79077 1.49439
-0.37237 -0.77344 0.66951
0.141246 -1.95137 1.91646
-0.307377 -1.56806 1.34413
0.587338 -1.96491 2.09451
-0.185912 -1.16083 1.29429
-0.132741 -1.34584 1.4476
0.0425383 -3.64272 1.37985
-0.36203 -1.9424 1.27544
-0.345501 -2.22519 1.19983
-0.0579441 -2.24428 1.8585
-0.0231328 -2.80314 1.96663
-0.218808 -2.77883 1.41624
-0.424092 -1.137 0.498871
-0.0860809 -3.00137 0.811978
0.712259 -2.3158 2.29371
0.163753 -1.83102 1.87668
-0.0722483 -0.771662 1.10864
-0.0976207 -3.22927 1.44668
-0.172357 -2.69114 1.69006
-0.155053 -0.775257 1.04641
0.127959 -1.44056 1.66289
0.293744 -0.731674 1.23402
0.00756029 -1.7341 1.74076
-0.0712962 -1.20651 1.41497
0.0543841 -3.66703 1.3486
-0.323313 -1.15264 1.11729
-0.128757 -1.46049 1.51001
0.336844 -0.853854 1.34255
-0.113048 -2.82811 1.79884
-0.3075 -0.99915 1.04033
-0.353003 -1.49695 0.338697
-0.422167 -1.69661 0.825986
-0.0662431 -2.0928 1.81106
-0.213489 -2.36718 0.542202
0.716943 -2.28345 2.27995
0.696903 -1.06915 1.55568
0.474375 -2.09157 2.12353
0.0509627 -2.22886 1.95429
0.693034 -2.25209 2.25964
-0.423934 -1.69499 0.863038
1.16484 -3.22726 2.77447
-0.23722 -2.63403 0.946922
-0.148589 -2.2469 1.74959
-0.157446 -3.02865 1.34917
-0.310798 -1.86711 0.431144
0.379562 -1.6911 1.89519
-0.263568 -2.572 1.39989
0.370179 -2.53729 2.25606
-0.396376 -1.06685 0.891782
0.816748 -3.07739 2.62355
0.733517 -1.41356 1.79887
-0.321034 -1.73098 0.372879
-0.0906896 -0.83919 1.14959
0.572524 -1.00053 1.49349
0.0940879 -0.871608 1.27808
-0.217841 -0.706169 0.920476
-0.177362 -2.70223 1.67239
0.179561 -2.06423 1.98363
-0.114901 -3.01148 0.939957
0.33668 -2.89016 2.33406
-0.434832 -1.36721 0.889936
-0.402265 -1.78167 1.11195
-0.181217 -2.44349 1.70935
-0.277673 -2.20047 1.50987
-0.0609911 -3.28629 1.67238
0.0581317 -1.93892 1.85977
0.242973 -4.16288 1.40302
-0.233749 -1.98272 0.302677
-0.266104 -2.57624 1.03747
-0.329321 -0.820379 0.851908
0.139856 -2.87494 2.16888
-0.102041 -2.03933 1.75964
0.516105 -1.10704 1.56396
-0.383498 -1.8986 0.750085
-0.417017 -1.44106 0.556394
-0.420703 -1.48527 0.603806
-0.373666 -2.08892 1.04442
-0.164934 -2.59221 0.609795
-0.408745 -0.878745 0.58231
0.324556 -2.39245 2.1833
0.523009 -1.27047 1.67738
-0.412019 -1.01156 0.431321
0.923232 -2.39222 2.37266
0.334464 -1.10769 1.52818
-0.166462 -2.1597 1.71048
0.423739 -2.54966 2.28678
0.0295946 -3.61671 1.60991
-0.420759 -1.29091 0.509577
-0.137696 -0.991004 1.22568
0.607216 -2.26459 2.24267
-0.0151255 -1.12023 1.397
-0.421159 -1.53471 0.640872
0.256625 -1.38779 1.68449
-0.180933 -1.99673 1.6566
-0.171278 -2.96941 1.23624
0.243169 -2.85642 2.25827
-0.279619 -1.99933 1.4995
-0.150451 -2.08248 0.179018
-0.278275 -1.78866 1.46147
-0.0573094 -0.999671 1.29026
1.06269 -3.01401 2.67011
0.0595883 -3.0627 2.07815
-0.0774173 -3.02267 1.82199
0.103753 -2.64068 2.0988
0.0179731 -1.96502 1.84114
-0.387446 -1.43867 0.425155
-0.00414285 -3.09795 1.96486
0.573022 -1.8336 2.02286
0.438435 -2.61226 2.31486
0.0276524 -2.5715 2.01191
-0.0195288 -3.47093 1.55938
-0.287867 -2.31299 1.45916
-0.286839 -2.44043 0.919713
0.73371 -1.929 2.10566
-0.247645 -2.00374 1.55916
-0.135563 -1.61011 1.57315
0.0342447 -1.91704 1.83479
