ply
format ascii 1.0
comment Created by Open3D
element vertex 400
property double x
property double y
property double z
end_header
1.06326 -2.1148 0.328094
2.17189 -3.11527 0.700788
1.00088 -1.99385 -0.13568
2.97447 -2.19477 -0.683325
1.05545 -2.10705 0.320598
1.69548 -0.576828 -0.596958
0.63616 -1.25303 -0.472877
1.4396 -2.02856 -0.560739
1.42645 -2.10991 -0.499724
2.22092 -2.24635 -0.678904
2.18259 -3.09049 0.150717
2.11743 -2.57399 -0.513228
2.17003 -3.02376 -0.0192702
0.396462 -0.996278 -0.368527
0.817015 -1.83968 0.3039
0.617279 -1.13315 -0.506453
1.34356 -1.02823 -0.707962
0.72877 -1.40449 -0.469293
2.1668 -2.99979 -0.0671797
2.43375 -3.33147 0.563979
1.6126 -2.65171 0.315035
1.23367 -1.13696 -0.706651
1.93891 -2.56679 -0.435978
0.77859 -1.69166 0.685349
0.821903 -1.82672 0.42045
1.42348 -2.43166 -0.0340346
2.16947 -2.96822 -0.130983
0.808529 -1.83157 0.28574
1.8612 -1.63123 -0.747809
0.95392 -1.5914 -0.532013
2.96715 -2.40173 -0.665448
2.13421 -2.60666 -0.497903
0.594246 -1.11279 -0.497172
2.77285 -1.8736 -0.70496
0.790342 -1.46144 -0.486684
1.93407 -2.51661 -0.4744
1.79178 -2.78209 0.696283
2.29982 -2.33009 -0.664
1.73307 -2.39835 -0.459161
1.02952 -1.72085 -0.50697
2.63014 -2.08827 -0.713316
0.621509 -1.59479 0.000253723
2.20004 -1.28695 -0.711816
0.999657 -2.03966 0.0421956
2.03937 -1.34979 -0.733608
1.08109 -0.649483 -0.63092
1.36729 -2.35004 -0.124302
1.25657 -2.3057 0.432973
3.04259 -2.40506 -0.660994
1.74882 -2.75944 0.192077
0.601838 -0.974732 -0.534554
1.58307 -2.60695 0.57553
0.345787 -1.20222 0.0130418
0.650977 -1.63765 0.033816
2.25741 -3.15026 0.171733
1.9358 -2.26441 -0.622148
2.41756 -2.28641 -0.685149
1.55475 -2.19274 -0.515005
1.10382 -2.15478 0.094434
0.610173 -1.59306 0.139254
3.016 -2.4046 -0.662586
1.83954 -2.6164 -0.314213
2.20173 -2.89446 -0.270692
0.612082 -0.810958 -0.552714
0.517086 -1.17812 -0.401565
1.8707 -0.773833 -0.63761
0.415512 -0.953868 -0.406625
0.859055 -1.5516 -0.48683
2.19185 -3.08228 0.098297
1.85377 -2.62664 -0.314082
3.10465 -2.52647 -0.640901
0.805488 -1.29261 -0.569252
2.06316 -2.69534 -0.391955
2.19098 -2.00414 -0.725501
0.697872 -1.68755 -0.0155535
0.880738 -1.42535 -0.56421
1.70342 -2.29566 -0.520917
1.49318 -2.54226 0.26593
2.75498 -2.11874 -0.704291
0.883346 -0.676014 -0.613986
0.696806 -1.61511 0.605221
0.305479 -1.11303 -0.0625448
0.927521 -1.68135 -0.453573
0.401135 -1.28982 0.271678
2.00605 -1.29536 -0.729578
0.523822 -1.23944 -0.368583
2.49669 -2.01646 -0.723827
2.3186 -1.74805 -0.739793
1.98901 -2.35722 -0.59393
1.08443 -1.64679 -0.580368
0.751549 -1.76727 0.0937041
1.8692 -1.88113 -0.722298
0.923611 -1.85096 0.745384
0.980671 -1.19454 -0.656483
1.87678 -2.42501 -0.513874
1.49021 -2.14165 -0.514836
0.589226 -1.33814 -0.372445
1.10625 -1.54443 -0.62876
0.715709 -1.62643 0.641557
2.19708 -2.90491 -0.253701
2.70234 -1.75589 -0.706938
1.91928 -1.11107 -0.708716
1.54998 -2.58609 0.495508
1.75819 -1.17812 -0.727844
1.94484 -2.73357 -0.25784
2.0561 -1.82319 -0.741299
1.74092 -1.6484 -0.740448
0.646123 -1.63271 0.26727
2.13105 -2.56824 -0.521875
3.59447 -2.53686 -0.597537
1.27691 -2.33471 0.186238
2.18412 -3.11255 0.245711
1.30896 -1.63394 -0.671243
0.978542 -1.98778 0.523898
0.487876 -1.30831 -0.244813
0.584658 -1.40956 -0.296224
1.40224 -2.2629 -0.329798
1.12133 -2.14092 -0.0614116
1.59796 -2.03655 -0.621399
1.77003 -2.21287 -0.596809
0.427553 -1.22627 -0.227344
2.24937 -2.99571 -0.172653
0.564198 -1.53168 0.180734
1.337 -2.36538 0.570817
1.67295 -2.42873 -0.389345
2.05319 -2.91609 -0.0758409
1.51762 -1.6941 -0.706123
1.26903 -2.32446 0.374673
1.62709 -1.6053 -0.734262
1.1998 -2.05921 -0.357981
2.05398 -2.96269 0.0387678
1.19469 -0.88485 -0.681029
1.62807 -2.63284 0.0577083
1.79221 -1.97858 -0.690286
1.27866 -1.84508 -0.58226
1.42486 -2.46193 0.522688
2.1522 -1.30548 -0.719176
1.54783 -2.12321 -0.556746
1.9479 -1.18957 -0.719256
0.533184 -1.04993 -0.473098
2.46596 -2.28179 -0.688483
0.576132 -1.52324 0.368356
2.23823 -3.13976 0.185286
2.36612 -3.27654 0.471659
0.764155 -1.74805 0.455016
2.22823 -1.51278 -0.735411
1.71458 -2.37143 -0.470388
3.10328 -2.47678 -0.648303
2.03822 -2.29309 -0.634509
0.857727 -1.89421 0.198226
2.0288 -1.61856 -0.749264
1.59182 -2.5742 -0.0408133
0.945761 -1.86625 -0.273627
1.86048 -2.8283 0.0824916
0.306148 -1.07653 -0.139756
1.34554 -1.83186 -0.617484
2.13432 -2.57264 -0.520261
1.74156 -1.95299 -0.687883
1.82423 -0.760769 -0.638841
2.02501 -1.85514 -0.737183
1.60325 -1.44374 -0.741397
1.56716 -1.92156 -0.657008
2.36639 -3.27914 0.530546
2.37015 -2.69394 -0.522142
0.946604 -1.98394 0.350604
2.91807 -2.01949 -0.692255
1.967 -2.76089 -0.240939
1.19292 -1.16092 -0.701788
2.23751 -1.25982 -0.703504
1.47421 -2.47901 -0.024761
1.97926 -2.95466 0.246519
2.41827 -2.71309 -0.524415
1.38273 -1.0123 -0.707781
2.33757 -2.27112 -0.683373
2.13353 -1.4438 -0.736485
2.07366 -2.33563 -0.625072
1.91006 -1.17492 -0.719681
1.58061 -2.55816 -0.0600562
1.82396 -2.22476 -0.608468
0.545579 -1.03863 -0.48565
0.900222 -1.93723 0.0815246
1.81609 -2.8303 0.364739
1.23193 -2.26342 -0.00491541
2.31266 -2.37945 -0.650255
1.25883 -2.25999 0.671029
0.986175 -2.01223 -0.0256329
0.778595 -1.78359 -0.0182647
1.25817 -1.42696 -0.697837
2.1303 -2.16604 -0.689909
0.432346 -1.33794 0.0219643
2.29739 -2.95063 -0.274405
1.05188 -1.92921 -0.340159
0.556208 -1.47706 -0.115127
0.349655 -0.936565 -0.343492
2.69146 -1.69569 -0.70374
0.953385 -1.47336 -0.584686
0.606945 -1.54695 -0.109149
0.945422 -1.97801 0.0194982
1.58345 -1.90462 -0.667015
1.288 -2.33075 0.483186
0.804217 -1.72153 -0.25225
0.537526 -1.48046 -0.0159515
2.80563 -1.88586 -0.70176
2.38186 -1.72941 -0.735657
0.993612 -2.00398 0.528346
2.41249 -1.52006 -0.719299
1.36096 -1.93262 -0.576277
1.1698 -1.11832 -0.697867
1.28535 -2.31533 0.555172
1.38556 -2.42189 0.529546
2.05942 -2.06082 -0.706951
2.83235 -2.59251 -0.628907
1.23429 -1.16411 -0.707404
1.00723 -1.54483 -0.584397
1.47719 -1.79987 -0.671576
1.36554 -2.37607 -0.046519
1.85985 -1.44717 -0.74785
2.00546 -2.60824 -0.437307
0.866797 -1.90473 0.181941
1.42189 -2.47581 0.252717
0.379915 -1.26302 0.0549562
1.53361 -1.30823 -0.736765
1.4743 -1.45736 -0.729438
3.6615 -2.52079 -0.58995
0.897884 -1.2338 -0.624355
1.49579 -2.54309 0.400351
1.43198 -1.12658 -0.721665
1.2117 -1.14202 -0.704069
1.67941 -1.49061 -0.744806
0.648145 -1.56038 0.57608
1.41227 -0.76553 -0.664794
1.96735 -2.94883 0.62719
1.67663 -2.70727 0.290088
1.49969 -1.10379 -0.721504
0.990046 -1.32764 -0.640312
0.686052 -1.36512 -0.455338
0.952509 -1.96864 -0.0567756
0.861877 -0.926703 -0.634421
1.43427 -2.45913 0.0334287
1.18072 -2.21607 0.500968
1.86738 -1.59061 -0.74924
1.35768 -2.20706 -0.351716
3.04271 -2.22261 -0.675763
1.54966 -1.62195 -0.722994
1.48051 -1.46749 -0.72949
0.796202 -1.17887 -0.593125
1.08562 -1.57508 -0.609914
2.66262 -2.65607 -0.596124
0.978952 -1.96969 0.593336
1.62574 -2.36511 -0.417463
1.01862 -1.8721 -0.367433
2.28123 -3.18181 0.2327
2.68095 -1.87107 -0.714367
1.82485 -1.59687 -0.747931
1.68586 -2.32297 -0.49206
2.15021 -2.19122 -0.685673
0.382785 -1.22694 -0.101399
1.78462 -2.73723 -0.0209523
1.03109 -2.06071 -0.0187677
1.97375 -2.24666 -0.638577
0.748391 -1.07506 -0.589761
1.08906 -1.16757 -0.684
1.65169 -2.64166 0.0161197
1.7964 -0.780593 -0.646872
1.56568 -2.60808 0.401749
2.15673 -2.76694 -0.379169
2.1139 -3.07235 0.344431
1.12362 -0.728291 -0.650009
1.56391 -2.59247 0.131223
0.91977 -1.86852 0.687018
2.1968 -2.84376 -0.325949
1.27818 -1.93353 -0.531609
1.33268 -2.3274 0.710689
0.681978 -1.59196 0.614076
2.11149 -3.07607 0.551841
1.42691 -2.25032 -0.370548
0.567588 -0.940592 -0.521027
0.825363 -1.8151 -0.102032
1.71736 -2.3832 -0.462354
0.909884 -0.933346 -0.645859
1.9189 -2.86089 0.0376313
0.902024 -1.26715 -0.61971
1.08979 -2.13265 0.417989
1.2715 -1.00346 -0.700978
0.354679 -1.17567 -0.113061
0.858619 -1.86228 -0.0703441
2.16693 -1.76604 -0.744936
1.26129 -2.30192 0.0438813
0.404872 -1.25008 -0.128499
1.4167 -1.66133 -0.692086
1.10975 -1.55203 -0.627765
0.666409 -1.04504 -0.556557
1.37402 -2.05374 -0.508143
1.97655 -2.36578 -0.585961
0.443076 -0.858134 -0.4558
2.23936 -1.60734 -0.74059
2.01003 -2.19692 -0.663715
1.95288 -2.2778 -0.620751
1.77908 -2.70455 -0.0934782
1.50024 -2.36621 -0.301253
0.672037 -1.47414 -0.356585
1.25627 -1.97181 -0.490752
2.39544 -3.3015 0.532621
2.00727 -2.95834 0.147737
1.42624 -2.45737 0.55927
2.83809 -1.89924 -0.69854
0.895977 -1.92269 0.374048
1.16998 -1.5039 -0.661816
1.80749 -1.24496 -0.733981
1.45963 -1.89082 -0.635255
1.09575 -2.15381 0.235522
1.91336 -1.35043 -0.740362
1.10896 -2.16679 0.182534
2.16984 -1.22542 -0.705168
1.79616 -2.81261 0.342182
1.09999 -1.95734 -0.364485
2.52442 -1.76293 -0.725543
2.15757 -3.10238 0.31009
2.3586 -1.74139 -0.737422
1.30082 -0.788003 -0.669295
1.32431 -2.28892 -0.175949
2.11447 -1.4753 -0.740291
2.09234 -3.03325 0.193771
1.29201 -2.28947 0.692378
1.61718 -2.64373 0.164674
2.3552 -3.23352 0.225467
1.03887 -2.08185 0.0493159
2.15044 -1.38557 -0.729374
0.775471 -0.844379 -0.608924
1.79722 -2.05384 -0.668964
0.441581 -1.18141 -0.301813
0.516868 -1.46755 0.115595
0.869799 -1.90811 0.172328
1.71251 -2.26001 -0.548336
2.19239 -2.61782 -0.512165
1.42806 -2.47059 0.125789
2.07505 -1.17639 -0.706428
2.13564 -2.75816 -0.375126
1.23243 -1.71299 -0.62029
0.900317 -0.907863 -0.642624
1.72479 -1.34151 -0.743298
1.21116 -2.05837 -0.371422
2.39701 -1.81267 -0.735614
0.899838 -1.81232 -0.279777
1.75192 -2.47915 -0.397343
0.85055 -1.78107 -0.241604
2.42262 -1.52313 -0.718543
1.18794 -1.73994 -0.589334
1.2146 -2.15209 -0.245112
1.3687 -1.57388 -0.698776
0.62227 -0.80601 -0.556876
2.05276 -1.81052 -0.742243
1.54188 -2.16456 -0.527483
1.11952 -2.14027 -0.0575169
2.76494 -1.9918 -0.707532
1.35817 -0.620231 -0.629821
2.8909 -2.02604 -0.695194
2.51715 -1.74705 -0.725563
1.25728 -2.28152 0.576945
3.44582 -2.40853 -0.623158
0.428184 -1.33916 0.085354
1.29606 -2.28098 -0.136052
1.77014 -0.695765 -0.625895
1.02756 -1.49883 -0.610726
1.32606 -0.989363 -0.702599
1.61147 -2.53836 -0.165798
1.77752 -0.983073 -0.695267
1.34762 -0.815167 -0.675374
0.581974 -0.990876 -0.520573
1.44073 -0.968301 -0.702986
0.993678 -0.898382 -0.659564
0.966798 -2.01295 0.112972
1.6784 -0.541002 -0.587
2.03829 -1.91303 -0.730835
1.31725 -2.37631 0.252615
0.803825 -1.75049 0.61456
2.31776 -3.23805 0.445033
0.923491 -0.962459 -0.649836
1.21947 -0.712748 -0.651568
0.988418 -1.97456 -0.15155
0.648408 -1.57593 0.532279
2.0588 -2.96851 0.0455143
1.45156 -0.602177 -0.621826
1.66444 -2.69836 0.363054
2.00047 -1.85245 -0.736342
0.917083 -1.9274 0.47764
1.68349 -2.08751 -0.626894
0.750029 -1.13876 -0.579935
2.30945 -1.54478 -0.731429
1.19283 -2.25109 0.169828
0.981062 -2.00429 0.462981
0.806825 -0.903795 -0.619432
1.79533 -1.22686 -0.732392
0.420726 -1.04688 -0.369689
0.973591 -2.00072 0.437779
1.29318 -2.30065 -0.0759869
1.0695 -0.64574 -0.629283
0.307526 -0.979934 -0.254436
0.560155 -1.34009 -0.33193
2.393 -2.70546 -0.521875
