ply
format ascii 1.0
comment Created by Open3D
element vertex 400
property double x
property double y
property double z
end_header
1.09057 0.326993 1.51442
3.12565 -0.0788983 1.76067
1.136 -0.178239 1.2862
2.27872 -0.199284 0.428705
1.64369 0.75493 1.94582
1.31225 0.379725 1.67469
1.44809 -0.381701 0.408786
1.50675 -0.0562609 1.59011
3.10797 -0.049016 1.86048
4.03831 0.183218 1.49289
0.814611 0.299831 1.30286
1.54519 -0.393511 1.13913
2.64874 -0.229671 0.928636
2.8011 -0.164581 1.6686
2.37383 -0.293625 1.40846
0.79685 0.677 1.34037
0.904956 0.192996 1.34128
3.50451 0.0223695 1.14551
0.757091 -0.374249 0.633483
2.90202 -0.120783 0.810585
1.62551 -0.166609 1.54951
1.89517 -0.206575 1.5966
2.45665 -0.282463 1.40484
1.42485 -0.401605 1.07516
0.827158 -0.384212 0.6916
1.67013 0.0204375 1.72058
2.29934 -0.18652 0.412045
2.61374 0.369729 2.28021
2.15053 -0.357614 0.940042
2.54299 0.537955 2.33365
1.28765 0.738058 1.71478
2.28227 -0.333809 1.22986
1.7555 -0.336649 0.43533
2.69667 -0.221611 1.51194
1.73576 -0.391152 0.631015
1.623 -0.430057 0.90026
3.13182 0.0439219 2.04608
2.43276 0.477608 2.26807
0.859398 -0.164892 1.1054
1.55678 -0.383321 0.472206
2.28312 -0.331068 0.962068
2.05546 0.648419 2.15437
3.19472 -0.104286 1.2826
2.16252 -0.305436 1.43694
2.79235 -0.152315 1.70988
1.30013 -0.380029 0.341844
2.15695 0.390612 2.12193
1.94247 -0.394413 1.05384
2.89732 0.824985 2.56357
1.80838 -0.402387 1.10134
3.95268 0.173037 1.29327
1.52272 -0.406335 0.549641
2.79454 -0.17724 0.893302
3.81879 0.0977024 1.59036
3.40415 -0.0133142 1.13526
1.75227 -0.0708454 1.68929
1.50506 0.461419 1.81256
1.38029 0.831926 1.78397
1.19953 -0.41501 0.916128
1.38684 -0.440942 0.742137
3.33269 0.0015303 0.942842
1.87047 0.552887 2.03757
1.7177 -0.398574 0.654434
1.21589 0.733337 1.66445
2.10613 0.661483 2.18242
3.20612 -0.0897886 1.17574
2.48612 0.630083 2.34412
1.32504 -0.1302 1.43847
2.51172 -0.290342 1.21526
2.27758 0.395833 2.17368
2.21408 0.30264 2.10641
1.35404 -0.392489 0.406692
1.12545 0.0769293 1.4491
4.00526 0.181197 1.38381
2.82911 -0.184232 1.57285
1.55518 0.523003 1.85576
0.830531 0.0443013 1.22349
0.659564 0.209994 1.14944
2.16251 -0.0999963 1.79381
2.11699 0.531843 2.15332
2.45286 0.178634 2.11471
2.7346 0.59105 2.42343
2.57686 0.0322504 2.01759
1.94366 0.0372415 1.84715
3.05372 -0.113524 1.68492
0.9859 -0.39063 0.843105
1.17463 -0.0546297 1.40673
2.41779 -0.0986447 1.84058
0.989659 -0.194771 1.17362
1.30216 0.48303 1.69102
2.91009 0.160907 2.19394
2.2731 -0.294601 1.44801
1.77088 -0.354659 0.506147
2.69561 -0.246436 1.2816
2.50891 0.192256 2.13985
0.965001 -0.141829 1.20396
2.64614 -0.158925 1.73423
1.03334 0.468921 1.50345
2.34542 0.948961 2.35404
2.54699 -0.163795 1.73729
2.40572 0.0549163 2.00507
2.35839 -0.0589085 1.88097
2.18899 -0.301095 0.666929
1.14819 0.134899 1.48967
0.711217 0.00229658 1.10477
2.12327 0.0316681 1.90626
2.82949 -0.159763 1.66956
1.80976 0.380958 1.9572
1.92662 0.180787 1.92768
2.30701 -0.276586 0.694662
0.946724 -0.393456 0.794873
2.74369 -0.197809 1.58197
3.16087 -0.0893156 1.07123
1.90302 -0.365765 0.659193
2.09305 0.450552 2.11617
1.38688 0.36328 1.71677
2.51253 -0.277761 1.37597
2.977 -0.147259 1.04628
2.17977 -0.173867 0.29376
2.12523 0.844367 2.22709
1.5025 -0.434852 0.739245
0.716743 0.469203 1.25486
2.36818 -0.321489 1.11726
3.13298 1.01186 2.70259
2.89331 0.394158 2.37205
1.67374 -0.249213 0.161312
1.73814 -0.414205 1.0374
0.949444 0.712554 1.46519
2.90659 0.197663 2.2281
0.776846 0.630536 1.32121
2.94337 0.362692 2.36343
2.78238 0.623136 2.45263
1.18073 -0.0135677 1.43625
1.31036 -0.4269 0.553353
0.828808 -0.114772 1.12347
1.64956 -0.357304 1.26763
1.06103 -0.365784 0.972944
2.62441 -0.241671 1.47512
0.737525 -0.291695 0.84338
3.31415 -0.0220423 1.01176
2.72468 -0.118112 0.603664
0.634961 -0.211729 0.858647
1.35718 -0.344958 0.255181
2.11082 0.496298 2.13945
2.82723 -0.0938561 1.84096
2.95973 -0.0905305 0.77564
3.05866 -0.147103 1.28637
2.14623 -0.211025 0.358758
2.68782 -0.179993 1.67001
2.24166 0.6229 2.23673
0.874255 0.851185 1.40691
0.784493 -0.234137 0.971261
0.753701 -0.358599 0.697957
1.64974 0.079315 1.74656
1.5195 -0.415609 0.596013
3.81014 0.121675 1.25694
2.21583 -0.197474 0.375955
0.643385 0.254005 1.14844
2.11092 -0.19715 0.300655
0.668724 -0.0666364 1.02482
1.00612 -0.325401 1.01525
2.35013 -0.251936 0.648778
2.14654 -0.19682 0.324406
2.12158 0.520685 2.15204
1.7725 -0.360574 1.28103
1.25327 0.629301 1.68081
1.86936 -0.27192 0.325312
3.14011 0.984529 2.69768
1.1511 -0.11796 1.34681
2.35115 -0.229279 0.575295
0.782194 -0.0601958 1.12535
1.28578 0.554426 1.69259
1.19214 -0.415564 0.908986
0.89649 -0.21597 1.08344
1.78558 0.286516 1.91083
1.43886 0.0507718 1.62272
1.82124 0.0118206 1.78068
2.59683 0.00631145 1.99219
1.3982 -0.427863 0.950111
2.286 -0.335982 1.19152
1.51848 -0.156644 1.51244
2.03399 -0.382388 1.03635
1.73481 -0.420399 0.941209
2.39237 -0.166634 1.73578
1.98653 0.232781 1.97964
2.52758 -0.204832 1.64788
3.86823 0.117502 1.50412
3.68855 0.0822975 1.20653
0.875517 -0.394473 0.706492
3.76284 0.109021 1.22095
1.00591 0.100301 1.37875
0.692619 -0.264891 0.842737
1.39187 -0.341221 0.258299
2.1309 0.549624 2.16505
2.51055 0.421428 2.27217
2.22969 0.212406 2.06445
1.85865 0.746336 2.06919
1.5996 -0.242122 1.45248
3.29485 -0.0736346 1.31315
0.771077 -0.352103 0.741698
0.769459 -0.222781 0.971833
1.91132 -0.0677044 1.75206
2.26793 0.28877 2.11996
2.24068 -0.340177 0.95813
2.15179 0.239262 2.05023
2.22445 0.961602 2.29484
2.66591 0.663775 2.42562
1.98729 -0.379645 0.842772
1.30395 -0.363353 1.12522
1.70245 0.689339 1.97176
1.96457 -0.331234 0.572417
2.66671 0.58912 2.39878
2.78598 -0.198532 1.54375
3.25742 -0.0409655 1.0024
1.19517 -0.425487 0.513515
1.47399 0.732674 1.8379
2.46035 -0.300989 1.11652
3.04031 0.973382 2.65846
2.98951 0.0346834 2.04582
0.855178 -0.232612 1.0322
2.62195 0.126577 2.11559
2.1584 -0.250904 1.57041
2.34103 -0.157628 0.372801
1.80469 0.252364 1.90607
2.19032 -0.327121 1.35084
1.50175 -0.409399 1.06977
1.49884 0.680537 1.84764
1.72422 0.748912 1.99292
2.51758 -0.282864 1.32491
1.93891 -0.394548 0.920526
1.97771 0.0497033 1.86882
1.89704 0.0895903 1.86329
2.37332 -0.183456 0.463721
1.2494 0.586167 1.67277
1.86258 0.065477 1.83384
2.09881 0.845494 2.21354
2.85623 0.87769 2.5633
0.795239 -0.0862512 1.11794
1.50038 -0.426423 0.653084
1.54822 -0.423129 1.00756
1.8004 -0.111536 1.67197
2.88047 -0.194124 1.42387
3.10643 0.85802 2.6473
1.47805 0.131328 1.68511
3.09862 -0.0330126 1.90314
1.63554 -0.0578829 1.64972
1.51985 -0.362546 1.2175
2.31634 -0.332029 1.09997
0.788153 0.288233 1.27879
2.13645 0.103703 1.96342
0.672932 -0.186768 0.924669
2.77844 1.05614 2.57166
1.55873 -0.434576 0.826233
2.04764 -0.306946 1.44086
2.58135 0.47072 2.31937
2.16615 -0.303941 0.655028
2.24735 0.701457 2.25944
2.7795 -0.129619 0.695878
3.43892 -0.00697862 1.1738
1.11657 -0.148698 1.30018
1.00089 0.622136 1.49872
2.57627 0.0232804 2.00801
0.801407 0.458757 1.32357
1.74711 -0.405969 1.0976
3.10769 -0.134485 1.38302
2.72939 0.518239 2.39061
1.66684 0.196143 1.81374
2.76632 0.229878 2.22985
1.98106 0.223794 1.97288
2.14918 0.843123 2.23921
1.55229 -0.342675 0.335543
1.06993 -0.363654 0.98425
2.02362 -0.356448 1.28085
2.96982 0.640838 2.52084
2.59375 -0.196033 0.712226
2.92988 0.905294 2.59888
0.770819 -0.382731 0.604555
2.79536 0.974293 2.56249
3.29411 -0.0758816 1.51225
1.33249 -0.436993 0.644881
1.96001 -0.194614 1.6295
1.17009 0.396391 1.58552
2.44097 0.526853 2.29036
1.52871 0.0126407 1.64737
2.96382 -0.139293 1.65448
0.732892 0.150652 1.19102
0.827183 -0.233157 1.00869
1.07411 -0.393396 0.907197
2.40066 0.284327 2.16456
3.38045 -0.0224582 1.74967
2.7779 0.604167 2.44353
3.47745 0.000411138 1.73209
1.77241 0.629034 2.0012
1.51638 -0.325189 1.29359
3.08643 -0.0546103 1.85508
1.14318 0.543932 1.59359
2.72187 -0.201037 1.58377
2.88695 0.388246 2.36684
1.43909 -0.420215 0.573266
0.707277 0.281047 1.2104
2.61675 -0.191289 1.66133
1.03319 -0.250919 1.14261
2.77693 -0.219082 1.12432
0.627975 -0.0706051 0.985169
2.84732 -0.205933 1.36768
1.92159 -0.28147 1.48466
0.775581 0.557131 1.31438
1.11552 -0.353864 1.03669
2.41921 -0.310953 1.1551
0.953739 0.0189993 1.30263
3.04567 -0.136818 1.12673
1.89267 0.766643 2.09109
1.72303 0.0244827 1.74721
1.24967 -0.409347 0.439325
1.40738 0.221991 1.6835
1.39856 -0.093158 1.50742
2.55426 0.999817 2.46165
2.44782 -0.240717 0.711689
2.64929 -0.168925 0.681191
2.9569 1.09599 2.65423
1.0891 0.835846 1.57622
0.873099 0.371169 1.36495
2.79249 -0.218252 1.38583
1.05605 -0.42473 0.516004
1.45455 -0.436682 0.718498
1.47391 -0.114615 1.52857
3.23328 -0.0958727 1.46642
3.38668 -0.00390972 1.82373
3.42741 0.010219 1.05925
1.4181 -0.276631 1.32923
1.52947 0.0894213 1.69169
2.87766 0.619239 2.48268
2.41748 -0.26325 0.766369
2.71484 0.531115 2.39154
2.11757 -0.266163 0.485662
2.73235 0.287345 2.26347
1.82219 -0.275504 1.47459
2.58306 -0.158842 1.74374
2.45223 -0.186519 1.69849
4.14048 0.234953 1.39387
1.8757 -0.385343 0.735179
1.62344 -0.364526 0.443844
1.04083 0.231129 1.45224
1.51279 0.541493 1.83415
1.27762 0.163035 1.58301
1.71617 -0.41665 0.784125
2.14034 -0.363691 1.00246
1.95742 -0.00689211 1.81931
2.20299 -0.203034 1.66128
1.65943 0.0860957 1.75503
1.83426 -0.120571 1.67552
3.59507 0.0227997 1.41759
1.7774 0.131491 1.8353
0.699758 -0.114062 1.01662
1.75193 0.422398 1.94042
0.823197 -0.121153 1.11403
2.0177 -0.239369 0.339715
1.31875 0.73548 1.73583
2.79954 -0.21399 1.14002
1.06825 -0.422239 0.773723
1.31079 -0.438138 0.649923
1.64093 -0.390962 0.557052
1.4382 -0.121435 1.50511
2.70595 -0.18138 0.790849
2.12414 -0.23516 0.404366
1.27339 -0.28368 1.24705
2.65353 -0.188968 0.755643
1.22361 0.61358 1.65863
2.52435 -0.249659 0.843628
2.10611 -0.160151 1.70855
0.816006 -0.396254 0.582359
1.05128 0.504755 1.52217
2.22702 0.00186271 1.91219
1.85986 0.798334 2.07727
0.853966 0.790566 1.39045
3.29712 -0.019076 1.84235
2.09411 -0.193637 1.66005
2.04825 0.612567 2.14234
1.93862 -0.396267 1.01144
1.20486 0.333977 1.59352
2.56743 -0.23508 1.54318
1.01882 0.241254 1.43992
0.744228 -0.189672 0.9864
3.0406 -0.0717237 1.82955
1.52865 -0.0702411 1.59046
2.89729 -0.168732 1.01999
2.64695 -0.191198 1.65215
0.841782 0.221212 1.30223
2.79964 -0.218009 1.19783
1.06831 -0.101926 1.30588
1.55723 0.589039 1.86963
3.27423 -0.083733 1.38791
2.08879 -0.357779 0.830688
2.86159 -0.00545922 1.9916
0.617519 0.042749 1.04466
1.8727 -0.402926 0.889646
1.26097 0.0152423 1.5018
2.34575 0.0493902 1.98537
3.17257 -0.108292 1.24251
2.1929 -0.298415 0.660431
