ply
format ascii 1.0
comment Created by Open3D
element vertex 200
property double x
property double y
property double z
end_header
-1.0817 -2.76502 1.154
-1.57271 -3.37348 1.94289
-3.56752 -4.95047 5.3322
-0.283314 -7.33768 3.72657
-1.39298 -3.44076 1.79434
-1.26923 -0.889767 0.71311
-2.17097 -7.09481 4.95873
-3.22352 -6.04891 5.48459
-4.42181 -3.76167 6.19698
-1.85818 -3.01024 2.08003
-1.10178 0.823614 1.02752
0.986194 -5.56222 2.17021
-1.9362 -0.258768 1.51115
-1.59535 -2.71267 1.64654
-2.69722 -9.77184 7.58692
-0.0747753 -6.16754 2.69601
-1.44185 -1.24568 0.966613
-3.68475 -5.14619 5.609
-2.95978 -1.57791 3.13074
-1.32386 -0.377632 0.739018
-3.98504 -4.92402 5.95345
-1.15972 -0.785039 0.586485
0.809395 -1.47718 0.0720456
-2.77996 -1.24917 2.79686
0.0616119 -1.27899 -0.130649
-0.34924 0.591088 0.46444
-0.266169 -3.61273 1.01306
-2.39473 -8.48113 6.2432
-3.55363 -1.96508 4.19827
0.645151 -0.581174 0.146897
-0.207718 -7.38546 3.73573
-0.411377 -1.93651 0.274201
0.0721096 -5.79478 2.35723
-0.365032 -3.66981 1.10208
0.359466 -3.04112 0.473145
-0.624327 0.0848097 0.190239
0.25285 0.0798076 0.227714
0.97824 -2.29686 0.327065
1.07875 -4.36592 1.37424
0.165826 0.121577 0.182278
1.257 -4.4506 1.55354
-0.553791 0.721338 0.63185
-2.24782 -0.121408 1.99295
0.27718 -2.93508 0.432186
0.738741 -1.95368 0.0837632
-1.08483 -3.83157 1.72597
-1.17958 0.298865 0.716848
-2.78744 -7.02389 5.58676
-2.88029 -1.75176 3.03519
0.22658 -0.171842 -0.0128131
-1.94246 -0.0110611 1.56272
-2.52419 -10.1999 7.7723
0.36034 -1.33974 -0.142856
-0.196504 -3.22114 0.753812
-2.3849 -5.69614 4.21972
-2.11671 -2.56462 2.20142
0.871165 -4.09738 1.11572
-4.80338 -3.9693 6.95746
-2.90672 -1.15084 2.99556
-2.3324 -2.53828 2.47254
1.4334 -4.14857 1.57072
-1.87534 -2.34223 1.81473
1.44115 -3.42973 1.25868
-2.28462 -7.20923 5.16097
-1.84211 -8.45579 5.69987
-0.0873683 0.33278 0.238365
-0.586704 0.952951 1.10656
0.5425 -0.937456 -0.0914906
-1.9306 -1.1631 1.54416
-0.173321 -2.10063 0.206525
-3.04331 -1.12947 3.225
-1.22607 -2.55067 1.19108
0.713676 -5.11068 1.76905
-0.202304 -7.03118 3.43904
-3.59443 -6.08026 6.00923
-0.625822 1.07414 1.61555
-0.630555 -1.07264 0.171757
-0.16009 -7.14494 3.51657
-0.450865 -7.11147 3.61774
0.396933 -4.62363 1.43013
-1.93409 -7.63747 5.13506
-0.903088 -4.41312 1.93141
-2.91178 -4.24649 4.03271
1.20877 -3.82568 1.14785
-2.71525 -2.38143 2.95329
-0.197773 0.293891 0.171509
-3.33145 -5.43816 5.26402
0.46256 -2.63738 0.269945
-0.749096 -5.35044 2.44988
0.92087 -1.98079 0.211929
-0.362943 -6.37977 2.9883
-1.13641 -0.219408 0.55135
-2.92672 -8.12913 6.5477
-1.13974 -0.708832 0.558431
0.434779 -2.18325 0.0844791
-2.68271 -10.1135 7.85476
1.31792 -3.44706 1.07992
-1.90774 -4.70495 3.05895
0.893394 -4.73427 1.53952
0.865245 -2.14046 0.202062
-2.10553 -2.29536 2.08453
-3.03063 -8.24735 6.75552
1.21647 -2.65816 0.678439
-0.576518 0.931025 1.04761
-2.23673 -2.51596 2.33731
-0.589487 0.0466571 0.157736
-0.586966 -0.425852 0.0826232
0.0741576 -1.6044 -0.0568001
-1.88396 -7.71049 5.14488
-1.35059 -1.7767 1.01523
-0.994024 0.669297 0.780045
-4.41601 -4.33961 6.39946
-1.00069 0.728653 0.842344
-2.50705 -1.35441 2.38772
-1.38036 -3.30268 1.70877
0.287734 -2.32982 0.151532
-1.22224 -1.48241 0.792357
-2.1029 -9.22411 6.56326
-0.750026 -2.57213 0.78151
1.08606 -3.08823 0.687905
-1.84065 -2.56485 1.86244
-0.831169 0.282839 0.404561
-0.267252 -0.138008 -0.0363569
-2.76501 -4.9608 4.22994
-2.50629 -5.83823 4.45349
-3.29834 -6.25576 5.71344
-2.70797 -10.1392 7.90129
-1.03829 -6.95696 3.85577
-1.77292 -1.27859 1.36484
-2.55637 -2.69454 2.83767
-2.77729 -5.61157 4.63743
-1.64658 -8.67284 5.71198
-1.51969 -0.556313 0.963531
-0.757633 -0.0681017 0.240532
-1.10018 -6.78381 3.76649
0.681792 -2.08896 0.0957786
-3.03877 -1.37355 3.2343
-0.771384 0.317161 0.378495
-2.90484 -3.10817 3.49629
-0.0858268 0.280824 0.186006
0.0811205 0.405238 0.504349
-2.0288 -5.25952 3.53844
0.799321 -4.51798 1.36885
1.27007 -2.83133 0.798271
1.0072 -5.63112 2.23089
-2.33775 -2.30305 2.39428
-0.0835893 -5.0926 1.89471
-0.956139 -0.657795 0.379455
-1.54911 0.387185 1.17255
-0.520509 0.941519 1.12559
-1.37854 0.500092 1.02994
-3.27632 -4.3512 4.59971
-4.42971 -3.51139 6.13162
-2.88309 -10.4656 8.35046
-3.74221 -2.49465 4.634
0.676314 -6.43355 2.78921
-3.68946 -4.44723 5.26385
0.646333 -1.61516 -0.0254916
-1.16898 -0.876008 0.6076
0.00186575 -5.44054 2.11454
-0.217975 -1.1604 -0.0568704
-3.61171 -3.09748 4.5865
1.09241 -4.00495 1.16175
-1.51071 -1.1639 1.02726
-0.438613 -2.4284 0.49435
-0.565358 -3.05849 0.887037
-4.24606 -3.34623 5.75205
-2.12905 0.0464494 1.85306
-1.8655 0.157049 1.50113
-0.694656 -3.44245 1.18839
-1.94043 -1.95451 1.75725
-2.3974 -2.19555 2.43989
-3.26375 -2.60829 3.86507
-2.19201 -1.16884 1.90056
-1.12848 -1.15793 0.617848
0.354668 -0.254131 0.0270475
-0.660581 0.593858 0.509641
-1.16618 -5.13136 2.61812
-0.409535 -3.37913 0.960593
-1.86872 -7.45281 4.93146
1.38235 -4.99921 2.02931
-0.787244 -4.58814 1.95683
0.0339658 0.219659 0.184454
-2.38675 -1.87781 2.32912
-2.2769 -3.90579 3.0289
-0.454327 -3.89061 1.28861
-1.96883 -7.26305 4.88232
-0.0925148 -4.34354 1.38462
0.536984 -0.975102 -0.0997006
-3.59729 -2.07555 4.29372
0.973824 -4.60428 1.4795
0.920667 -3.84637 0.981722
0.654532 -2.91915 0.414853
-0.374136 0.406307 0.265896
-3.25783 -5.04336 4.93817
1.31313 -2.87537 0.875501
-3.05171 -3.63289 3.93344
-1.55321 -0.266354 1.01003
-1.63023 0.405855 1.28486
-0.528748 0.895305 0.976699
