ply
format ascii 1.0
comment Created by Open3D
element vertex 400
property double x
property double y
property double z
end_header
1.27734 2.05907 -0.46626
2.00017 2.65908 0.48218
2.00724 2.82793 0.08911
2.16564 2.46114 -0.80706
2.19717 2.86535 0.38027
0.41871 1.29045 0.04899
2.09649 2.80805 0.35384
1.16495 1.9524 0.46041
1.6072 2.03781 0.75434
0.87607 1.8384 -0.17648
0.61503 1.44908 0.30012
1.31468 2.16219 -0.38198
3.04674 2.98925 0.90157
1.73918 2.60924 -0.19272
2.23095 2.88636 0.38494
2.2553 2.97322 0.21283
2.08877 2.40134 -0.80447
1.42092 1.79262 -0.78584
1.88239 2.65699 0.34277
2.60449 2.58662 0.96531
1.26379 2.02857 -0.48479
0.94185 1.47249 0.63229
1.66355 2.5773 -0.05413
1.10745 1.7485 0.58578
1.10322 2.00072 0.32016
1.35494 2.2895 -0.21093
2.20956 2.59552 0.72483
1.80096 2.58288 0.36489
1.44819 1.53624 0.92638
1.48439 2.13628 0.58607
1.23602 2.20103 -0.15776
2.66995 2.78867 -0.85193
1.17444 1.81585 0.5917
1.68735 2.35279 -0.55085
1.58099 1.71029 -0.9218
0.6279 1.58002 -0.06149
1.90917 2.08635 0.90606
1.68323 2.32956 0.57142
0.87215 1.62879 0.45707
0.39653 1.25727 -0.03669
0.95833 1.63156 0.54114
1.93497 2.76817 0.13885
2.05605 2.80723 0.29311
1.36511 2.08822 -0.52435
0.95651 1.27243 -0.74279
0.70744 1.64969 0.16454
1.37675 2.34459 0.04973
2.05077 2.86239 0.04948
0.97551 1.90975 -0.25244
0.67397 1.31213 0.4935
1.94002 2.2199 0.84144
1.32673 2.30342 -0.01695
1.15626 2.15059 -0.0031
1.44847 2.18448 -0.50545
2.16942 2.80606 -0.44826
2.14237 2.85373 -0.32624
2.1093 2.67918 -0.56106
0.31636 1.12195 0.04083
1.236 1.97282 -0.51283
0.75443 1.71659 -0.13327
0.89828 1.49544 -0.5824
2.43251 2.6876 -0.79165
1.00617 1.99406 -0.11
1.38478 2.20358 -0.41333
0.67036 1.61021 -0.14888
1.98054 2.63027 -0.50096
0.87589 1.59729 0.48791
1.07827 1.57572 -0.67642
1.07173 1.71941 0.57674
1.11619 1.63302 -0.67045
1.2915 2.27192 -0.03319
0.37197 1.19087 0.132
1.91258 2.41704 0.67236
2.0626 2.18572 0.93181
0.53607 1.41858 -0.18161
1.99584 2.71524 -0.39078
0.54997 1.08351 0.50643
0.80023 1.22662 0.65121
1.25816 2.02663 0.48099
1.75027 2.09731 0.8066
0.49742 1.41025 -0.0149
1.39644 2.19936 0.4326
1.41804 2.04065 -0.61398
0.73335 1.64882 0.23172
0.25985 1.01033 0.06826
0.9397 1.78916 0.37339
2.38345 2.94899 0.45751
2.16187 2.52302 0.75529
0.93143 1.01977 0.81942
1.80455 2.68623 -0.02426
0.86511 1.84607 0.11451
2.78711 2.80233 0.90766
2.13086 2.22332 0.94608
0.88384 1.61135 -0.48449
2.1443 2.79079 0.44403
1.94968 1.95469 0.99724
1.19792 1.8082 -0.61686
3.01086 2.8988 -0.95399
0.68388 1.57925 -0.24571
0.70138 1.61664 -0.21909
0.39357 1.25193 -0.04176
1.05617 2.01022 0.2143
0.99273 1.62175 -0.57897
0.54622 1.24642 0.39728
0.82359 1.35354 -0.60463
1.55737 1.67606 -0.9247
1.05061 2.00138 0.22189
1.68987 1.90228 0.88612
1.42885 1.39713 -0.96998
1.89696 2.17856 0.84287
1.49328 2.12181 0.60643
0.78809 1.24566 -0.6326
0.57408 1.50856 0.0717
1.55848 2.4884 0.1022
1.62576 1.87299 -0.8653
0.89646 1.07976 -0.77781
1.93272 2.26137 0.80888
0.49685 1.40278 -0.07001
0.91324 1.81565 0.29848
1.43537 2.3947 0.04148
2.09654 2.54946 0.68674
2.83269 2.87276 -0.87721
1.06565 1.8623 -0.44565
1.10953 1.77097 -0.57048
1.02862 1.98721 -0.2034
0.8708 1.76272 0.30661
1.60957 2.0382 0.75565
0.3705 1.17193 0.16475
2.40807 2.67119 -0.7901
0.73059 1.66423 -0.1954
0.97993 1.75161 0.46141
1.94425 2.48259 0.63517
1.06974 1.63756 -0.63194
1.26561 1.13328 -0.97187
1.18022 1.8111 0.60017
1.18289 1.69071 -0.6843
0.89234 1.08814 0.77222
0.46361 1.23325 0.28877
1.90269 2.2759 -0.77959
0.8805 1.28719 -0.68286
0.35956 1.10247 -0.236
1.18957 1.47872 0.80182
1.58029 1.86871 -0.84099
0.4771 1.29583 0.23939
0.92937 1.18407 -0.76083
2.40441 2.56229 0.87354
1.99321 2.79881 -0.18673
2.80797 2.80794 0.91479
2.51151 2.59951 -0.90672
0.5578 1.49336 0.01663
0.80669 1.60014 -0.40814
1.50619 2.24247 -0.49903
1.37419 1.96181 -0.64189
1.19631 1.45517 0.81666
1.8104 1.87791 0.96372
2.52065 2.77015 -0.77602
1.8112 2.68581 0.08831
0.41768 1.05784 -0.37138
1.1184 1.41511 0.78598
1.4131 2.33214 0.23104
1.65486 2.41039 -0.44985
1.40421 1.3532 0.97284
0.8103 1.67372 0.33162
1.3179 2.29409 -0.0467
1.37463 1.87156 -0.70636
2.51489 2.97837 0.54517
1.71199 2.61213 -0.07866
0.54623 1.05357 0.51839
1.76128 1.84253 -0.95528
2.73099 2.97878 -0.71603
1.79275 2.67467 -0.06546
1.00536 1.71029 -0.52353
1.97354 2.80282 -0.09789
1.29137 1.49345 0.85661
2.10256 2.87338 -0.19619
2.18746 2.95772 -0.02062
0.40398 1.12351 -0.29734
0.49831 1.40725 0.05682
0.86929 1.36166 0.63699
0.74043 1.50611 0.41634
2.41319 2.88735 0.57358
1.81995 2.6915 -0.09436
1.87535 2.69234 0.25135
1.92973 2.75365 -0.18459
1.5069 1.65629 -0.90613
0.82794 1.62434 0.41027
1.65338 2.55412 0.15001
0.7727 1.18978 -0.64716
1.82785 1.99218 -0.91414
2.28207 2.64503 0.73009
2.30436 2.8962 -0.45538
2.20419 2.77964 0.52209
0.58936 1.14333 0.51241
0.52477 1.39852 0.18922
1.48441 2.29473 -0.40983
2.94209 2.82227 -0.97508
1.71537 2.06326 0.80691
2.06079 2.81705 0.2772
2.08601 2.46495 0.753
1.22294 1.1669 -0.93943
0.98601 1.9502 0.18758
0.36627 1.2023 -0.0699
0.72942 1.62395 -0.2648
2.48647 2.63953 0.86295
0.95576 1.33371 -0.71489
0.97341 1.39629 0.69714
1.70131 2.38632 -0.52695
2.66692 2.8953 -0.7558
1.87916 1.94834 -0.96444
1.4573 2.40603 0.10025
0.28674 1.06464 0.05806
1.39493 2.36213 -0.00416
2.80989 2.98934 -0.75885
1.87731 2.7057 0.21704
0.875 1.45003 0.59107
1.82861 2.04093 -0.88728
1.37802 2.34771 0.00899
1.0464 1.81253 0.47442
0.48648 1.39426 -0.02205
2.25427 2.97974 0.18587
1.43843 1.87973 0.74504
0.59648 1.09975 0.54233
1.81767 2.44339 -0.5702
2.09286 2.63462 0.59797
1.48149 1.91664 -0.75041
2.14155 2.14489 -0.9957
1.52173 2.01053 0.71496
2.03817 2.41705 -0.76002
0.96212 1.70987 -0.48084
1.81067 2.19171 -0.78088
0.79268 1.30534 0.60556
2.31528 2.45968 -0.89597
1.70371 2.11961 0.76192
2.2933 2.92919 0.38504
0.27202 1.02932 0.08452
1.24103 2.18924 -0.20697
0.84672 1.43881 0.57373
1.19025 1.73824 -0.65945
1.56527 2.16022 -0.63137
1.24727 1.30938 -0.90479
2.71054 2.6762 -0.95918
1.41863 1.68994 -0.83944
1.35511 2.24292 -0.31214
1.3905 1.75217 -0.78929
1.41293 2.13719 0.52061
1.7996 1.88727 -0.9535
0.67125 1.62271 -0.11384
1.83161 2.45122 -0.574
0.91835 1.90557 0.10271
0.74094 1.36611 0.52381
2.1822 2.80826 -0.45893
2.22128 2.2901 -0.95402
0.78089 1.74241 0.14797
1.85862 2.09956 -0.86982
2.60878 2.57902 -0.9726
0.83011 1.81861 -0.05721
1.00748 1.996 0.10711
2.04308 2.53808 -0.65774
2.38764 2.88935 0.54822
1.0225 1.86211 -0.39451
1.59051 2.48075 -0.22801
0.89837 1.6638 0.45422
2.12207 2.48238 0.76258
0.70228 1.63992 -0.17307
1.59685 2.34847 0.46694
1.44296 1.41281 -0.97157
1.86577 2.69393 -0.22685
0.77272 1.26389 -0.61103
0.99547 1.67336 0.54354
1.31855 1.85612 -0.67621
0.75067 1.70501 0.15462
1.03046 1.38858 -0.74055
2.53567 2.53385 -0.96466
1.19031 1.03693 -0.95995
1.6888 2.59906 0.00483
1.72909 2.55353 -0.31458
0.29542 1.00118 -0.21173
1.01526 1.88877 -0.35129
0.62453 1.52043 0.21588
0.8692 1.64543 -0.43857
1.03083 1.69019 0.56271
1.11374 1.18949 0.87179
1.82751 2.55522 0.44184
0.2836 1.04632 0.09949
1.4797 2.2602 -0.45008
0.89144 1.88816 -0.01272
1.80471 2.16983 -0.79226
0.68937 1.58857 -0.24183
0.85779 1.7629 -0.28432
2.60587 2.77579 0.82439
1.11749 2.05409 0.25034
1.32914 2.13375 0.43694
1.54597 2.46527 -0.16305
1.96576 2.80375 0.02252
1.81021 2.50025 0.49739
0.5041 1.1333 0.42779
2.06142 2.11788 0.96957
2.14116 2.42367 -0.82013
1.41052 2.16065 -0.49338
0.49456 1.20588 -0.36197
2.21441 2.6864 0.64049
1.78105 2.6268 0.2367
0.43855 1.20508 -0.27477
1.10911 1.83214 -0.51954
0.72508 1.09155 -0.65362
1.23154 2.09417 -0.36763
0.80272 1.63944 -0.36163
2.63144 2.75993 0.85272
0.58642 1.52802 -0.05207
0.94168 1.86236 -0.27311
0.84195 1.20783 -0.69082
1.91984 2.74255 0.19861
0.48907 1.38895 -0.0823
0.80889 1.16447 0.68548
0.90117 1.64345 0.47533
1.43299 2.36013 -0.20109
1.52289 1.67373 0.90694
2.1216 2.39542 -0.82891
1.24879 1.28616 -0.91391
1.8144 2.31016 -0.69296
1.61208 2.47084 -0.29294
2.08252 2.37734 -0.81828
0.89877 1.66972 0.4492
3.10568 2.99306 -0.93064
1.6948 2.1052 0.76605
1.48373 2.43489 -0.0394
2.03025 2.54706 0.63904
1.10048 1.39382 0.78409
1.46418 1.99587 -0.68433
1.63231 2.40766 0.42791
2.05589 2.67883 -0.51172
0.4741 1.3622 0.10103
2.75357 2.98545 -0.72481
1.51821 1.61201 -0.93197
0.99698 1.28967 0.76234
0.52927 1.27782 -0.34794
1.11232 1.27006 -0.84205
0.68285 1.2925 -0.51498
0.3453 1.11288 -0.18887
1.78535 2.62235 0.25724
1.5866 2.34497 -0.4603
2.04819 2.22784 0.89854
2.28172 2.92717 -0.37369
0.65929 1.5303 0.27174
0.97539 1.87824 0.3057
1.59967 2.52105 0.10366
1.35962 2.30671 0.17143
2.28063 2.85619 0.49109
1.41213 2.25545 -0.37466
3.11541 2.95204 0.96787
1.23671 1.32226 0.89421
1.63351 2.15477 0.68757
0.34723 1.17724 -0.02754
2.13178 2.90117 -0.16609
1.36987 2.31494 -0.17357
1.14774 1.40136 -0.81042
1.07134 1.67144 0.61066
0.72411 1.32247 0.53561
0.75276 1.37994 0.52603
1.21287 1.96981 0.49278
1.71634 1.80976 0.94738
0.33234 1.0555 0.23199
1.92121 2.57777 -0.50988
1.26818 1.55982 -0.81236
0.42394 1.01678 0.4068
2.34438 2.41222 -0.94323
1.01976 1.4672 -0.69397
1.40943 2.37257 -0.04641
2.10251 2.67996 -0.55404
2.57833 2.93194 0.65518
0.61529 1.21616 0.49551
0.60338 1.43104 -0.30234
2.03067 2.41449 -0.75712
0.78143 1.55551 -0.42015
0.7874 1.4311 0.52477
1.16278 1.7567 -0.62553
1.28396 2.26022 -0.08256
1.97858 2.4445 0.69619
2.19174 2.90346 -0.29021
1.21602 2.19978 0.07917
1.36615 1.24305 0.98988
1.068 2.06688 5e-05
0.66635 1.44084 -0.38386
2.88266 2.86371 -0.91239
2.20779 2.97103 0.03208
2.08261 2.83839 0.2617
1.94061 2.75254 -0.21561
1.40219 2.27541 -0.32836
0.74333 1.21369 0.61243
2.18765 2.94041 0.16168
1.70174 2.06067 -0.80009
2.15717 2.72377 -0.54994
1.83788 2.69456 -0.15071
2.44051 2.84788 0.64258
1.43198 2.33221 0.26865
1.52282 2.01397 0.7133
1.88282 2.08657 -0.89128
1.24175 2.22819 0.0232
1.04266 1.98522 -0.23955
1.37977 2.23879 -0.35599
