ply
format ascii 1.0
comment Created by Open3D
element vertex 250
property double x
property double y
property double z
end_header
-0.6396 -0.844777 -0.889588
0.0401628 -2.79605 -1.17404
0.636091 -2.37579 -0.406945
0.46248 -0.752268 -0.147723
0.585064 -1.32094 -0.0468772
0.478582 -0.983859 0.121393
0.390851 -0.57754 -0.0357572
0.459067 -3.67711 -0.299589
-1.11506 -0.413687 -0.691238
-1.39629 0.408711 1.09182
0.300499 -0.393686 -0.0378907
-1.13325 -0.0437863 -0.454961
0.225681 -4.65124 -0.386726
-0.499642 -0.325484 -0.610898
0.583975 -1.21449 -0.155675
0.131226 -1.91547 -1.01666
-0.517102 0.380608 0.271455
0.369291 -1.36769 -0.728241
-0.699622 -0.730958 -0.84442
0.300656 -0.72286 -0.491393
-0.145706 -2.28701 -1.19773
0.15515 -0.236833 -0.196689
-1.26997 0.474106 0.937355
-0.300113 0.0614351 0.606781
0.289344 -1.14672 -0.713634
-0.590249 -0.592858 -0.768994
-1.82803 0.618624 0.466966
-0.000469023 -0.0603572 0.311985
-0.224772 -6.07671 -0.389287
-0.0696767 0.0150278 0.330633
-2.36475 0.0998317 -0.119197
-1.62145 0.39766 1.21138
-0.904968 0.461061 0.108267
-0.328167 0.0352986 0.661238
-0.772276 -0.574078 -0.773944
-0.614878 0.37741 0.0704667
0.355622 -0.982172 -0.585246
-0.462947 -5.47124 -1.28153
-0.503656 -5.90523 -1.19498
0.555482 -2.02294 -0.657829
-0.555768 -6.63544 -0.90311
-1.69113 0.458144 0.105618
0.419189 -1.57756 -0.743835
0.547363 -2.35804 -0.691788
-0.463848 0.352774 0.277674
0.108896 -4.88236 -0.715456
0.578836 -1.25601 -0.339967
-0.0430959 -5.06126 -0.9363
-0.679478 -5.87315 -1.35851
-0.975512 -0.137338 -0.524568
-0.617559 0.277726 -0.109611
-0.479749 -3.78851 -1.44581
-1.2614 -6.43103 -1.60497
0.0583619 -4.81132 -0.881193
0.649168 -1.98474 -0.214394
0.394122 -3.98539 -0.403614
-0.184003 -0.0512336 0.576614
-0.036556 -0.0470956 0.362577
-0.909691 -0.274234 -0.612414
0.268951 -0.399487 -0.223386
-0.401466 -6.55188 -0.470332
-0.100596 -4.91632 -1.07411
0.117709 -4.69209 -0.827205
0.302699 -4.36052 -0.41311
0.2941 -0.806101 -0.549488
-0.376717 -5.85263 -1.06639
-0.113937 -0.536143 -0.636797
-0.0656641 -1.33278 -0.952771
-1.18066 0.337318 -0.106642
-1.09719 -6.31662 -1.53832
0.194369 -4.40738 -0.819973
-0.121292 0.0449021 -0.133298
0.562359 -2.85873 -0.587463
-0.877566 0.174888 -0.272667
0.375964 -0.630093 0.128114
0.0698214 -0.0668845 0.0645424
-0.0939454 -4.14587 -1.22654
-0.535921 -6.12706 -1.14858
-1.59874 0.627349 0.468853
-0.236215 -1.75097 -1.11825
-0.899332 0.421885 0.75229
0.32873 -0.600466 -0.358131
-1.15545 -0.116231 -0.505344
0.160605 -0.344844 -0.329084
-0.0013651 -0.321024 -0.443067
-0.0362131 0.0444591 0.090893
0.633589 -1.5996 -0.188178
-0.145992 -1.58581 -1.05083
-1.58703 0.642315 0.647243
0.539197 -1.13062 0.0223078
0.482669 -3.43026 -0.588939
0.159545 -4.69904 -0.71747
0.494412 -0.855131 -0.201684
-0.534495 0.139582 -0.25241
0.414188 -2.99674 -0.860047
0.334509 -0.726322 0.293194
0.300434 -0.411166 -0.145434
-0.0783505 -0.0779522 -0.264964
-1.50469 0.626302 0.717202
-0.158614 -1.60824 -1.0605
-0.886177 0.293759 -0.146533
0.27823 -3.23678 -0.997722
0.491525 -2.24381 -0.773845
-0.381433 -0.204617 -0.508755
-0.44817 -1.0502 -0.947998
0.534727 -1.11325 -0.377112
-0.0809109 -1.58852 -1.03078
0.62777 -2.26661 -0.1205
-1.60876 0.600189 0.879721
0.449919 -3.72791 -0.325768
0.53654 -1.56268 -0.593188
0.336498 -2.25746 -0.935118
-0.404783 -1.82465 -1.17583
0.445536 -3.52002 -0.663837
0.162979 -3.28249 -1.09942
-1.13547 -0.0783169 -0.479761
0.205485 -4.7144 -0.459744
-1.94618 0.564311 0.353694
0.623406 -2.52636 -0.208073
-0.634533 -4.35973 -1.50589
-0.215761 -3.28826 -1.32366
-1.15927 0.575876 0.34933
0.570524 -2.75671 -0.592601
-0.569017 -5.53845 -1.34962
-1.04079 0.556732 0.345821
-0.662235 -5.5448 -1.41258
-1.92207 0.525316 0.268688
-1.82068 -0.0040113 -0.340911
-1.44519 0.622341 0.687914
0.084325 -2.89093 -1.15393
-1.10098 0.286013 -0.16591
0.149959 -1.27001 -0.842683
-1.6274 0.222116 -0.180769
0.0188359 -5.3085 -0.550971
-0.246663 -5.20352 -1.15005
-1.62955 -0.0144185 -0.382244
0.375221 -0.78912 -0.447098
0.255775 -0.871942 -0.617216
-0.07163 -3.40477 -1.25429
-0.687294 -6.25893 -1.25887
-0.561797 0.355815 0.060325
0.59617 -2.77598 -0.474165
-0.339553 -1.82703 -1.16216
-0.020248 -5.46538 -0.442176
0.594472 -1.85122 -0.553581
0.505558 -3.07305 -0.681754
0.301362 -0.471726 -0.259168
0.392641 -2.10671 -0.869064
-0.789049 0.38885 0.706376
-0.305072 -6.21424 -0.643142
-0.936287 -6.43855 -1.4123
0.519643 -3.36032 -0.424892
-0.57586 0.372007 0.489865
-0.125843 0.122312 0.183979
0.212624 -3.5847 -1.02721
-0.246991 -0.00535549 0.609106
0.144774 -0.237145 -0.215953
0.544105 -1.24988 0.0681899
-0.944113 0.366499 -0.0599569
0.315826 -1.97737 -0.914048
-1.05673 0.522991 0.691498
-0.506509 0.250599 -0.103047
-1.17277 0.0929146 -0.346392
0.532243 -2.52065 -0.715133
-0.874913 0.518231 0.339245
-1.05133 0.540085 0.262345
0.218128 -2.18083 -1.01101
0.446238 -3.71402 -0.495568
-0.549906 0.275621 -0.0854714
0.193259 -3.33254 -1.07111
-0.512583 -6.49594 -0.920979
0.262464 -3.79856 -0.926442
-0.0759933 -4.02287 -1.22662
-0.7294 -0.667709 -0.817078
0.445786 -0.967655 -0.463869
-0.262089 -0.636649 -0.734179
0.263966 -1.46753 -0.83709
0.541689 -1.03938 -0.263357
-0.03059 -1.85263 -1.07536
-1.85787 0.124113 -0.22715
0.553465 -1.25377 -0.425694
0.420902 -1.76736 -0.786612
0.566293 -2.58207 -0.638839
0.0087674 -0.181723 -0.308506
-0.367263 -5.60373 -1.15216
0.136917 -4.59102 -0.842693
-0.44457 -0.178276 -0.504426
-1.71039 0.229183 -0.159157
-1.33997 0.522065 0.170051
0.362215 -4.12261 -0.389201
-2.05093 0.409844 0.126666
-1.76693 -0.0696088 -0.400692
-0.557432 -0.177516 -0.523969
-0.197954 -5.93019 -0.612989
0.0608439 -5.11142 -0.647012
-1.45315 0.546486 0.223726
0.138932 -2.39876 -1.08497
-0.611814 0.419842 0.232242
-0.665786 0.390435 0.572346
-0.0811253 -0.0203993 0.404019
-3.12095 -0.826172 -0.559214
-1.50726 -0.777999 -0.851937
-4.15948 -3.17508 -1.31169
-5.52006 -2.82996 -0.81014
-7.89172 -4.7785 -0.817292
-7.40479 -4.21864 -0.75989
-2.62415 -0.640354 -0.584298
-4.89177 -2.64913 -0.928848
-4.05774 -2.83358 -1.21819
-2.31283 -1.46392 -1.0473
-1.91992 -0.487714 -0.64529
-3.04158 -1.90991 -1.09388
-2.19673 -0.463185 -0.577587
-2.425 -0.733784 -0.684117
-4.23689 -3.20417 -1.30456
-4.04874 -2.67843 -1.16455
-2.69028 -0.387167 -0.406332
-5.53231 -3.76476 -1.17736
-4.73712 -1.85902 -0.607894
-4.97202 -2.779 -0.959434
-6.84312 -4.54004 -1.07378
-2.42652 -0.721934 -0.677276
-4.99681 -2.04799 -0.615094
-4.0921 -1.30029 -0.525486
-7.20678 -4.9536 -1.10973
-7.90242 -4.86328 -0.84745
-2.99343 -1.13376 -0.760766
-4.6298 -3.65057 -1.36185
-7.0402 -4.05945 -0.822159
-1.31788 -0.729258 -0.843484
-5.61045 -3.81234 -1.17282
-1.41723 -0.681173 -0.812888
-1.54775 -0.829474 -0.872376
-7.38651 -4.23355 -0.772766
-6.28309 -3.57507 -0.878046
-5.34965 -4.05944 -1.3238
-5.18752 -2.19302 -0.62173
-4.41672 -1.52747 -0.541106
-4.21581 -1.24167 -0.448172
-1.80794 -0.805963 -0.831078
-3.57917 -1.59004 -0.831231
-6.77282 -4.97074 -1.24321
-6.32425 -3.04824 -0.62897
-8.06056 -5.19749 -0.922413
-3.18682 -2.01813 -1.10649
-6.61907 -3.54624 -0.750411
-1.77705 -1.11452 -0.975211
-6.95156 -4.5849 -1.0565
-7.34854 -4.46333 -0.880263
-4.03655 -1.90891 -0.852728
