ply
format ascii 1.0
comment Created by Open3D
element vertex 400
property double x
property double y
property double z
end_header
-1.71476 0.740264 0.318396
-2.24818 2.75346 0.48994
-1.30037 0.943475 0.628872
-0.844507 2.16801 0.050742
-2.41686 1.0995 0.0878227
-1.93108 0.915784 0.321055
-0.536464 1.42154 0.318127
-1.70821 1.22332 0.622417
-2.3426 2.71446 0.516923
-2.36759 3.60066 -0.00133643
-1.45277 0.513913 0.27621
-1.17873 1.41047 0.679162
-1.34984 2.45655 0.272455
-2.04928 2.47774 0.564568
-1.66143 2.13916 0.607214
-1.65275 0.397128 -0.0243669
-1.45932 0.621465 0.373381
-1.86411 3.18084 0.0404394
-0.558912 0.725408 0.52531
-1.36217 2.68903 0.0833962
-1.65281 1.37052 0.678914
-1.74215 1.63171 0.69708
-1.68416 2.21615 0.583752
-1.09034 1.30668 0.671709
-0.621481 0.786449 0.552611
-1.89548 1.34141 0.598262
-0.841278 2.187 0.0284964
-2.76872 2.07527 0.441751
-1.17654 2.01002 0.460327
-2.87355 1.95767 0.335239
-2.12294 0.796778 0.0388484
-1.46773 2.08772 0.565622
-0.656568 1.70061 0.247926
-1.86339 2.41498 0.550207
-0.793746 1.66668 0.395181
-0.977589 1.52906 0.579524
-2.54947 2.68687 0.526908
-2.76242 1.87686 0.3701
-1.08299 0.701877 0.567588
-0.617029 1.51668 0.335303
-1.24062 2.12707 0.429263
-2.64913 1.48969 0.22271
-1.84578 2.89593 0.262457
-1.62752 1.93569 0.662481
-2.08793 2.46026 0.576016
-0.443101 1.28931 0.304897
-2.52897 1.65603 0.411678
-1.20484 1.80342 0.579106
-3.28958 2.19138 0.153315
-1.20821 1.67013 0.629297
-2.17114 3.55048 -0.0799172
-0.664088 1.47849 0.398653
-1.3801 2.58816 0.188684
-2.35682 3.39766 0.152537
-1.81396 3.0952 0.0804688
-1.84759 1.44743 0.648502
-2.1343 1.0597 0.292021
-2.24807 0.851843 -0.0202445
-0.892143 1.11767 0.636629
-0.778606 1.3289 0.544338
-1.63864 3.05128 -0.0179464
-2.45952 1.35362 0.272943
-0.805828 1.64782 0.415871
-2.05988 0.736646 0.0282206
-2.69171 1.53082 0.218164
-1.76405 2.91886 0.194985
-2.91037 1.87868 0.270164
-1.49955 1.0901 0.636318
-1.5325 2.2986 0.487621
-2.60569 1.7626 0.415432
-2.4898 1.73497 0.470643
-0.506235 1.33453 0.340062
-1.55341 0.845727 0.49407
-2.26529 3.58551 -0.0493136
-1.96557 2.52348 0.529361
-2.21185 1.08596 0.253717
-1.27219 0.604656 0.452301
-1.24199 0.410443 0.298887
-2.02603 1.83206 0.665564
-2.61033 1.57788 0.312676
-2.49989 1.9933 0.545667
-3.02235 2.11464 0.30675
-2.38108 2.1628 0.603897
-2.07958 1.58047 0.607143
-2.14971 2.70436 0.492153
-0.78755 0.9178 0.610594
-1.46941 0.931893 0.577975
-2.13039 2.06919 0.650411
-1.16013 0.824029 0.608126
-1.98972 0.877904 0.242523
-2.67372 2.42374 0.533455
-1.66957 2.03719 0.642576
-0.712627 1.70946 0.296455
-1.65517 2.45391 0.456381
-2.54159 2.03985 0.538405
-1.20406 0.782751 0.581716
-2.06915 2.3184 0.615247
-1.75596 0.651612 0.200147
-3.02943 1.66284 0.0235537
-2.04474 2.22427 0.635456
-2.33797 1.99516 0.603353
-2.16818 1.9965 0.645391
-0.978873 2.0727 0.269896
-1.62022 0.847058 0.461543
-1.12183 0.518346 0.446269
-2.17239 1.74511 0.615155
-2.0594 2.50356 0.556776
-2.29715 1.35027 0.3884
-2.20967 1.51648 0.527381
-1.04326 2.17547 0.245557
-0.735296 0.888074 0.594627
-1.9458 2.44378 0.55802
-1.66375 2.89074 0.148952
-0.871217 1.81629 0.363106
-2.53548 1.58073 0.366995
-1.97813 0.985157 0.345202
-1.67563 2.27269 0.557115
-1.56999 2.7329 0.21286
-0.716208 2.08672 -0.0239356
-2.81821 1.49683 0.0816001
-0.807836 1.4385 0.520756
-1.46475 0.384929 0.121976
-1.39874 2.18335 0.486228
-3.55258 2.34985 0.0288005
-2.92817 2.32329 0.425876
-0.442206 1.64062 0.04826
-1.13067 1.61521 0.6177
-1.81369 0.516009 -0.0146513
-2.7188 2.40621 0.519674
-1.61016 0.392404 0.00864084
-2.91895 2.38033 0.441093
-3.07388 2.14807 0.286965
-1.51489 0.923145 0.55679
-0.604768 1.27984 0.449161
-1.11368 0.657423 0.53832
-1.33105 1.48249 0.697221
-0.928513 0.964477 0.643305
-1.80473 2.35623 0.559505
-0.770916 0.655304 0.562659
-1.68206 3.02933 0.0393505
-1.14244 2.54893 0.00362746
-0.794858 0.534912 0.517058
-0.399423 1.34784 0.223276
-2.5807 1.58289 0.336986
-2.23526 2.45983 0.586552
-1.3606 2.74182 0.0316501
-1.79541 2.77585 0.320814
-0.746317 2.05439 0.0451912
-2.01512 2.37296 0.595016
-2.75432 1.66222 0.258405
-1.80852 0.417922 -0.151109
-0.91812 0.66714 0.570593
-0.620251 0.708809 0.544684
-1.93947 1.30338 0.563981
-0.698627 1.47094 0.430225
-2.08102 3.43221 -0.0333684
-0.784587 2.11509 0.0320319
-1.25721 0.384101 0.263192
-0.694236 2.02563 0.00946816
-1.01146 0.506617 0.471357
-0.969356 0.895634 0.63803
-1.02614 2.2173 0.19526
-0.723565 2.05616 0.0158463
-2.60529 1.58524 0.320892
-1.37173 1.59901 0.688708
-2.03564 0.79604 0.119727
-0.620714 1.80952 0.120993
-3.53768 2.36422 0.0486348
-1.38343 0.933979 0.605517
-0.974028 2.22337 0.139031
-1.12858 0.598888 0.499507
-2.0196 0.844144 0.184767
-0.883945 1.11177 0.634614
-1.05018 0.753362 0.594776
-2.20836 1.35752 0.449366
-1.768 1.12681 0.557306
-1.98062 1.47939 0.613535
-2.35253 2.19212 0.61041
-0.964941 1.30605 0.635498
-1.43494 2.09745 0.54776
-1.59897 1.27101 0.667551
-1.21829 1.89057 0.546693
-1.04491 1.62766 0.57538
-2.0035 2.07721 0.659766
-2.29276 1.55322 0.500207
-1.94482 2.22904 0.628618
-2.30462 3.45266 0.0852771
-1.98959 3.33307 -0.00715592
-0.641592 0.833118 0.561733
-2.03269 3.39538 -0.0336371
-1.47416 0.735775 0.456452
-0.771393 0.605717 0.546035
-0.412465 1.37965 0.216566
-2.63195 1.58503 0.301326
-2.7597 1.96475 0.408715
-2.41664 1.77861 0.524397
-2.57198 1.28931 0.125363
-1.52899 1.37881 0.69865
-1.9109 2.97962 0.236909
-0.6649 0.71741 0.558466
-0.920042 0.649828 0.563387
-1.94235 1.58968 0.653911
-2.50848 1.788 0.48137
-1.22249 2.0893 0.441284
-2.3973 1.69943 0.505772
-2.95443 1.55257 0.000876812
-3.04029 2.03039 0.255831
-1.04264 1.87354 0.454401
-1.12033 1.17407 0.681792
-2.42372 1.16833 0.148174
-0.828321 1.87928 0.281231
-2.98346 2.05375 0.306015
-1.92342 2.49003 0.533335
-1.65123 2.98115 0.0591283
-0.542613 1.17508 0.444905
-2.27215 0.958447 0.077711
-1.43051 2.26656 0.454861
-3.47415 2.27724 0.0531532
-2.50945 2.55301 0.555503
-0.988503 0.725487 0.589409
-2.51911 2.16802 0.565777
-1.76534 1.89856 0.683277
-0.831411 2.22543 -0.021892
-2.19346 1.38506 0.473337
-1.55107 1.98032 0.633872
-1.10141 1.38302 0.664405
-2.26285 0.993832 0.123447
-2.47445 1.17118 0.104715
-1.63097 2.28628 0.535202
-1.0901 1.81957 0.513084
-2.11229 1.60677 0.602356
-2.10563 1.5204 0.57736
-0.905282 2.24948 0.0408849
-2.00809 0.804294 0.153089
-2.06085 1.49776 0.588263
-2.80056 1.47325 0.0777322
-3.30317 2.13891 0.114212
-1.11361 0.618972 0.516131
-0.737615 1.44698 0.470792
-1.05365 1.44004 0.638213
-1.82623 1.50621 0.667523
-1.84673 2.59692 0.455794
-3.42843 2.37099 0.136358
-1.86787 1.13504 0.514003
-2.384 2.69525 0.525967
-1.79055 1.33826 0.634749
-1.25344 1.367 0.695623
-1.36619 2.13891 0.494169
-1.42031 0.495014 0.27795
-2.2574 1.73135 0.580315
-0.872115 0.555345 0.523202
-3.37243 2.01862 -0.0225355
-0.89627 1.47952 0.555779
-1.60146 1.82554 0.682556
-2.84022 2.01328 0.379872
-0.961705 2.05329 0.269719
-2.81103 1.6447 0.201872
-1.22959 2.59078 0.0515269
-1.85844 3.12126 0.0892369
-1.32094 0.915446 0.613493
-1.81384 0.582938 0.0717572
-2.36865 2.16588 0.606846
-1.53979 0.45851 0.152848
-1.18807 1.61292 0.639458
-1.89593 2.80547 0.351192
-2.95975 2.13266 0.353249
-2.0545 1.28069 0.49535
-2.69995 2.26364 0.513593
-2.28152 1.55122 0.505299
-2.83398 1.51829 0.0852134
-0.517839 1.52224 0.232935
-0.941363 0.970807 0.645836
-1.43624 1.83836 0.648318
-3.18705 2.31306 0.278508
-1.16675 2.4272 0.143592
-3.36457 2.19729 0.0976514
-0.533776 0.744904 0.516075
-3.33142 2.05662 0.0402627
-2.07963 2.95032 0.338485
-0.68381 1.29014 0.500299
-1.79191 1.68595 0.693827
-1.82704 0.788611 0.283062
-2.80602 1.86914 0.338011
-1.79407 1.21873 0.58902
-2.08947 2.62922 0.512094
-1.26869 0.489372 0.359592
-0.961187 0.702273 0.582218
-0.863045 0.993535 0.632083
-2.5777 1.90961 0.488024
-2.32829 2.98483 0.39895
-3.05632 2.14986 0.299262
-2.34798 3.07453 0.356431
-2.43877 1.24606 0.204121
-1.3346 1.34319 0.702291
-2.33005 2.69603 0.522156
-1.89464 0.724789 0.165102
-1.94041 2.42344 0.564872
-2.91943 2.31944 0.429249
-0.657001 1.39846 0.43456
-1.33843 0.429418 0.261736
-1.98478 2.30904 0.610728
-1.11888 0.884273 0.634169
-1.55376 2.54793 0.342487
-0.965614 0.474416 0.460885
-1.78508 2.57638 0.442635
-1.61897 1.69211 0.701167
-1.57045 0.410545 0.0680661
-1.002 1.00431 0.657022
-1.4486 2.22402 0.488681
-1.35899 0.717314 0.495427
-1.6606 2.78423 0.234116
-2.60846 1.3136 0.114
-1.93329 1.38713 0.600376
-0.500291 1.23407 0.386052
-1.89028 1.04497 0.446163
-1.59372 1.14111 0.628413
-3.19674 1.83424 0.00336583
-1.10939 2.29878 0.202834
-1.16654 2.47812 0.0968029
-3.50573 2.16737 -0.041394
-1.99973 0.602588 -0.0848245
-1.553 0.542964 0.2378
-1.78124 2.52432 0.470254
-0.510302 1.04137 0.465877
-0.777303 1.39611 0.518967
-1.62081 1.21549 0.646267
-2.01616 2.90381 0.34154
-2.40154 2.97531 0.419237
-1.76565 3.12272 0.0189717
-1.36264 1.23177 0.693057
-1.86719 1.19377 0.545533
-3.12157 2.23584 0.291363
-1.13817 2.26737 0.253851
-2.9628 2.11538 0.344856
-0.822265 2.02215 0.159905
-2.74643 2.21184 0.486327
-1.58826 1.59695 0.705601
-2.06153 2.25661 0.629169
-1.97755 2.14494 0.649329
-2.33226 3.70002 -0.109969
-0.920296 1.78391 0.42181
-0.618078 1.57994 0.295316
-1.60542 0.725726 0.376414
-2.19126 1.04393 0.233338
-1.74511 0.950239 0.465241
-0.907882 1.63189 0.496368
-1.22449 1.99265 0.498213
-2.03908 1.60875 0.62888
-1.87593 1.91596 0.681319
-1.95222 1.30971 0.561011
-1.8336 1.54035 0.672055
-2.11918 3.22756 0.162847
-2.07098 1.39952 0.545123
-0.990542 0.549378 0.503191
-2.28732 1.28701 0.353108
-1.1013 0.65503 0.539869
-0.684973 1.94125 0.0786868
-2.1475 0.824109 0.0470155
-1.57514 2.566 0.342678
-0.734469 1.01468 0.590823
-0.682166 1.26892 0.506974
-0.706994 1.58671 0.371924
-1.58873 1.18645 0.645588
-1.26861 2.51941 0.153965
-0.76869 2.0326 0.091832
-1.2531 1.10706 0.679176
-1.22199 2.47629 0.150515
-2.0021 0.774831 0.126395
-1.23705 2.35494 0.265229
-1.91166 1.8056 0.682542
-0.519946 0.794784 0.509902
-1.7928 0.657077 0.176296
-2.18976 1.851 0.628363
-2.60295 1.2763 0.0848457
-1.76169 0.416068 -0.104624
-2.38811 2.89066 0.454606
-1.85196 1.80959 0.68863
-2.62067 1.49351 0.24835
-1.16684 1.80641 0.56005
-1.81403 0.836317 0.335246
-1.85159 2.29008 0.596254
-1.59403 0.703939 0.364832
-0.941301 0.615269 0.546106
-2.28899 2.66017 0.530712
-1.7076 1.24772 0.631319
-1.51781 2.66582 0.229718
-1.98454 2.33926 0.601635
-1.42308 0.559665 0.339022
-1.62267 2.55864 0.375
-1.33513 0.85673 0.58349
-2.25439 1.06937 0.203986
-1.96494 2.95146 0.285926
-1.06769 1.96699 0.414831
-2.41284 2.44855 0.58139
-1.06559 0.427358 0.395407
-1.04336 1.76282 0.514491
-1.60408 0.983141 0.553226
-2.30364 1.94203 0.607002
-1.80419 2.8816 0.249078
-0.975529 2.07672 0.263786
