ply
format ascii 1.0
comment Created by Open3D
element vertex 250
property double x
property double y
property double z
end_header
0.798653 -0.778895 -0.818278
2.4729 -1.7551 -0.0473291
1.99053 -1.28781 0.770676
0.761941 -0.245096 0.401236
1.09532 -0.624904 0.706509
0.733271 -0.481893 0.664717
0.550596 -0.18758 0.386333
2.62489 -2.39969 1.08308
0.191554 -0.796216 -1.10528
-1.59819 -0.831643 -0.250734
0.399724 -0.103644 0.276048
-0.19437 -0.593703 -1.05019
3.16307 -3.24757 1.13259
0.367145 -0.380366 -0.670302
1.10165 -0.516284 0.600061
1.88024 -1.0823 -0.114836
-0.643425 -0.100098 -0.248857
1.47002 -0.605819 0.0964002
0.673014 -0.741979 -0.85635
0.894734 -0.227713 0.0445497
2.09619 -1.4791 -0.323251
0.342355 -0.03076 0.0263629
-1.47902 -0.664562 -0.29513
-0.570662 -0.299252 0.216377
1.29057 -0.4923 -0.00529166
0.590384 -0.592802 -0.768933
-1.51404 -0.765705 -1.03142
-0.1676 -0.129974 0.236633
3.81919 -4.58785 1.22224
-0.256916 -0.120251 0.184208
-1.06333 -1.32013 -1.65615
-1.77256 -1.00818 -0.310288
-0.762671 -0.229697 -0.639405
-0.603286 -0.350522 0.243628
0.499077 -0.68724 -0.89643
-0.554887 -0.107123 -0.453988
1.13768 -0.363626 0.0842633
3.92777 -4.03606 0.271895
4.11456 -4.40955 0.423933
1.90461 -1.00393 0.445133
4.34078 -5.06764 0.79387
-1.11854 -0.705659 -1.15407
1.62969 -0.728889 0.174763
2.12534 -1.25097 0.506495
-0.606345 -0.090515 -0.202138
3.46394 -3.40244 0.886392
1.24476 -0.500658 0.477625
3.64671 -3.5686 0.67935
4.12165 -4.44735 0.184759
-0.0203319 -0.54983 -0.971046
-0.378306 -0.134775 -0.556099
3.01179 -2.7397 -0.310593
4.35338 -5.15029 -0.218709
3.50624 -3.33482 0.716964
1.63469 -1.03873 0.809557
2.84923 -2.64196 1.05051
-0.429878 -0.305512 0.301385
-0.22515 -0.155498 0.245243
0.149768 -0.589004 -0.953119
0.509985 -0.0768408 0.125843
4.07815 -5.02894 1.17808
3.62297 -3.4573 0.505115
3.42613 -3.22419 0.761646
3.04005 -2.97591 1.08558
0.97993 -0.27838 0.0217126
4.05683 -4.32828 0.583555
0.687517 -0.298559 -0.379637
1.39682 -0.7814 -0.35596
-0.67361 -0.430745 -0.937988
4.31584 -4.98341 -0.0952664
3.28461 -2.96634 0.739798
0.00453671 -0.00345954 -0.185644
2.36623 -1.64567 0.725546
-0.328567 -0.324709 -0.813427
0.468456 -0.280322 0.506703
0.0301199 -0.0254875 0.10935
3.26059 -2.83421 0.193198
4.20338 -4.60795 0.495693
-1.41573 -0.621284 -0.882659
1.67936 -1.1532 -0.471228
-1.15718 -0.429949 -0.169729
0.746638 -0.155034 0.124001
-0.127882 -0.647806 -1.08072
0.49653 -0.07265 -0.0344627
0.482579 -0.121699 -0.227319
-0.102765 -0.0131077 0.0285831
1.378 -0.766377 0.713699
1.57688 -0.993122 -0.409305
-1.53595 -0.651264 -0.752917
0.914286 -0.528566 0.673965
2.67572 -2.12201 0.827097
3.37776 -3.23384 0.86845
0.873873 -0.288369 0.411775
-0.163672 -0.149608 -0.565427
2.55987 -1.76484 0.473348
0.399742 -0.422185 0.622389
0.4805 -0.0876924 0.204691
0.18433 -0.0340541 -0.217449
-1.53435 -0.632509 -0.645325
1.59096 -1.01495 -0.418318
-0.486649 -0.274885 -0.762028
2.73255 -1.98968 0.352134
2.08448 -1.1768 0.381085
0.281502 -0.24601 -0.553559
1.0483 -0.801616 -0.678936
1.16269 -0.410154 0.383912
1.59516 -0.961295 -0.35188
1.7337 -1.28846 0.938244
-1.67232 -0.758879 -0.591323
2.66847 -2.43623 1.07234
1.57594 -0.687664 0.353922
2.12721 -1.23696 0.169463
1.68439 -1.29462 -0.602125
2.76185 -2.19148 0.774166
2.77389 -2.066 0.2173
-0.158342 -0.61423 -1.05983
3.23966 -3.28737 1.08486
-1.46127 -0.8471 -1.17401
1.94569 -1.46221 0.943758
3.32505 -3.24528 -0.299615
2.75073 -2.23824 -0.187125
-1.10569 -0.362301 -0.666146
2.31175 -1.56284 0.699642
3.96433 -4.13206 0.172638
-1.03769 -0.304203 -0.586048
3.96668 -4.17606 0.0689431
-1.37118 -0.838793 -1.20781
-0.607112 -1.00963 -1.42939
-1.48562 -0.591639 -0.626088
2.53722 -1.80506 0.0214185
-0.567502 -0.405093 -0.913957
1.38557 -0.63397 -0.154239
-0.759862 -0.766721 -1.25108
3.57251 -3.82091 1.05918
3.77916 -3.74031 0.433713
-0.486464 -0.890901 -1.33094
0.939873 -0.24439 0.142513
1.0464 -0.332565 -0.0333987
2.84162 -2.25741 -0.012386
4.28583 -4.76837 0.354502
-0.510964 -0.0885373 -0.420638
2.25773 -1.59386 0.805357
1.70671 -1.26073 -0.549202
3.57826 -3.9916 1.15303
1.75069 -0.879821 0.497853
2.53122 -1.81517 0.679759
0.591776 -0.101776 0.141263
2.01873 -1.10789 0.212056
-1.05683 -0.37574 -0.12121
4.03133 -4.67078 1.02749
4.38066 -5.01185 0.131953
2.54324 -2.09163 0.948325
-0.807776 -0.201114 -0.130476
-0.251535 -0.0340037 0.0147846
2.93181 -2.28223 0.382567
-0.507586 -0.317912 0.270797
0.350385 -0.0320431 0.00604756
0.958536 -0.627465 0.741886
-0.613594 -0.278724 -0.758342
1.93494 -1.04507 0.0950653
-1.25044 -0.432669 -0.3429
-0.31546 -0.089872 -0.47157
-0.36587 -0.544413 -1.03623
2.23182 -1.37574 0.524112
-0.934331 -0.231182 -0.471914
-0.977925 -0.30046 -0.647455
2.07643 -1.23039 0.0177319
2.76933 -2.38209 0.946107
-0.361881 -0.102054 -0.494263
2.79945 -2.09293 0.270643
4.288 -4.93211 0.771698
3.01783 -2.43981 0.544251
3.19461 -2.7311 0.171585
0.603366 -0.719914 -0.873584
1.09084 -0.331164 0.225064
0.744074 -0.437005 -0.518085
1.55325 -0.714812 -0.0223583
1.04698 -0.381335 0.448909
1.80669 -1.11694 -0.279063
-0.775759 -0.966771 -1.40791
1.28781 -0.491089 0.399825
1.77297 -0.858625 0.196992
2.23462 -1.4219 0.616925
0.315228 -0.0475194 -0.163245
3.96696 -4.11268 0.461729
3.38403 -3.1326 0.735892
0.233915 -0.265532 -0.598871
-0.816182 -0.817359 -1.29193
-1.0387 -0.463212 -0.896405
2.90804 -2.76803 1.07699
-1.26761 -0.96474 -1.36117
-0.503897 -1.01021 -1.4188
0.194633 -0.327792 -0.686627
3.88915 -4.40124 1.04193
3.53551 -3.62176 0.965381
-1.14023 -0.527727 -0.938994
2.22008 -1.42163 -0.0273271
-0.68478 -0.117225 -0.349075
-0.913887 -0.263887 -0.135887
-0.288709 -0.17359 0.238207
-0.562645 -2.35197 -2.21072
0.337138 -1.26268 -1.37655
0.871906 -4.53684 -2.78564
-0.285977 -5.2349 -3.41323
-0.18936 -8.12579 -4.44038
-0.342182 -7.42754 -4.23318
-0.431318 -1.90597 -1.95419
-0.0303691 -4.68795 -3.13565
0.65122 -4.24461 -2.74547
0.510525 -2.21046 -1.85535
-0.16169 -1.34995 -1.57856
0.477013 -2.97219 -2.24368
-0.347255 -1.51694 -1.71816
-0.218687 -1.82884 -1.86939
0.849422 -4.60731 -2.8233
0.526647 -4.13733 -2.74365
-0.730619 -1.80415 -1.94006
0.512522 -5.84402 -3.42794
-0.646227 -4.08888 -3.02147
0.0313128 -4.82551 -3.17456
0.313603 -7.24465 -4.00124
-0.230999 -1.82271 -1.86875
-0.646174 -4.38539 -3.14508
-0.742442 -3.30283 -2.69301
0.420459 -7.76459 -4.15232
-0.123378 -8.18768 -4.44575
-0.187043 -2.45115 -2.18671
0.97667 -5.16374 -2.9997
-0.230927 -7.07125 -4.08211
0.388768 -1.11411 -1.26004
0.50256 -5.9281 -3.4629
0.294345 -1.14629 -1.31632
0.36305 -1.32019 -1.40353
-0.316418 -7.42421 -4.22631
-0.140689 -6.23588 -3.75809
0.869543 -5.91517 -3.33242
-0.641482 -4.60747 -3.23512
-0.743509 -3.6649 -2.85465
-0.884875 -3.35444 -2.73502
0.202946 -1.47077 -1.55066
-0.133365 -3.12782 -2.49571
0.716369 -7.47941 -3.95857
-0.640191 -5.93301 -3.75142
0.0550247 -8.51349 -4.51162
0.484185 -3.1376 -2.3182
-0.395049 -6.45158 -3.89513
0.497462 -1.64454 -1.5489
0.279818 -7.34842 -4.04771
-0.0901534 -7.54454 -4.21534
-0.135933 -3.63721 -2.72342
