ply
format ascii 1.0
comment Created by Open3D
element vertex 400
property double x
property double y
property double z
end_header
-0.457232 1.49622 1.80633
-1.05147 2.71097 2.5413
-0.00472138 1.52045 1.63823
-0.0191083 3.54276 1.25695
-0.448435 1.48868 1.79976
0.138295 1.88227 0.040793
0.36601 1.05906 0.970992
0.281663 2.04304 1.49953
0.232906 2.0384 1.58961
0.191679 2.85774 1.49535
-0.529804 2.85145 2.43435
0.0861094 2.81226 1.85906
-0.368471 2.8636 2.34873
0.31453 0.73885 0.800459
-0.385192 1.19693 1.60102
0.394661 1.01635 0.856059
0.376245 1.71041 0.544557
0.347709 1.18645 1.09333
-0.323467 2.86587 2.31958
-0.978101 3.04846 2.66272
-0.559414 2.15911 2.18096
0.413758 1.63872 0.676291
0.0616923 2.62548 1.90812
-0.750345 1.02446 1.52482
-0.499062 1.16869 1.60446
-0.188417 2.00943 1.9665
-0.265459 2.87544 2.27936
-0.366025 1.19134 1.59272
0.313425 2.36915 0.986442
0.358309 1.46319 1.20675
-0.0190128 3.58952 1.45948
0.0691302 2.83314 1.88838
0.390744 0.986976 0.843692
0.0345989 3.27128 0.99678
0.351263 1.26383 1.12989
0.0961484 2.61653 1.85567
-0.964994 2.26641 2.31678
0.161429 2.95061 1.55795
0.129249 2.39329 1.79496
0.322624 1.56329 1.31541
0.0983208 3.20129 1.23669
-0.0576948 1.023 1.37104
0.158782 2.57767 0.577501
-0.171269 1.48769 1.70844
0.22928 2.45183 0.674615
0.348354 1.34173 0.258957
-0.0922452 1.95704 1.88921
-0.597826 1.70268 1.95606
-0.0441817 3.65926 1.44445
-0.47203 2.3463 2.232
0.414285 0.964655 0.704179
-0.803737 2.05408 2.18364
-0.0213861 0.654226 1.06612
-0.0949394 1.05394 1.40962
-0.566513 2.93229 2.47593
0.218606 2.58437 1.59222
0.145464 3.05278 1.48361
0.217631 2.18435 1.63458
-0.242039 1.60344 1.80022
-0.187682 0.977262 1.39258
-0.0352373 3.63489 1.45042
-0.0233602 2.51685 1.99828
-0.146187 2.91959 2.18024
0.416802 0.932778 0.542209
0.325652 0.909878 0.939512
0.142511 2.11005 0.179591
0.342549 0.754141 0.749526
0.338742 1.35282 1.19898
-0.482828 2.87084 2.4165
-0.0267246 2.53287 2.00454
-0.071921 3.74579 1.54808
0.413681 1.25118 0.95243
-0.00585959 2.76566 2.00654
0.226933 2.77375 1.26418
-0.0571804 1.12373 1.43842
0.397481 1.35687 1.0614
0.189151 2.35246 1.69506
-0.486955 2.03003 2.09886
0.0569188 3.32327 1.23597
0.389522 1.16167 0.336265
-0.656333 0.947243 1.46027
0.0557268 0.610763 0.97976
0.297219 1.44433 1.31093
-0.27803 0.66542 1.174
0.23078 2.40468 0.631446
0.296686 0.925064 1.00134
0.140533 3.06011 1.19979
0.186085 2.82381 0.985078
0.183478 2.65265 1.67188
0.37206 1.61176 1.22006
-0.170961 1.16851 1.5173
0.305065 2.44024 1.22736
-0.836795 1.18851 1.64982
0.440881 1.40785 0.801993
0.143282 2.54763 1.77654
0.231823 2.11017 1.60184
0.289275 1.01431 1.0789
0.404763 1.61539 1.10954
-0.695581 0.958851 1.47169
-0.160382 2.91396 2.19388
0.0476381 3.17343 0.901455
0.221643 2.26739 0.479807
-0.719398 2.03757 2.16023
0.290016 2.14167 0.581447
-0.0982573 2.6332 2.09234
0.266616 2.60196 1.1224
0.341355 2.26065 1.03402
-0.317381 0.989691 1.44028
0.0901465 2.82543 1.84889
-0.249975 4.19182 1.44192
-0.36525 1.79134 1.94261
-0.619534 2.8353 2.469
0.395153 1.83897 1.13831
-0.630189 1.33315 1.7346
0.193345 0.880115 1.09438
0.222834 1.01105 1.15956
0.0882598 2.01637 1.76698
-0.0988 1.65474 1.75976
0.295912 2.20721 1.4587
0.23705 2.40996 1.58804
0.187528 0.796842 1.03349
-0.245962 2.96761 2.27959
-0.218989 0.907079 1.3514
-0.747932 1.75948 2.01327
0.0815056 2.32863 1.8493
-0.289458 2.73928 2.2666
0.37445 2.05793 1.13863
-0.544145 1.73405 1.96237
0.364189 2.14153 1.02214
0.157067 1.7787 1.6185
-0.395959 2.72442 2.3278
0.381702 1.52552 0.44849
-0.318845 2.2325 2.12134
0.303145 2.3882 1.34457
0.333941 1.84783 1.361
-0.719429 1.88001 2.07666
0.180595 2.54037 0.606118
0.25443 2.16888 1.56365
0.229453 2.31856 0.546233
0.380217 0.906743 0.802312
0.134748 3.09717 1.4666
-0.402526 0.868866 1.36781
-0.574878 2.90819 2.47266
-0.874805 2.99347 2.61354
-0.521717 1.08448 1.54866
0.189997 2.673 0.783135
0.143207 2.37141 1.77218
-0.0680896 3.73244 1.49978
0.203826 2.69042 1.59226
-0.29147 1.27637 1.62756
0.266908 2.52129 0.932207
-0.218681 2.20709 2.05985
0.133418 1.46808 1.50969
-0.393404 2.49648 2.25395
0.126766 0.620454 0.933353
0.347937 1.91491 1.32647
0.0880084 2.82929 1.85252
0.313171 2.33349 1.33309
0.155758 2.06363 0.178523
0.273732 2.58108 1.16136
0.365874 2.07593 0.872428
0.330206 2.15533 1.35113
-0.931049 2.97972 2.62459
0.0325792 3.08233 1.90938
-0.455657 1.3458 1.71353
-0.00758803 3.44359 1.10197
-0.118642 2.65716 2.11544
0.422281 1.60646 0.710119
0.138335 2.60272 0.543376
-0.208046 2.0674 2.0005
-0.574439 2.60098 2.36922
0.0226675 3.13286 1.91535
0.363926 1.7422 0.519547
0.16507 2.97391 1.48924
0.212521 2.56617 0.740631
0.187973 2.73284 1.62549
0.239396 2.27948 0.541616
-0.198295 2.19702 2.04449
0.233964 2.46619 1.58424
0.387928 0.918202 0.786564
-0.188537 1.35699 1.64102
-0.650956 2.38535 2.30829
-0.174907 1.77746 1.85763
0.148289 2.97291 1.604
-0.82965 1.63244 1.94662
-0.104579 1.48446 1.67562
-0.0701824 1.22614 1.50976
0.419688 1.74052 0.949015
0.221734 2.754 1.43952
-0.0442532 0.770263 1.17569
-0.165337 3.02492 2.20954
0.171959 1.60071 1.53368
0.0624229 0.958327 1.25779
0.299318 0.672472 0.758676
0.0432224 3.14567 0.847036
0.400228 1.44277 1.08619
0.0475951 1.02344 1.31287
-0.138856 1.42582 1.65966
0.333977 2.16818 1.32937
-0.652861 1.72627 1.97954
0.14204 1.29099 1.4097
-0.0270128 0.917173 1.28025
0.0232469 3.30429 1.0008
0.16303 2.87617 0.952034
-0.637485 1.35055 1.74699
0.123455 2.84179 0.746394
0.311553 1.94715 1.42509
0.421889 1.57211 0.675697
-0.722143 1.70149 1.97599
-0.717907 1.83065 2.04917
0.25021 2.66307 1.35404
-0.0022285 3.50894 1.68113
0.416293 1.6471 0.702009
0.390092 1.51264 1.14118
0.36046 2.04148 1.25502
-0.164295 1.94327 1.92595
0.300366 2.31631 0.810613
0.0473432 2.69911 1.93096
-0.277656 1.2918 1.63298
-0.459188 1.94864 2.05115
-0.0666184 0.692418 1.12191
0.37104 1.97224 0.760819
0.391572 1.95725 0.919451
-0.277202 4.24753 1.4109
0.436213 1.3341 0.864968
-0.616281 1.99908 2.11869
0.371776 1.82335 0.614582
0.417816 1.61913 0.687004
0.351216 2.1605 0.897743
-0.618809 0.894089 1.41578
0.296432 1.68966 0.28227
-0.935873 2.49314 2.42236
-0.549421 2.24027 2.21447
0.350971 1.87968 0.575861
0.432522 1.44981 0.929414
0.343445 1.13234 1.06837
-0.0685261 1.44883 1.63776
0.433455 1.21716 0.578576
-0.253997 2.01026 1.99998
-0.648205 1.59025 1.8992
0.310088 2.36385 0.945812
0.11764 1.9649 1.72147
-0.0434401 3.61192 1.26763
0.376331 2.07162 1.05908
0.390622 1.96586 0.927583
0.430805 1.21666 0.84239
0.394755 1.60015 1.1468
0.0186274 3.36126 1.78919
-0.698089 1.3111 1.72736
0.116992 2.27408 1.79609
0.203205 1.56069 1.48334
-0.629235 2.94798 2.5091
0.0691814 3.18775 1.01596
0.321216 2.32586 0.962627
0.168453 2.33663 1.72981
0.213942 2.77845 1.45926
0.0795844 0.724056 1.06377
-0.2798 2.42651 2.1706
-0.120191 1.53796 1.7118
0.222392 2.61868 1.56334
0.433387 1.1424 0.75548
0.434857 1.50762 0.74505
-0.285017 2.26726 2.11778
0.172699 2.0454 0.203279
-0.632451 2.08172 2.16363
-0.0390872 2.86926 2.05354
-0.69728 2.73428 2.46253
0.360472 1.40801 0.320956
-0.374176 2.14334 2.10951
-0.778569 1.20447 1.65904
-0.0956313 2.91462 2.12485
0.292073 1.85952 1.4532
-0.883377 1.70987 1.99847
-0.662347 0.924797 1.44311
-0.894845 2.68123 2.49707
0.119425 2.04589 1.74281
0.408439 0.919961 0.682047
-0.000811193 1.29926 1.51596
0.135602 2.37528 1.78393
0.431431 1.26637 0.571257
-0.36446 2.57098 2.26396
0.433049 1.34612 0.896534
-0.549403 1.50334 1.82994
0.387947 1.63494 0.539883
0.0948707 0.686549 1.02002
-0.0370076 1.33539 1.55745
0.234844 2.68957 1.03947
-0.227024 1.80326 1.89428
0.101025 0.757785 1.07642
0.386905 1.9517 1.13455
0.403386 1.62051 1.11608
0.422392 1.04971 0.752107
0.25155 1.97617 1.54773
0.179971 2.64151 1.68436
0.374877 0.765143 0.643807
0.198758 2.71112 0.870095
0.232641 2.64464 1.50298
0.213461 2.60361 1.60097
-0.211224 2.43034 2.13009
0.0410313 2.12902 1.84554
0.260839 1.12522 1.19068
0.261915 1.83972 1.5013
-0.939542 3.01239 2.63903
-0.487479 2.65267 2.35126
-0.755162 1.87086 2.07731
0.0120436 3.33733 1.00595
-0.468387 1.27585 1.67101
0.41557 1.67135 1.04998
0.286964 2.20764 0.632196
0.33728 2.04162 1.35178
-0.374882 1.56041 1.82198
0.271116 2.33691 0.705742
-0.326919 1.58954 1.82335
0.156378 2.53077 0.527127
-0.625076 2.36756 2.29303
0.183815 1.65926 1.54501
0.115839 3.01516 0.949956
-0.674455 2.79175 2.47533
0.172116 2.85841 0.969054
0.333628 1.59379 0.330983
-0.0352403 1.91298 1.8339
0.223815 2.55829 0.774989
-0.549902 2.741 2.40843
-0.857224 1.66611 1.96967
-0.417371 2.19871 2.15016
-0.63926 3.03283 2.53904
-0.185988 1.53408 1.74006
0.196712 2.56374 0.681715
0.427246 1.10762 0.525119
0.286844 2.40862 1.41847
0.251585 0.815885 0.97614
-0.148071 0.861521 1.29232
-0.269048 1.29793 1.63405
0.210234 2.35775 1.65464
0.0672893 2.89375 1.88243
-0.339817 1.98463 2.02602
0.180568 2.42949 0.503715
-0.0376854 2.84624 2.05101
0.373628 1.77746 1.24057
0.42915 1.24955 0.549733
0.326135 2.16038 0.743919
0.166687 1.79235 1.6129
0.164836 2.91354 1.02794
0.148229 1.41194 1.46865
0.0707145 2.41796 1.87664
0.123221 1.34796 1.45665
0.120118 2.85184 0.746917
0.358445 1.73604 1.28202
0.0516903 1.79024 1.72023
0.40036 1.88438 1.06186
0.417567 0.941873 0.534318
0.267529 2.59555 1.11098
0.231117 2.16764 1.60899
-0.102069 1.65191 1.76016
0.047934 3.29773 1.11152
0.267486 1.59004 0.16185
0.0033204 3.42098 1.1146
0.116733 3.00398 0.93657
-0.737591 1.66056 1.95383
-0.193176 4.02448 1.35251
-0.103668 0.750898 1.18717
-0.0660864 1.8746 1.83921
0.153772 1.99204 0.131727
0.406225 1.52516 1.08822
0.373173 1.68196 0.512518
-0.10719 2.2465 2.00234
0.239137 2.09676 0.394707
0.328315 1.64631 0.344389
0.407654 0.947276 0.726644
0.339856 1.78242 0.463636
0.418498 1.33765 0.514837
-0.231754 1.43205 1.70145
0.130931 1.85391 0.0122329
0.268171 2.60803 1.21437
-0.437041 1.82379 1.98207
-0.68536 1.08204 1.56445
-0.838581 2.94451 2.58489
0.433555 1.28814 0.595136
0.333955 1.49287 0.281888
0.0125507 1.50746 1.62057
-0.575821 0.909641 1.42418
-0.403341 2.72883 2.33315
0.232331 1.66954 0.122393
-0.616491 2.20823 2.21968
0.27961 2.55737 1.16504
-0.573108 1.27083 1.6854
0.280926 2.30213 1.48529
0.428188 1.15932 0.817479
0.165762 2.75625 0.794046
-0.332096 1.69408 1.8812
-0.571382 1.35534 1.74085
0.432864 1.15597 0.572608
0.287529 2.19089 0.618153
0.312546 0.775814 0.842659
-0.545429 1.35372 1.73561
-0.12133 1.86243 1.86754
0.349761 1.32953 0.258511
0.229068 0.623322 0.823758
0.25879 0.97779 1.09396
0.0267637 3.10667 1.91474
