ply
format ascii 1.0
comment Created by Open3D
element vertex 250
property double x
property double y
property double z
end_header
1.18706 -0.390849 0.593485
2.03542 0.75031 2.11942
1.11076 1.20532 1.8783
0.34052 0.635297 0.531094
0.424298 0.889699 1.05726
0.165143 0.699972 0.833381
0.184867 0.520351 0.427381
1.46839 1.34716 3.13857
0.908855 -0.962009 0.375266
-1.00439 -1.48262 0.318999
0.134892 0.388103 0.279114
0.565304 -1.07593 0.126311
1.90386 1.36003 4.04476
0.736052 -0.388893 0.189123
0.49028 0.865691 0.922203
1.58151 0.620287 1.35422
-0.324954 -0.601232 -0.137366
1.10097 0.710182 0.905972
1.11311 -0.477935 0.519024
0.669823 0.480488 0.418157
1.90659 0.446968 1.68859
0.246574 0.213309 0.11202
-0.895949 -1.37188 0.177337
-0.554914 -0.322262 0.224149
1.02169 0.57855 0.727597
0.983971 -0.407489 0.396205
-0.443187 -1.93546 0.00137485
-0.271326 0.00582282 0.165306
2.4363 1.26989 5.43877
-0.30652 -0.0801118 0.118435
0.338967 -2.31398 0.383168
-1.0876 -1.70147 0.420467
-0.156642 -0.992484 -0.183588
-0.593928 -0.344576 0.273299
1.00237 -0.588419 0.417101
-0.125149 -0.689852 -0.184177
0.838881 0.599354 0.608848
3.09287 0.915764 4.62457
3.16267 0.979474 5.05881
1.23535 1.04812 1.48624
3.14155 1.09862 5.83758
-0.0663626 -1.75398 -0.0102879
1.18076 0.810008 1.08047
1.38091 1.12264 1.78082
-0.327271 -0.542997 -0.121472
2.30201 1.31183 4.16426
0.677156 0.875762 0.895936
2.58557 1.2139 4.28208
3.32418 0.805594 5.01018
0.64449 -0.898372 0.152369
0.0771128 -0.66337 -0.156587
2.68135 0.494791 3.03955
3.80687 0.383618 5.5575
2.43862 1.25003 4.05208
0.79751 1.11774 1.58783
1.6767 1.36193 3.39638
-0.501567 -0.181476 0.290625
-0.319114 -0.0337536 0.179007
0.765485 -0.798904 0.231465
0.313774 0.363916 0.225693
2.6917 1.21627 5.88089
2.67194 1.12661 4.11406
2.34141 1.27713 3.94976
1.82207 1.36474 3.75419
0.752915 0.495932 0.474764
3.01069 1.08631 5.02872
0.788653 0.0370078 0.287399
1.34719 0.285996 0.889768
0.116444 -1.22393 -0.0868431
3.68786 0.513224 5.44116
2.23025 1.28205 3.67661
0.122903 -0.124937 -0.0614981
1.45041 1.2561 2.26985
0.292939 -0.886089 -0.0639472
0.050994 0.514283 0.536369
-0.0455235 0.0822243 0.0684183
2.55413 0.949856 3.35793
3.19759 1.00087 5.28403
-0.473212 -1.71532 -0.0559377
1.66165 0.226749 1.24887
-0.746244 -0.994827 0.078513
0.500879 0.474366 0.347816
0.639276 -1.0785 0.17924
0.406158 0.248421 0.162268
0.522596 0.0886474 0.135653
-0.0959682 -0.0483681 -0.00040061
0.644951 1.0083 1.25018
1.533 0.272264 1.10279
-0.646348 -1.7124 -0.00903567
0.300546 0.797092 0.918611
1.65316 1.31782 2.80658
2.23653 1.31643 3.98574
0.422108 0.692719 0.598611
0.248006 -0.545401 -0.0995481
1.76815 1.15331 2.33135
-0.0663589 0.49304 0.691311
0.241344 0.395184 0.257005
0.282666 -0.049888 -0.00567354
-0.715459 -1.63055 0.0122928
1.55099 0.265739 1.12253
0.135899 -0.926733 -0.125597
1.99277 1.08355 2.53069
1.42531 1.04293 1.66009
0.586767 -0.306408 0.0894959
1.28975 -0.153721 0.717902
0.668655 0.799284 0.76257
1.50798 0.335486 1.09813
0.807054 1.163 1.88208
-0.847128 -1.72948 0.116217
1.511 1.35134 3.17752
1.02192 0.916122 1.09458
1.59783 0.900272 1.64932
1.75893 0.0827639 1.33233
1.75754 1.30565 2.86985
2.11599 0.985651 2.56147
0.600373 -1.06902 0.149436
1.99565 1.35777 4.08081
-0.305926 -2.03378 0.0365174
0.976939 1.22427 2.08834
2.94709 0.485201 3.57167
2.36943 0.625852 2.57009
-0.392645 -1.27346 -0.147293
1.41994 1.23935 2.17346
3.1909 0.831089 4.68478
-0.395997 -1.15384 -0.156977
3.2622 0.743941 4.68864
-0.215967 -1.99863 0.0366709
0.521179 -1.75522 0.280489
-0.693311 -1.5711 -0.00744678
2.04371 0.815658 2.2032
0.180347 -1.1326 -0.0785216
1.19929 0.476846 0.824533
0.273906 -1.6271 0.0892402
2.30174 1.32368 4.62968
2.85584 1.05685 4.38033
0.542226 -1.56626 0.233628
0.642497 0.567705 0.477814
0.842659 0.476601 0.519072
2.32791 0.792066 2.66914
3.36186 0.889124 5.39803
-0.114252 -0.63286 -0.179705
1.31286 1.26571 2.22726
1.73974 0.146222 1.32508
2.25719 1.321 4.81937
1.07571 1.04138 1.3584
1.61706 1.25566 2.44385
0.367992 0.413868 0.271677
1.47907 0.916282 1.5233
-0.704361 -0.878627 0.0682591
2.72887 1.2323 5.49165
3.59334 0.695495 5.56151
1.47212 1.33225 2.79289
-0.519786 -0.661993 -0.0394988
-0.199339 -0.156708 -0.0187419
2.14482 1.10532 2.85105
-0.540449 -0.254579 0.27413
0.265837 0.203843 0.107757
0.297286 0.82961 1.04224
0.0368362 -1.00292 -0.148508
1.48603 0.811566 1.40651
-0.706086 -1.17039 -0.000592286
0.067851 -0.549275 -0.153828
0.422095 -1.15042 0.0489803
1.4592 1.14814 1.92377
-0.395195 -0.983457 -0.160486
-0.311172 -1.15776 -0.169049
1.65604 0.76891 1.57862
1.66549 1.34897 3.10566
0.0477793 -0.59791 -0.160903
2.10304 1.02642 2.61039
3.10649 1.10706 5.69494
2.11715 1.20292 3.07032
2.51078 0.937361 3.2421
1.06952 -0.522921 0.477659
0.710541 0.679983 0.618879
0.929933 -0.0795881 0.376725
1.24802 0.635258 0.981288
0.536634 0.785015 0.734082
1.63309 0.449687 1.31162
0.375746 -1.82549 0.212285
0.759358 0.852923 0.869122
1.28451 0.858963 1.23761
1.4048 1.19403 1.99918
0.348723 0.060984 0.0543075
3.00598 1.03727 4.76993
2.31972 1.2716 3.84815
0.580816 -0.374148 0.080847
0.260482 -1.70987 0.108567
-0.186927 -1.43077 -0.122291
1.71298 1.36397 3.53325
-0.0300344 -2.09168 0.119616
0.593242 -1.68555 0.307289
0.611298 -0.483241 0.0978784
2.59314 1.26629 5.22056
2.32049 1.31909 4.40729
-0.232844 -1.54789 -0.100826
1.80737 0.747094 1.76799
-0.291048 -0.70155 -0.166246
-0.593186 -0.755887 -0.00747267
-0.361936 -0.0845747 0.179103
1.14591 -2.81024 1.23493
1.22518 -1.2494 0.735427
2.75563 -3.22591 3.33212
2.32064 -4.64256 3.49247
3.24578 -6.46826 5.77995
2.94969 -6.13378 5.18473
1.05189 -2.37303 0.948615
2.30132 -4.07412 3.14889
2.5419 -3.2128 3.03234
1.72792 -1.85848 1.46609
0.97972 -1.72566 0.634509
2.00222 -2.45541 2.01434
0.938721 -2.00185 0.696548
1.15471 -2.15453 0.954842
2.76731 -3.29408 3.37799
2.43848 -3.24323 2.90822
0.807485 -2.50349 0.79567
2.98032 -4.41729 4.2156
1.71792 -4.1249 2.50993
2.38254 -4.11954 3.27372
3.28946 -5.50258 5.2435
1.14449 -2.15906 0.946813
1.817 -4.33056 2.73595
1.38138 -3.63753 1.89007
3.50257 -5.75369 5.68634
3.30373 -6.45721 5.84874
1.42392 -2.60639 1.41562
3.01468 -3.56499 3.84953
2.91402 -5.81729 4.93834
1.17994 -1.07785 0.652746
3.00074 -4.4816 4.27754
1.1461 -1.18669 0.641509
1.2661 -1.2756 0.783859
2.96474 -6.11208 5.18975
2.71945 -5.19943 4.31274
3.19637 -4.1646 4.392
1.89313 -4.48005 2.90715
1.50837 -3.89663 2.16203
1.30299 -3.77381 1.89109
1.2483 -1.53471 0.833862
1.70824 -3.06151 1.93358
3.58523 -5.32515 5.56003
2.3136 -5.37413 3.93059
3.50389 -6.52727 6.16075
2.06653 -2.56959 2.14002
2.6275 -5.53565 4.40498
1.48362 -1.42586 1.05682
3.30038 -5.59728 5.31408
3.13848 -6.01651 5.35246
1.88629 -3.42689 2.31585
