ply
format ascii 1.0
comment Created by Open3D
element vertex 400
property double x
property double y
property double z
end_header
-0.328094 -0.743554 2.24723
-0.700788 -0.667068 3.73859
0.13568 -0.70213 2.11759
0.683325 0.551325 3.6552
-0.320598 -0.743598 2.23623
0.596958 0.791008 1.60677
0.472877 -0.436193 1.33586
0.560739 -0.416461 2.45236
0.499724 -0.483276 2.50058
0.678904 -0.0179857 3.15884
-0.150717 -0.641977 3.72863
0.513228 -0.322832 3.31733
0.0192702 -0.60368 3.67256
0.368527 -0.424133 0.984816
-0.3039 -0.72313 1.87856
0.506453 -0.364777 1.23774
0.707962 0.222972 1.67711
0.469293 -0.477807 1.50844
0.0671797 -0.58901 3.65333
-0.563979 -0.634779 4.07663
-0.315035 -0.734765 3.01532
0.706651 0.0683807 1.67629
0.435978 -0.443982 3.18601
-0.685349 -0.645639 1.74673
-0.42045 -0.71051 1.87286
0.0340346 -0.712885 2.726
0.130983 -0.564807 3.6329
-0.28574 -0.7234 1.86683
0.747809 0.162619 2.46952
0.532013 -0.450767 1.79981
0.665448 0.399808 3.79637
0.497903 -0.334067 3.3523
0.497172 -0.366668 1.20706
0.70496 0.63587 3.28554
0.486684 -0.474536 1.59225
0.4744 -0.41192 3.14711
-0.696283 -0.700253 3.23421
0.664 -0.0214098 3.27384
0.459161 -0.470419 2.92136
0.50697 -0.48884 1.94481
0.713316 0.383166 3.33642
-0.000253723 -0.688214 1.56716
0.711816 0.645646 2.46567
-0.0421956 -0.735396 2.14912
0.733608 0.487608 2.3965
0.63092 0.30519 1.2237
0.124302 -0.694908 2.62855
-0.432973 -0.741843 2.51891
0.660994 0.450804 3.85207
-0.192077 -0.714617 3.18782
0.534554 -0.263676 1.1148
-0.57553 -0.72399 2.96279
-0.0130418 -0.605592 1.09461
-0.033816 -0.697686 1.61831
-0.171733 -0.631343 3.8238
0.622148 -0.232362 2.97
0.685149 0.0927391 3.32621
0.515005 -0.451125 2.64988
-0.094434 -0.743134 2.30418
-0.139254 -0.695004 1.55792
0.662586 0.432326 3.83294
0.314213 -0.549327 3.15083
0.270692 -0.489838 3.60355
0.552714 -0.140626 1.00624
0.401565 -0.467425 1.19869
0.63761 0.7756 1.86997
0.406625 -0.380675 0.968298
0.48683 -0.4897 1.70459
-0.098297 -0.629627 3.72937
0.314082 -0.546508 3.16813
0.640901 0.408841 3.9818
0.569252 -0.344448 1.48358
0.391955 -0.447025 3.36477
0.725501 0.132121 2.9664
0.0155535 -0.699807 1.68675
0.56421 -0.3851 1.63065
0.520917 -0.418783 2.82778
-0.26593 -0.74181 2.85349
0.704291 0.449891 3.44624
0.613986 0.146606 1.10263
-0.605221 -0.649341 1.63477
0.0625448 -0.571025 1.00304
0.453573 -0.533037 1.84475
-0.271678 -0.628398 1.19569
0.729578 0.502528 2.33445
0.368583 -0.506017 1.24681
0.723827 0.339577 3.19128
0.739793 0.403443 2.87556
0.59393 -0.26036 3.07325
0.580368 -0.397652 1.93126
-0.0937041 -0.718224 1.78107
0.722298 -0.00843164 2.65188
-0.745384 -0.655734 1.96192
0.656483 -0.151227 1.53811
0.513874 -0.387656 3.04182
0.514836 -0.460644 2.56811
0.372445 -0.529565 1.36286
0.62876 -0.30984 1.87431
-0.641557 -0.643977 1.65614
0.253701 -0.500509 3.60765
0.706938 0.669248 3.15244
0.708716 0.571486 2.14278
-0.495508 -0.732638 2.92464
0.727844 0.410174 2.07628
0.25784 -0.55771 3.30814
0.741299 0.164689 2.74307
0.740448 0.0654277 2.39661
-0.26727 -0.69762 1.61138
0.521875 -0.309135 3.3229
0.597537 0.747847 4.33551
-0.186238 -0.747978 2.5538
-0.245711 -0.656501 3.74531
0.671243 -0.229797 2.08094
-0.523898 -0.713638 2.0975
0.244813 -0.580137 1.2701
0.296224 -0.583296 1.41013
0.329798 -0.608582 2.59165
0.0614116 -0.720958 2.30676
0.621399 -0.310131 2.56999
0.596809 -0.313131 2.81634
0.227344 -0.564776 1.16943
0.172653 -0.527747 3.70883
-0.180734 -0.684114 1.48201
-0.570817 -0.727177 2.61798
0.389345 -0.534415 2.90033
0.0758409 -0.610159 3.51381
0.706123 -0.124797 2.27103
-0.374673 -0.746303 2.54098
0.734262 0.0154123 2.28564
0.357981 -0.607689 2.30447
-0.0387678 -0.642558 3.54732
0.681029 0.219089 1.47046
-0.0577083 -0.710478 3.01292
0.690286 -0.131784 2.66635
0.58226 -0.40052 2.20882
-0.522688 -0.733318 2.74838
0.719176 0.598716 2.44495
0.556746 -0.406854 2.59582
0.719256 0.536226 2.21853
0.473098 -0.365392 1.11943
0.688483 0.130233 3.35717
-0.368356 -0.669706 1.48448
-0.185286 -0.637476 3.80281
-0.471659 -0.643759 3.98996
-0.455016 -0.695716 1.77639
0.735411 0.505901 2.64529
0.470388 -0.464462 2.88925
0.648303 0.443003 3.9457
0.634509 -0.180221 3.0627
-0.198226 -0.732906 1.94592
0.749264 0.290084 2.57907
0.0408133 -0.694647 2.94582
0.273627 -0.650883 1.98839
-0.0824916 -0.684352 3.31547
0.139756 -0.544744 0.977702
0.617484 -0.343876 2.24676
0.520261 -0.309939 3.32832
0.687883 -0.149507 2.61244
0.638841 0.751981 1.82787
0.737183 0.120113 2.74368
0.741397 0.112787 2.15455
0.657008 -0.250592 2.4669
-0.530546 -0.645416 3.99199
0.522142 -0.228948 3.58085
-0.350604 -0.733504 2.0722
0.692255 0.635395 3.49138
0.240939 -0.561371 3.34312
0.701788 0.0226284 1.66442
0.703504 0.691334 2.47299
0.024761 -0.710499 2.79535
-0.246519 -0.689719 3.48881
0.524415 -0.208465 3.62842
0.707781 0.261931 1.69354
0.683373 0.0469832 3.25884
0.736485 0.487715 2.52955
0.625072 -0.185238 3.11784
0.719681 0.519821 2.18141
0.0600562 -0.691234 2.92655
0.608468 -0.283412 2.86288
0.48565 -0.34864 1.12021
-0.0815246 -0.733275 2.00638
-0.364739 -0.717149 3.28549
0.00491541 -0.729375 2.47159
0.650255 -0.0472347 3.31782
-0.671029 -0.707929 2.48818
0.0256329 -0.725527 2.12019
0.0182647 -0.710635 1.81173
0.697837 -0.119353 1.89867
0.689909 -0.025271 3.03797
-0.0219643 -0.640354 1.25178
0.274405 -0.461915 3.71091
0.340159 -0.620371 2.10795
0.115127 -0.651143 1.43774
0.343492 -0.415008 0.909495
0.70374 0.70411 3.10218
0.584686 -0.367674 1.71596
0.109149 -0.664681 1.52303
-0.0194982 -0.730148 2.06718
0.667015 -0.227095 2.46644
-0.483186 -0.737336 2.55884
0.25225 -0.64864 1.78597
0.0159515 -0.666758 1.42693
0.70176 0.65037 3.31738
0.735657 0.461347 2.90711
-0.528346 -0.714436 2.11962
0.719299 0.631049 2.78073
0.576277 -0.404223 2.32891
0.697867 0.0364069 1.61795
-0.555172 -0.728312 2.54607
-0.529546 -0.732796 2.69227
0.706951 -0.000989366 2.91345
0.628907 0.169587 3.83596
0.707404 0.0496243 1.69592
0.584397 -0.380143 1.80458
0.671576 -0.228164 2.31723
0.046519 -0.714551 2.64572
0.74785 0.29181 2.33842
0.437307 -0.426233 3.26238
-0.181941 -0.733931 1.95977
-0.252717 -0.745237 2.75609
-0.0549562 -0.624446 1.16173
0.736765 0.159365 2.00948
0.729438 0.0119778 2.073
0.58995 0.8066 4.37154
0.624355 -0.237525 1.50733
-0.400351 -0.740551 2.85592
0.721665 0.215945 1.80918
0.704069 0.0492687 1.66433
0.744806 0.133506 2.24154
-0.57608 -0.64505 1.56167
0.664794 0.457314 1.53994
-0.62719 -0.69401 3.47626
-0.290088 -0.728768 3.09989
0.721504 0.279944 1.84094
0.640312 -0.238718 1.63885
0.455338 -0.480172 1.4504
0.0567756 -0.718514 2.06556
0.634421 -0.0458392 1.26472
-0.0334287 -0.724689 2.75305
-0.500968 -0.732098 2.40189
0.74924 0.19571 2.44517
0.351716 -0.600604 2.52065
0.675763 0.579903 3.72314
0.722994 -0.0511156 2.24267
0.72949 0.00921016 2.08455
0.593125 -0.270585 1.39659
0.609914 -0.346106 1.8814
0.596124 0.00463396 3.76088
-0.593336 -0.700556 2.085
0.417463 -0.522807 2.82196
0.367433 -0.603507 2.04405
-0.2327 -0.6368 3.86295
0.714367 0.572667 3.21876
0.747931 0.161211 2.41952
0.49206 -0.45051 2.83467
0.685673 -0.028997 3.06985
0.101399 -0.596911 1.13825
0.0209523 -0.673598 3.19743
0.0187677 -0.728052 2.18623
0.638577 -0.192973 2.98428
0.589761 -0.230989 1.28937
0.684 -0.0555097 1.59568
-0.0161197 -0.70001 3.03586
0.646872 0.718282 1.82221
-0.401749 -0.737089 2.95129
0.379169 -0.431481 3.48156
-0.344431 -0.677721 3.66723
0.650009 0.279539 1.3095
-0.131223 -0.727303 2.939
-0.687018 -0.670868 1.97162
0.325949 -0.457471 3.56421
0.531609 -0.463401 2.27102
-0.710689 -0.703369 2.58807
-0.614076 -0.643456 1.60792
-0.551841 -0.682061 3.66816
0.370548 -0.582242 2.60019
0.521027 -0.263753 1.06644
0.102032 -0.699848 1.86709
0.462354 -0.470826 2.89953
0.645859 -0.0165908 1.30336
-0.0376313 -0.666081 3.37982
0.61971 -0.25818 1.53383
-0.417989 -0.737409 2.27861
0.700978 0.189538 1.60864
0.113061 -0.580529 1.08212
0.0703441 -0.709696 1.92397
0.744936 0.283466 2.78103
-0.0438813 -0.735831 2.51957
0.128499 -0.597651 1.17023
0.692086 -0.172984 2.1765
0.627765 -0.312735 1.88216
0.556557 -0.267733 1.21018
0.508143 -0.480637 2.42379
0.585961 -0.275229 3.07049
0.4558 -0.29349 0.920094
0.74059 0.44691 2.72003
0.663715 -0.132155 2.97476
0.620751 -0.229749 2.99154
0.0934782 -0.654412 3.17041
0.301253 -0.612337 2.73399
0.356585 -0.567175 1.51758
0.490752 -0.505968 2.2826
-0.532621 -0.640681 4.02834
-0.147737 -0.672507 3.51122
-0.55927 -0.72912 2.74613
0.69854 0.66387 3.3498
-0.374048 -0.725998 1.9931
0.661816 -0.236124 1.89072
0.733981 0.397771 2.15841
0.635255 -0.304895 2.36913
-0.235522 -0.748162 2.29779
0.740362 0.398052 2.30785
-0.182534 -0.748004 2.31631
0.705168 0.667808 2.40081
-0.342182 -0.718732 3.25889
0.364485 -0.606245 2.16186
0.725543 0.538453 3.03161
-0.31009 -0.66808 3.71935
0.737422 0.436432 2.89913
0.669295 0.362615 1.47702
0.175949 -0.682081 2.55494
0.740291 0.451961 2.53835
-0.193771 -0.665321 3.62434
-0.692378 -0.705318 2.53249
-0.164674 -0.725884 3.01292
-0.225467 -0.621067 3.95182
-0.0493159 -0.737496 2.20668
0.729374 0.540844 2.50034
0.608924 -0.0487259 1.14541
0.668964 -0.181456 2.72311
0.301813 -0.523137 1.14763
-0.115595 -0.672235 1.4032
-0.172328 -0.734198 1.96428
0.548336 -0.387144 2.809
0.512165 -0.300825 3.40133
-0.125789 -0.737179 2.75676
0.706428 0.635448 2.29912
0.375126 -0.440194 3.46044
0.62029 -0.33981 2.08273
0.642624 -0.00533647 1.27858
0.743298 0.271018 2.1682
0.371422 -0.599068 2.31191
0.735614 0.413194 2.97669
0.279777 -0.645223 1.91779
0.397343 -0.514227 2.99182
0.241604 -0.657976 1.86084
0.718543 0.636033 2.79007
0.589334 -0.390326 2.07032
0.245112 -0.662898 2.38061
0.698776 -0.145084 2.08072
0.556876 -0.129924 1.00995
0.742243 0.171283 2.73175
0.527483 -0.440297 2.62085
0.0575169 -0.721773 2.30502
0.707532 0.546692 3.36352
0.629821 0.521801 1.39894
0.695194 0.611554 3.4768
0.725563 0.544543 3.01524
-0.576945 -0.724245 2.50231
0.623158 0.733468 4.13965
-0.085354 -0.644154 1.2497
0.136052 -0.696448 2.52935
0.625895 0.759695 1.74365
0.610726 -0.333244 1.78643
0.702599 0.238079 1.63725
0.165798 -0.655412 2.93437
0.695267 0.561757 1.95203
0.675374 0.376504 1.52932
0.520573 -0.289137 1.11217
0.702986 0.334056 1.70344
0.659564 0.0673841 1.33789
-0.112972 -0.739742 2.107
0.587 0.80426 1.56935
0.730835 0.0885747 2.79401
-0.252615 -0.748875 2.61174
-0.61456 -0.66939 1.80617
-0.445033 -0.650743 3.92855
0.649836 -0.0275539 1.33357
0.651568 0.358308 1.36629
0.15155 -0.69731 2.09514
-0.532279 -0.655859 1.57285
-0.0455143 -0.643264 3.55484
0.621826 0.600606 1.45221
-0.363054 -0.731094 3.08497
0.736342 0.104662 2.72443
-0.47764 -0.7144 2.01135
0.626894 -0.285686 2.6665
0.579935 -0.274875 1.33558
0.731429 0.540699 2.72535
-0.169828 -0.748308 2.43522
-0.462981 -0.723531 2.11096
0.619432 -0.0685678 1.20959
0.732392 0.401962 2.13701
0.369689 -0.442761 1.03776
-0.437779 -0.726289 2.10315
0.0759869 -0.712383 2.54122
0.629283 0.299643 1.21286
0.254436 -0.475464 0.910372
0.33193 -0.5515 1.34368
0.521875 -0.220945 3.60516
