ply
format ascii 1.0
comment Created by Open3D
element vertex 400
property double x
property double y
property double z
end_header
-1.78568 1.27734 1.12629
-1.5393 2.00017 2.22121
-1.93664 2.00724 2.06266
-2.31097 2.16564 1.16961
-1.75722 2.19717 2.295
-0.877845 0.41871 0.947127
-1.73539 2.09649 2.23579
-1.055 1.16495 1.70611
-0.90755 1.6072 1.97435
-1.42474 0.87607 1.17515
-0.812437 0.61503 1.23687
-1.799 1.31468 1.2588
-1.47621 3.04674 2.75123
-1.98128 1.73918 1.70874
-1.76877 2.23095 2.31316
-1.95189 2.2553 2.25288
-2.26685 2.08877 1.12916
-1.82325 1.42092 0.711901
-1.6364 1.88239 2.12115
-1.14644 2.60449 2.51159
-1.77721 1.26379 1.09162
-0.594111 0.94185 1.4883
-1.8607 1.66355 1.78415
-0.822167 1.10745 1.65059
-1.18834 1.10322 1.64111
-1.76807 1.35494 1.46977
-1.32278 2.20956 2.34784
-1.56836 1.80096 2.08439
-0.431236 1.44819 1.74134
-1.09616 1.48439 1.92499
-1.66792 1.23602 1.44481
-2.57429 2.66995 1.36948
-0.865605 1.17444 1.70239
-2.05318 1.68735 1.27416
-1.86117 1.58099 0.557547
-1.16072 0.6279 1.07376
-0.834591 1.90917 2.11595
-1.24319 1.68323 2.0513
-0.828531 0.87215 1.47493
-0.914968 0.39653 0.86308
-0.771043 0.95833 1.53633
-1.85921 1.93497 2.05557
-1.77775 2.05605 2.19227
-1.84737 1.36511 1.10582
-1.42498 0.95651 0.374512
-1.05016 0.70744 1.28285
-1.62271 1.37675 1.69304
-1.98903 2.05077 2.059
-1.5289 0.97551 1.1719
-0.578859 0.67397 1.27677
-0.974718 1.94002 2.16469
-1.64075 1.32673 1.61678
-1.52289 1.15626 1.5185
-1.90207 1.44847 1.18725
-2.30115 2.16942 1.66722
-2.24858 2.14237 1.78721
-2.2912 2.1093 1.49774
-0.764467 0.31636 0.82221
-1.75762 1.236 1.03237
-1.30805 0.75443 1.11958
-1.46925 0.89828 0.645617
-2.4602 2.43251 1.34064
-1.4878 1.00617 1.33223
-1.85043 1.38478 1.2659
-1.24386 0.67036 1.03332
-2.21411 1.98054 1.50565
-0.78445 0.87589 1.47446
-1.5925 1.07827 0.635901
-0.80799 1.07173 1.62362
-1.6288 1.11619 0.68064
-1.62996 1.2915 1.58302
-0.748734 0.37197 0.93541
-1.23368 1.91258 2.18454
-0.886648 2.0626 2.20443
-1.13151 0.53607 0.87467
-2.19629 1.99584 1.64364
-0.408057 0.54997 1.12426
-0.406876 0.80023 1.32783
-1.09293 1.25816 1.77316
-0.91267 1.75027 2.05337
-1.00773 0.49742 0.986661
-1.24929 1.39644 1.86108
-1.87711 1.41804 1.00881
-1.00204 0.73335 1.32974
-0.666144 0.25985 0.762678
-1.0011 0.9397 1.52915
-1.76174 2.38345 2.40876
-1.24997 2.16187 2.31812
-0.141669 0.93143 1.3005
-1.91661 1.80455 1.8823
-1.2244 0.86511 1.38634
-1.33973 2.78711 2.62336
-0.903145 2.13086 2.2411
-1.48198 0.88384 0.79681
-1.65941 2.1443 2.28736
-0.677019 1.94968 2.08733
-1.71478 1.19792 0.842405
-2.72433 3.01086 1.37519
-1.29044 0.68388 0.942955
-1.29806 0.70138 0.988217
-0.914777 0.39357 0.855719
-1.26991 1.05617 1.57297
-1.55614 0.99273 0.737357
-0.600433 0.54622 1.16227
-1.38464 0.82359 0.529559
-1.83902 1.55737 0.531292
-1.25829 1.05061 1.57209
-0.718534 1.68987 1.9717
-1.6738 1.42885 0.302041
-0.944475 1.89696 2.13647
-1.07154 1.49328 1.92916
-1.32813 0.78809 0.433499
-1.01601 0.57408 1.11741
-1.6873 1.55848 1.83183
-1.93626 1.62576 0.712544
-1.3135 0.89646 0.213511
-1.02707 1.93272 2.17099
-1.04142 0.49685 0.942411
-1.0728 0.91324 1.49492
-1.66398 1.43537 1.72264
-1.31714 2.09654 2.28834
-2.65163 2.83269 1.41107
-1.63197 1.06565 1.00172
-1.65566 1.10953 0.848875
-1.549 1.02862 1.26134
-1.02963 0.8708 1.46324
-0.9069 1.60957 1.97555
-0.712184 0.3705 0.945175
-2.4475 2.40807 1.33013
-1.31496 0.73059 1.03862
-0.912309 0.97993 1.56484
-1.30632 1.94425 2.20459
-1.60478 1.06974 0.711081
-1.48857 1.26561 0.114134
-0.856257 1.18022 1.70503
-1.67939 1.18289 0.711639
-0.223389 0.89234 1.31547
-0.667848 0.46361 1.07623
-2.16056 1.90269 1.05805
-1.39304 0.8805 0.427326
-0.946441 0.35956 0.612687
-0.478641 1.18957 1.61259
-1.91605 1.58029 0.726708
-0.747016 0.4771 1.08556
-1.37525 0.92937 0.299276
-1.19413 2.40441 2.4295
-2.1111 1.99321 1.84702
-1.33866 2.80797 2.63237
-2.47928 2.51151 1.19698
-1.04421 0.5578 1.06772
-1.42007 0.80669 0.842871
-1.93853 1.50619 1.2328
-1.84109 1.37419 0.933324
-0.451495 1.19631 1.60643
-0.64643 1.8104 2.00934
-2.50752 2.52065 1.41006
-1.83671 1.8112 1.9616
-1.01061 0.41768 0.485401
-0.444862 1.1184 1.55641
-1.4857 1.4131 1.81244
-2.0225 1.65486 1.38631
-0.268955 1.40421 1.64476
-0.949008 0.8103 1.41799
-1.65519 1.3179 1.58914
-1.82286 1.37463 0.823921
-1.72053 2.51489 2.49152
-1.90268 1.71199 1.79143
-0.378429 0.54623 1.11154
-1.97835 1.76128 0.62738
-2.61263 2.73099 1.60001
-1.93756 1.79275 1.84499
-1.57955 1.00536 0.839166
-2.05111 1.97354 1.91267
-0.450314 1.29137 1.66174
-2.17051 2.10256 1.89306
-2.106 2.18746 2.07684
-1.00469 0.40398 0.58419
-0.954898 0.49831 1.03525
-0.512419 0.86929 1.41326
-0.770584 0.74043 1.35938
-1.63608 2.41319 2.44725
-1.9699 1.81995 1.83646
-1.72604 1.87535 2.0815
-2.07765 1.92973 1.8166
-1.8119 1.5069 0.530443
-0.858477 0.82794 1.43869
-1.69996 1.65338 1.91211
-1.29891 0.7727 0.38369
-2.05508 1.82785 0.762289
-1.35407 2.28207 2.38657
-2.36992 2.30436 1.72592
-1.59633 2.20419 2.33468
-0.446128 0.58936 1.17078
-0.855104 0.52477 1.1227
-1.91241 1.48441 1.33283
-2.68513 2.94209 1.30616
-0.888374 1.71537 2.02952
-1.79595 2.06079 2.18797
-1.21053 2.08601 2.27543
-1.4894 1.22294 0.160846
-1.24636 0.98601 1.51164
-0.899581 0.36627 0.800728
-1.33555 0.72942 0.961064
-1.25623 2.48647 2.47663
-1.44858 0.95576 0.437572
-0.494374 0.97341 1.48028
-2.05999 1.70131 1.31477
-2.58172 2.66692 1.51285
-2.05965 1.87916 0.695722
-1.63043 1.4573 1.77221
-0.71176 0.28674 0.793869
-1.67322 1.39493 1.66734
-2.65037 2.80989 1.57719
-1.75975 1.87731 2.06669
-0.607376 0.875 1.44328
-2.07056 1.82861 0.815754
-1.65372 1.37802 1.66644
-0.946187 1.0464 1.61712
-1.00148 0.48648 0.970299
-1.97556 2.25427 2.23842
-0.802347 1.43843 1.85599
-0.394155 0.59648 1.16113
-2.13093 1.81767 1.32455
-1.44013 2.09286 2.28579
-1.88589 1.48149 0.824649
-2.22073 2.14155 0.8126
-0.916106 1.52173 1.92721
-2.24653 2.03817 1.1717
-1.54907 0.96212 0.869055
-2.10194 1.81067 0.997607
-0.494819 0.79268 1.35121
-2.3728 2.31528 1.10571
-0.960032 1.70371 2.03755
-1.79899 2.2933 2.34351
-0.668074 0.27202 0.787604
-1.69438 1.24103 1.40168
-0.611704 0.84672 1.42308
-1.69542 1.19025 0.76282
-1.97395 1.56527 1.08106
-1.56565 1.24727 0.286088
-2.5706 2.71054 1.21412
-1.78854 1.41863 0.601394
-1.8067 1.35511 1.36527
-1.79708 1.3905 0.680859
-1.14309 1.41293 1.87935
-2.00873 1.7996 0.660275
-1.22793 0.67125 1.06693
-2.13915 1.83161 1.32739
-1.27481 0.91835 1.42007
-0.595596 0.74094 1.33638
-2.31025 2.1822 1.66123
-2.29394 2.22128 0.944751
-1.12744 0.78089 1.3367
-2.09967 1.85862 0.869557
-2.51137 2.60878 1.13591
-1.32641 0.83011 1.2455
-1.33565 1.00748 1.48712
-2.25979 2.04308 1.3296
-1.65543 2.38764 2.43073
-1.59567 1.0225 1.03775
-1.91538 1.59051 1.59293
-0.855302 0.89837 1.49767
-1.21608 2.12207 2.29453
-1.28198 0.70228 1.03722
-1.33044 1.59685 1.9908
-1.68601 1.44296 0.312004
-2.0653 1.86577 1.74449
-1.32577 0.77272 0.461642
-0.798903 0.99547 1.56759
-1.79063 1.31855 0.834322
-1.09629 0.75067 1.31496
-1.50552 1.03046 0.458226
-2.47382 2.53567 1.10958
-1.41201 1.19031 0.0544331
-1.8344 1.6888 1.84123
-2.02806 1.72909 1.58318
-0.857657 0.29542 0.558225
-1.58396 1.01526 1.08716
-0.922456 0.62453 1.22776
-1.47361 0.8692 0.853379
-0.797249 1.03083 1.59304
-0.224648 1.11374 1.45755
-1.49439 1.82751 2.11924
-0.66951 0.2836 0.81021
-1.91646 1.4797 1.27995
-1.34413 0.89144 1.32614
-2.09451 1.80471 0.974089
-1.29429 0.68937 0.952289
-1.4476 0.85779 1.04551
-1.37985 2.60587 2.54571
-1.27544 1.11749 1.62948
-1.19983 1.32914 1.81775
-1.8585 1.54597 1.62792
-1.96663 1.96576 1.99847
-1.41624 1.81021 2.11965
-0.498871 0.5041 1.10386
-0.811978 2.06142 2.18316
-2.29371 2.14116 1.13387
-1.87668 1.41052 1.17894
-1.10864 0.49456 0.596734
-1.44668 2.21441 2.35247
-1.69006 1.78105 2.0248
-1.04641 0.43855 0.657829
-1.66289 1.10911 0.928148
-1.23402 0.72508 0.309663
-1.74076 1.23154 1.22085
-1.41497 0.80272 0.903548
-1.3486 2.63144 2.55453
-1.11729 0.58642 1.04365
-1.51001 0.94168 1.12377
-1.34255 0.84195 0.365581
-1.79884 1.91984 2.07971
-1.04033 0.48907 0.923941
-0.338697 0.80889 1.30811
-0.825986 0.90117 1.4982
-1.81106 1.43299 1.52667
-0.542202 1.52289 1.82481
-2.27995 2.1216 1.10769
-1.55568 1.24879 0.26322
-2.12353 1.8144 1.14353
-1.95429 1.61208 1.54001
-2.25964 2.08252 1.10242
-0.863038 0.89877 1.4983
-2.77447 3.10568 1.45835
-0.946922 1.6948 2.03028
-1.74959 1.48373 1.69387
-1.34917 2.03025 2.25291
-0.431144 1.10048 1.54001
-1.89519 1.46418 0.927399
-1.39989 1.63231 2.00505
-2.25606 2.05589 1.53238
-0.891782 0.4741 1.03466
-2.62355 2.75357 1.59851
-1.79887 1.51821 0.480861
-0.372879 0.99698 1.45099
-1.14959 0.52927 0.657524
-1.49349 1.11232 0.302649
-1.27808 0.68285 0.54979
-0.920476 0.3453 0.653374
-1.67239 1.78535 2.03618
-1.98363 1.5866 1.33266
-0.939957 2.04819 2.21068
-2.33406 2.28172 1.80558
-0.889936 0.65929 1.27423
-1.11195 0.97539 1.54428
-1.70935 1.59967 1.85595
-1.50987 1.35962 1.75231
-1.67238 2.28063 2.36688
-1.85977 1.41213 1.32992
-1.40302 3.11541 2.77179
-0.302677 1.23671 1.56728
-1.03747 1.63351 2.00984
-0.851908 0.34723 0.812961
-2.16888 2.13178 1.93399
-1.75964 1.36987 1.51418
-1.56396 1.14774 0.417858
-0.750085 1.07134 1.61369
-0.556394 0.72411 1.31386
-0.603806 0.75276 1.34772
-1.04442 1.21287 1.74131
-0.609795 1.71634 1.94959
-0.58231 0.33234 0.910393
-2.1833 1.92121 1.46222
-1.67738 1.26818 0.528534
-0.431321 0.42394 1.00662
-2.37266 2.34438 1.03873
-1.52818 1.01976 0.546756
-1.71048 1.40943 1.64484
-2.28678 2.10251 1.50325
-1.60991 2.57833 2.53648
-0.509577 0.61529 1.21033
-1.22568 0.60338 0.798111
-2.24267 2.03067 1.17194
-1.397 0.78143 0.802821
-0.640872 0.7874 1.38301
-1.68449 1.16278 0.799858
-1.6566 1.28396 1.53984
-1.23624 1.97858 2.2208
-2.25827 2.19174 1.84785
-1.4995 1.21602 1.61146
-0.179018 1.36615 1.57892
-1.46147 1.068 1.46154
-1.29026 0.66635 0.747398
-2.67011 2.88266 1.37979
-2.07815 2.20779 2.12352
-1.82199 2.08261 2.19209
-2.0988 1.94061 1.79388
-1.84114 1.40219 1.37677
-0.425155 0.74333 1.29126
-1.96486 2.18765 2.19351
-2.02286 1.70174 0.891365
-2.31486 2.15717 1.53713
-2.01191 1.83788 1.79877
-1.55938 2.44051 2.46813
-1.45916 1.43198 1.83909
-0.919713 1.52282 1.92847
-2.10566 1.88282 0.845198
-1.55916 1.24175 1.59197
-1.57315 1.04266 1.23438
-1.83479 1.37977 1.33134
