ply
format ascii 1.0
comment Created by Open3D
element vertex 400
property double x
property double y
property double z
end_header
0.952459 -0.536999 -2.12485
1.36882 -1.40254 -3.32751
1.27743 -0.439622 -1.78059
2.33012 -2.19812 -1.96729
0.953363 -0.530363 -2.11335
1.19708 -1.39113 -0.442172
1.13543 -0.226365 -0.926253
1.76579 -0.78859 -1.66194
1.74761 -0.764607 -1.75996
2.16153 -1.46464 -1.90318
1.82969 -1.33843 -3.03289
2.14401 -1.30795 -2.25051
1.94114 -1.31819 -2.8891
0.869078 -0.0764179 -0.724173
0.785787 -0.366557 -1.84186
1.10458 -0.233345 -0.804377
1.41018 -0.925194 -0.720428
1.22476 -0.277661 -1.07089
1.97027 -1.31408 -2.84421
1.64989 -1.57909 -3.48199
1.34637 -0.926636 -2.65705
1.43129 -0.793024 -0.797799
2.03016 -1.1502 -2.25685
0.382935 -0.422645 -1.90062
0.681604 -0.391544 -1.88979
1.49645 -0.749528 -2.267
2.01096 -1.31517 -2.78576
0.795461 -0.357801 -1.82462
1.84924 -1.26405 -1.291
1.42002 -0.437242 -1.23204
2.40763 -2.14199 -2.15181
2.15006 -1.31809 -2.28852
1.08159 -0.21775 -0.788268
2.15137 -2.08228 -1.65281
1.28103 -0.319809 -1.11982
2.0388 -1.15248 -2.1941
1.12534 -1.12137 -2.9852
2.20682 -1.52141 -1.99366
1.92149 -0.991908 -2.07134
1.47672 -0.480908 -1.36612
2.22095 -1.8908 -1.81096
0.88415 -0.19619 -1.45238
1.74586 -1.67969 -1.06476
1.14624 -0.453042 -1.90846
1.75301 -1.50701 -1.08397
1.10568 -0.779949 -0.39723
1.52214 -0.70293 -2.14397
0.998528 -0.689658 -2.36854
2.42421 -2.21402 -2.16793
1.53462 -1.01208 -2.70748
1.05229 -0.254057 -0.652846
1.09618 -0.947716 -2.74477
0.624859 -0.0323092 -1.08332
0.882463 -0.218593 -1.51007
1.85778 -1.39817 -3.10537
2.05006 -1.19555 -1.90521
2.23433 -1.64192 -1.96304
1.83059 -0.864458 -1.8418
1.18031 -0.531614 -2.04808
0.761879 -0.206129 -1.51874
2.41871 -2.18845 -2.16284
1.92406 -1.06052 -2.34553
2.10456 -1.34403 -2.65767
0.995486 -0.302146 -0.505476
1.01056 -0.141567 -0.880535
1.36563 -1.50362 -0.61566
0.886974 -0.0996739 -0.671715
1.33954 -0.363013 -1.20676
1.87299 -1.34166 -3.00103
1.93218 -1.07159 -2.35642
2.47807 -2.24601 -2.29069
1.27812 -0.36442 -0.936648
2.0824 -1.24342 -2.40678
2.0831 -1.48972 -1.66875
0.959133 -0.243773 -1.53484
1.35331 -0.403996 -1.06349
1.91985 -0.980148 -1.94847
1.30839 -0.832513 -2.52159
2.25839 -2.00399 -1.85977
1.05392 -0.586537 -0.399384
0.395892 -0.351772 -1.78324
0.638529 -0.00495902 -0.963495
1.38758 -0.400975 -1.34417
0.45798 -0.10126 -1.29552
1.71636 -1.48931 -1.03465
1.01212 -0.137517 -0.950347
2.16373 -1.77948 -1.72487
2.01015 -1.6738 -1.46171
2.0817 -1.22741 -2.00633
1.51924 -0.541222 -1.27425
0.915737 -0.291217 -1.66537
1.9437 -1.21297 -1.51823
0.440764 -0.530414 -2.08784
1.35154 -0.543833 -0.834977
2.0163 -1.11477 -2.08779
1.79096 -0.815476 -1.78883
1.07688 -0.174873 -1.04224
1.51921 -0.580612 -1.16588
0.374777 -0.372357 -1.81384
2.09367 -1.33946 -2.6744
2.08162 -2.04393 -1.54102
1.59263 -1.4554 -0.875074
1.14667 -0.909542 -2.68211
1.59933 -1.28166 -0.899146
1.95582 -1.14027 -2.48914
1.98016 -1.40355 -1.48665
1.82074 -1.14572 -1.29172
0.679723 -0.249373 -1.62186
2.15217 -1.32116 -2.24327
2.56826 -2.71857 -2.39297
1.22748 -0.665735 -2.27292
1.75907 -1.34828 -3.09944
1.64707 -0.746027 -1.25073
0.706087 -0.516347 -2.10193
0.928969 -0.104019 -1.06576
1.04333 -0.163808 -1.14065
1.66645 -0.728068 -1.97196
1.31138 -0.52901 -1.9609
1.86081 -0.929278 -1.66162
1.96343 -1.05349 -1.84961
0.861474 -0.0693537 -0.995626
2.07907 -1.37867 -2.80009
0.686925 -0.183545 -1.48036
0.928259 -0.771899 -2.50019
1.86075 -0.936993 -2.12338
1.911 -1.225 -2.7518
1.7565 -0.925584 -1.3152
1.05998 -0.688351 -2.35723
1.7673 -1.04845 -1.24136
1.54678 -0.581114 -1.75436
1.83467 -1.23088 -2.849
1.28444 -0.822498 -0.589711
1.56125 -0.908479 -2.51455
1.94167 -1.1196 -1.60614
1.66005 -0.677274 -1.471
1.03544 -0.824808 -2.5714
1.74865 -1.62819 -1.06989
1.8327 -0.869104 -1.76057
1.64466 -1.46163 -0.940994
1.01704 -0.178549 -0.737702
2.24717 -1.68892 -1.96452
0.525904 -0.224554 -1.56872
1.83661 -1.38442 -3.10038
1.68667 -1.51457 -3.37904
0.601702 -0.361002 -1.83147
1.87627 -1.64676 -1.24985
1.91414 -0.979293 -2.04004
2.46133 -2.25603 -2.24438
2.09933 -1.2846 -1.93851
0.911093 -0.376413 -1.84154
1.88659 -1.42741 -1.30401
1.60948 -0.874015 -2.40993
1.32307 -0.398561 -1.59463
1.68754 -1.08568 -2.72781
0.687916 -0.0034162 -0.893834
1.7008 -0.739436 -1.4519
2.15362 -1.32342 -2.24832
1.91526 -1.07787 -1.57809
1.3491 -1.46224 -0.597089
1.98348 -1.36641 -1.51143
1.69358 -1.06497 -1.0964
1.83094 -0.923339 -1.54115
1.63767 -1.5228 -3.41075
2.26963 -1.51854 -2.38545
0.844262 -0.461362 -2.00732
2.24352 -2.18666 -1.80496
1.95943 -1.15712 -2.52416
1.42791 -0.748748 -0.814712
1.73573 -1.72356 -1.05125
1.52286 -0.787599 -2.31948
1.63499 -1.19179 -2.93508
2.29235 -1.55947 -2.40771
1.41254 -0.966691 -0.712659
2.20583 -1.56944 -1.93917
1.82198 -1.57321 -1.17657
2.11958 -1.30927 -1.98473
1.62887 -1.42901 -0.922739
1.61577 -0.864476 -2.38497
1.9923 -1.10042 -1.86183
1.02569 -0.191398 -0.7236
1.04099 -0.38924 -1.82612
1.43645 -1.08404 -2.86414
1.3468 -0.612513 -2.1099
2.22086 -1.52337 -2.04454
0.775006 -0.738106 -2.44889
1.18822 -0.437064 -1.84915
1.02553 -0.296627 -1.62728
1.56246 -0.745267 -1.05332
2.11156 -1.39638 -1.81585
0.700922 -0.082532 -1.2163
2.15732 -1.421 -2.71777
1.43517 -0.474639 -1.63065
0.912495 -0.146225 -1.28464
0.808712 -0.0502124 -0.678868
2.04866 -2.04903 -1.48965
1.41089 -0.458527 -1.10486
0.95202 -0.17819 -1.35471
1.12387 -0.413224 -1.83654
1.83581 -0.941699 -1.52408
0.974976 -0.720826 -2.41964
1.20329 -0.302397 -1.46107
0.824727 -0.142017 -1.3344
2.16244 -2.11105 -1.66968
2.01391 -1.7396 -1.45713
0.713463 -0.527373 -2.12019
1.91191 -1.82366 -1.2911
1.71554 -0.735036 -1.56076
1.39931 -0.737848 -0.776923
0.905823 -0.732683 -2.44208
1.00146 -0.798207 -2.5349
2.06029 -1.35235 -1.70714
2.42995 -1.97063 -2.31318
1.4445 -0.786722 -0.820686
1.45677 -0.492234 -1.1739
1.76526 -0.865516 -1.41682
1.46721 -0.706139 -2.20482
1.7648 -1.30876 -1.13368
2.06687 -1.20333 -2.30131
0.932069 -0.380079 -1.8437
1.27148 -0.778955 -2.44783
0.625403 -0.0559135 -1.16117
1.61027 -1.03287 -0.972855
1.65736 -0.939898 -1.09512
2.5712 -2.78785 -2.39287
1.32137 -0.459488 -0.872425
1.19469 -0.85449 -2.58989
1.48894 -0.983223 -0.810475
1.42591 -0.771111 -0.800191
1.73695 -1.12565 -1.14585
0.383583 -0.314613 -1.71483
1.27043 -1.06295 -0.527846
1.30443 -1.23761 -3.11869
1.40906 -0.970383 -2.70138
1.49531 -1.05375 -0.801016
1.40093 -0.521897 -0.958048
1.18417 -0.248663 -1.038
1.18647 -0.411177 -1.79144
1.18058 -0.500324 -0.599999
1.45412 -0.76286 -2.32576
0.880557 -0.649427 -2.31493
1.83344 -1.27991 -1.25652
1.64849 -0.696171 -1.90681
2.35345 -2.25759 -2.00483
1.74593 -0.971823 -1.24987
1.66359 -0.943305 -1.10465
1.24418 -0.380473 -0.826265
1.51198 -0.55596 -1.19845
2.38859 -1.7971 -2.35897
0.638652 -0.531432 -2.12127
1.84387 -0.903599 -2.0481
1.42403 -0.453089 -1.5634
1.82611 -1.42201 -3.16627
2.13527 -1.99357 -1.63249
1.82455 -1.23783 -1.25629
1.90331 -0.96074 -1.98364
2.12443 -1.40976 -1.84238
0.74309 -0.0447805 -1.05262
1.71525 -1.0207 -2.58725
1.21576 -0.468936 -1.90054
2.06546 -1.23391 -1.8874
1.18191 -0.361157 -0.732339
1.3898 -0.650289 -0.81407
1.60668 -0.922793 -2.50474
1.35805 -1.42946 -0.605918
1.24068 -0.905337 -2.6563
2.12761 -1.31696 -2.48799
1.63888 -1.30559 -3.1042
1.16863 -0.798159 -0.461181
1.46401 -0.867927 -2.50745
0.497649 -0.513799 -2.07309
2.12732 -1.3439 -2.58604
1.65713 -0.662121 -1.57175
0.790429 -0.797749 -2.53707
0.374044 -0.344664 -1.76574
1.46294 -1.33272 -3.21073
1.70165 -0.748857 -1.94446
1.01657 -0.231792 -0.625453
1.12312 -0.321244 -1.61914
1.91336 -0.980182 -2.05452
1.20539 -0.542935 -0.606981
1.75534 -1.12689 -2.74175
1.33368 -0.455792 -0.90382
0.89052 -0.5711 -2.18892
1.37488 -0.863445 -0.692222
0.72258 -0.0289904 -0.998909
1.12596 -0.345918 -1.68013
1.98484 -1.52337 -1.45228
1.33009 -0.63814 -2.17146
0.782318 -0.0561682 -1.06205
1.70431 -0.839243 -1.27946
1.52271 -0.582211 -1.17337
1.11935 -0.295059 -0.711313
1.71601 -0.727231 -1.70013
2.0757 -1.21451 -2.0158
0.892077 -0.142787 -0.56945
1.9267 -1.63302 -1.3296
2.07325 -1.27738 -1.83769
2.05926 -1.20876 -1.91984
1.76083 -1.01294 -2.52228
1.71381 -0.800217 -2.08877
1.14621 -0.222454 -1.17839
1.63428 -0.637559 -1.62165
1.65338 -1.54532 -3.43512
1.72799 -1.20322 -2.89293
1.00247 -0.832623 -2.586
2.17392 -2.13925 -1.68746
0.7836 -0.43165 -1.95936
1.54483 -0.646894 -1.12409
1.64744 -1.31123 -0.960349
1.77144 -0.831288 -1.51004
1.05743 -0.544788 -2.11662
1.72757 -1.38526 -1.06269
1.11189 -0.546423 -2.10314
1.70451 -1.66715 -1.01114
1.44263 -1.06608 -2.83484
1.48082 -0.510089 -1.64954
2.05624 -1.86915 -1.51168
1.69283 -1.33484 -3.11906
2.01508 -1.71409 -1.46307
1.25668 -0.950004 -0.528455
1.52754 -0.66951 -2.05968
1.83487 -1.54654 -1.19876
1.74421 -1.27266 -2.99234
0.778554 -0.765614 -2.48959
1.4722 -0.910994 -2.57573
1.87442 -1.47882 -3.21763
1.16925 -0.481071 -1.95377
1.79352 -1.60499 -1.1329
1.09959 -0.441938 -0.529826
1.95913 -1.10871 -1.68178
0.908039 -0.0830886 -0.922157
0.701378 -0.144738 -1.38613
0.942569 -0.380699 -1.84222
1.92923 -0.993748 -1.90566
2.18188 -1.36889 -2.29943
1.37897 -0.767581 -2.38081
1.65947 -1.58849 -0.954782
2.11487 -1.29955 -2.47943
1.62058 -0.660478 -1.33247
1.18858 -0.540623 -0.585446
1.67886 -1.20658 -1.02599
1.56071 -0.590223 -1.74859
2.05572 -1.7333 -1.53044
1.29219 -0.367188 -1.5388
1.91037 -0.998799 -2.17398
1.233 -0.333418 -1.524
1.9152 -1.83269 -1.29559
1.59535 -0.615692 -1.36444
1.4966 -0.58859 -1.89224
1.65805 -0.814189 -1.19444
0.999323 -0.312523 -0.500664
1.97434 -1.40338 -1.47488
1.82514 -0.857359 -1.80963
1.3073 -0.528015 -1.96202
2.20562 -2.04478 -1.75126
1.16064 -1.05262 -0.413389
2.24223 -2.15859 -1.8051
2.04718 -1.86616 -1.49705
0.864765 -0.717465 -2.41999
2.49431 -2.60462 -2.24886
0.646329 -0.087529 -1.24842
1.48279 -0.650295 -2.06872
1.29481 -1.42861 -0.540155
1.4633 -0.519334 -1.12445
1.38346 -0.918945 -0.687371
1.70469 -0.883476 -2.31972
1.4872 -1.35369 -0.751783
1.28599 -0.987122 -0.555456
1.04277 -0.233056 -0.670707
1.40284 -1.03391 -0.685994
1.22205 -0.629869 -0.582556
1.06541 -0.438636 -1.91623
1.16793 -1.38519 -0.41407
2.00784 -1.36558 -1.56596
1.19992 -0.703661 -2.34752
0.476555 -0.421725 -1.91913
1.67972 -1.47401 -3.32579
1.22549 -0.548099 -0.631834
1.18682 -0.893558 -0.461172
1.27905 -0.430187 -1.75437
0.428143 -0.304563 -1.70624
1.83278 -1.23503 -2.85804
1.16891 -1.14769 -0.415654
1.33966 -0.971623 -2.72847
1.97539 -1.34371 -1.50596
0.702606 -0.465846 -2.01826
1.91017 -0.997595 -1.7149
1.20305 -0.348238 -0.791865
1.90781 -1.71708 -1.29105
1.18224 -0.60376 -2.18103
0.766261 -0.505711 -2.08593
1.14356 -0.455556 -0.579878
1.63478 -1.30435 -0.943918
0.899268 -0.0868185 -0.770341
0.784272 -0.495762 -2.06919
1.4398 -0.651426 -2.11511
1.09967 -0.770034 -0.393157
0.741991 -0.0120908 -0.754244
1.03592 -0.152495 -1.05991
2.28038 -1.53756 -2.39876
