ply
format ascii 1.0
comment Created by Open3D
element vertex 200
property double x
property double y
property double z
end_header
-0.324709 -0.085218 3.16772
-0.0998808 0.294117 4.18714
1.18124 2.34577 7.66607
1.06303 -2.01167 7.91406
-0.139855 0.0643244 4.1201
-0.322776 0.823713 1.45893
1.1046 0.050568 8.85527
1.22027 1.58993 8.54659
1.71197 3.92618 7.33208
-0.0534703 0.748862 4.0345
0.440037 1.65521 0.121279
0.921552 -2.7125 5.33046
0.118145 1.95667 1.5023
-0.189751 0.52775 3.50718
2.29005 0.121593 12.4526
0.628826 -1.98178 6.40232
-0.297716 0.878081 1.92492
1.29402 2.44439 7.992
0.554263 2.7131 3.65834
-0.205917 1.12914 1.06019
1.4654 2.91837 8.05641
-0.340663 0.742194 1.27996
0.131246 -1.33846 1.0167
0.461508 2.60971 3.17607
-0.385251 -0.728552 0.988675
0.332241 0.739293 -0.173549
-0.208227 -1.19708 3.55985
1.68283 0.0205102 10.6682
1.00305 3.38632 4.6521
0.322695 -0.739141 0.353695
1.09931 -2.09125 7.93487
-0.472909 -0.530683 1.86795
0.525209 -2.03938 5.8912
-0.203346 -1.11441 3.67859
-0.168747 -1.60763 2.64359
-0.16064 0.603325 0.208234
0.339105 -0.0744355 -0.040291
0.22734 -1.78081 1.76537
0.620956 -2.49116 3.9398
0.265928 -0.00236089 -0.0691482
0.840709 -2.60623 4.03759
0.389534 1.0267 -0.142798
0.373626 2.44885 1.70376
-0.220048 -1.50588 2.56169
-0.0137402 -1.51383 1.44143
-0.125291 -0.396228 4.32019
0.0190527 1.34151 0.441117
1.29834 0.80398 9.27279
0.477227 2.52921 3.7353
0.0692109 -0.267654 0.0678502
0.217014 2.1031 1.32108
2.42792 -0.156624 12.8413
-0.249667 -0.997824 0.941902
-0.284444 -1.15507 3.09314
0.735039 0.633876 7.41604
0.0148172 1.21725 3.79764
0.366459 -2.29178 3.66138
2.07061 4.40684 7.97035
0.578009 2.8319 3.22383
0.124471 1.50075 3.96594
1.0231 -2.58932 3.73914
-0.113568 0.993305 3.36105
0.951064 -2.35675 2.99423
1.17896 0.158733 9.07816
1.54677 -0.603635 10.2287
0.22701 0.321761 -0.141879
0.811902 1.34379 -0.108965
-0.0120478 -0.923203 0.573629
-0.0733545 1.51808 2.27035
-0.439959 -0.823984 1.90074
0.695238 3.03526 3.35289
-0.319808 0.147864 3.0502
0.56177 -2.4249 4.85409
0.949254 -2.03113 7.50192
1.43727 2.06138 8.92666
1.23161 1.624 0.0345897
-0.461983 0.0298775 1.16762
1.0067 -2.09158 7.61931
0.940559 -1.80888 7.72707
0.237199 -2.06182 4.39015
1.2414 -0.337782 9.31587
-0.00408411 -0.749616 4.84352
0.655815 1.69392 6.28287
0.640019 -2.41095 3.34548
0.345654 2.05814 4.17257
0.104261 0.364403 -0.106024
1.13359 1.8941 7.96928
-0.178789 -1.56501 2.18206
0.268035 -1.14021 5.81535
0.180871 -1.62258 1.46662
0.658339 -1.75123 6.80169
-0.218197 0.99005 0.7847
1.72936 0.725777 10.6772
-0.333962 0.753667 1.1974
-0.232417 -1.38807 1.72685
2.43057 0.041288 12.8557
0.736325 -2.33509 2.96489
0.296051 0.315829 5.9115
0.564892 -2.4658 4.37977
0.104001 -1.66138 1.61247
-0.00773071 1.29785 3.51607
1.81253 0.826488 10.9029
0.55059 -2.01546 2.15421
0.76439 1.30299 -0.120751
0.0720656 1.38621 3.85607
-0.177525 0.545003 0.214498
-0.352395 0.281749 0.573708
-0.398462 -0.871555 1.29013
1.25837 -0.409567 9.36587
-0.339354 0.562314 2.36223
0.260256 1.40214 0.103792
1.73726 3.71172 7.90516
0.321511 1.4599 0.0847852
0.25179 2.19088 2.99293
-0.168427 0.0907011 3.96187
-0.293016 -1.31991 1.92504
-0.378503 0.523721 1.97527
1.91621 -0.456374 11.3447
-0.400374 -0.389385 2.73445
0.383076 -2.1218 2.55756
-0.110866 0.873913 3.55797
-0.0501143 0.943478 0.204569
-0.206525 0.128314 0.180761
0.719164 1.29941 6.92398
0.823943 0.746203 7.67882
1.31435 1.63186 8.84684
2.44833 0.0658272 12.9061
0.855359 -1.18234 7.88763
-0.161809 1.27035 2.23626
0.260962 1.73562 4.33214
0.882507 1.13959 7.65711
1.60839 -0.85993 10.3552
-0.173384 1.27845 1.37217
-0.228954 0.651315 0.399837
0.792391 -1.08148 7.72136
-0.0676812 -1.5314 1.57734
0.645494 2.91466 3.55944
-0.0306896 0.903734 0.145621
0.504711 2.05061 5.08558
0.172845 0.27539 -0.122928
0.549956 0.324244 -0.132593
0.482696 0.3158 6.63071
0.429472 -2.34868 4.15019
0.633776 -2.09843 2.33702
0.964979 -2.74041 5.40923
0.115937 1.59192 3.73551
0.239852 -1.74269 5.14169
-0.367498 0.567912 1.01651
0.210389 1.84527 0.689389
0.859992 1.29322 -0.111091
0.214352 1.71385 0.477507
0.892502 2.13992 6.74156
1.71615 4.03161 7.09576
2.63728 0.209622 13.4377
1.12425 3.43538 5.35122
1.04208 -2.66857 6.43588
1.18369 2.66459 7.25238
-0.0687718 -1.3148 1.13742
-0.350824 0.712418 1.36838
0.37815 -1.89972 5.50626
-0.446693 -0.422823 1.00944
1.00847 3.01752 5.79244
0.544963 -2.40285 3.53723
-0.265692 0.99516 1.90558
-0.430029 -0.670114 2.38745
-0.335004 -0.735302 3.13177
1.54856 3.82742 6.72794
0.365437 2.38628 1.4632
0.249688 2.10267 1.12896
-0.254914 -0.710993 3.62971
-0.100089 1.21446 3.03123
0.147045 1.70887 3.68499
0.7322 2.71683 4.94739
0.0727986 1.85344 2.51847
-0.389768 0.545227 1.59588
0.150011 -0.394077 0.115342
0.202354 1.00214 -0.0594258
0.23367 -0.641637 5.83773
-0.2704 -0.988641 3.38503
1.15721 -0.373835 9.04858
1.15803 -2.79831 4.67435
0.0358061 -0.917579 4.96555
0.220914 0.150485 -0.109443
0.141013 1.8161 3.36593
0.269137 0.989265 5.3444
-0.154615 -1.08376 3.97559
1.11022 -0.219796 8.89855
0.00630178 -1.55591 4.28617
-0.0308452 -0.940515 0.60299
1.0297 3.40165 4.80135
0.591369 -2.48718 4.21911
0.346194 -2.25668 3.37543
-0.0276584 -1.80098 2.42439
0.113344 0.593652 -0.102441
1.00649 1.90976 7.46821
0.708484 -2.12524 2.39583
0.650626 2.06983 5.76847
-0.0829049 1.46527 1.16175
0.262126 1.96007 0.750098
0.724022 1.2214 -0.138049
