ply
format ascii 1.0
comment Created by Open3D
element vertex 200
property double x
property double y
property double z
end_header
-0.289862 -0.169346 -3.16772
0.137346 -0.278599 -4.18714
2.49398 -0.823445 -7.66607
-0.670791 2.17414 -7.91406
-0.0534086 -0.144377 -4.1201
0.354216 -0.81069 -1.45893
0.816825 0.745311 -8.85527
1.98711 -0.261393 -8.54659
3.98677 -1.56568 -7.33208
0.491716 -0.567335 -4.0345
1.48156 -0.859254 -0.121279
-1.26639 2.56966 -5.33046
1.46712 -1.30003 -1.5023
0.239001 -0.50735 -3.50718
1.70529 1.53333 -12.4526
-0.956685 1.84598 -6.40232
0.41038 -0.831415 -1.92492
2.64346 -0.813435 -7.992
2.31038 -1.52653 -3.65834
0.65282 -0.944031 -1.06019
3.0998 -1.02741 -8.05641
0.283925 -0.765696 -1.27996
-0.85363 1.03924 -1.0167
2.17168 -1.51901 -3.17607
-0.787578 0.24275 -0.988675
0.757689 -0.287829 0.173549
-0.993698 0.699222 -3.55985
1.20444 1.17544 -10.6682
3.10376 -1.68523 -4.6521
-0.294471 0.750831 -0.353695
-0.701403 2.25607 -7.93487
-0.709647 0.0408524 -1.86795
-1.07068 1.81344 -5.8912
-0.931792 0.644218 -3.67859
-1.25609 1.01744 -2.64359
0.313026 -0.540205 -0.208234
0.18715 0.292417 0.040291
-1.09847 1.41998 -1.76537
-1.32243 2.2006 -3.9398
0.18637 0.189709 0.0691482
-1.24841 2.43735 -4.03759
1.00143 -0.450547 0.142798
1.99579 -1.4674 -1.70376
-1.22041 0.909219 -2.56169
-1.08016 1.06073 -1.44143
-0.36877 0.191581 -4.32019
0.962061 -0.935117 -0.441117
1.48656 0.349565 -9.27279
2.12587 -1.45097 -3.7353
-0.14032 0.238199 -0.0678502
1.64057 -1.33366 -1.32108
1.60605 1.82755 -12.8413
-0.882109 0.529027 -0.941902
-1.01789 0.615628 -3.09314
0.967969 0.071533 -7.41604
0.871203 -0.850248 -3.79764
-1.36141 1.87966 -3.66138
4.58025 -1.65197 -7.97035
2.41117 -1.59374 -3.22383
1.1492 -0.973174 -3.96594
-1.10748 2.55437 -3.73914
0.622069 -0.782677 -3.36105
-0.993972 2.33898 -2.99423
0.945889 0.721408 -9.07816
0.666895 1.52056 -10.2287
0.388039 -0.0669991 0.141879
1.5243 -0.3761 0.108965
-0.661322 0.644284 -0.573629
1.02158 -1.12531 -2.27035
-0.893742 0.271546 -1.90074
2.63786 -1.65464 -3.35289
-0.121582 -0.330694 -3.0502
-1.31743 2.11189 -4.85409
-0.765002 2.10745 -7.50192
2.47392 -0.441306 -8.92666
2.01922 -0.27746 -0.0345897
-0.305545 -0.347798 -1.16762
-0.767127 2.19081 -7.61931
-0.613994 1.94415 -7.72707
-1.29021 1.62566 -4.39015
0.638957 1.11665 -9.31587
-0.532946 0.52717 -4.84352
1.66152 -0.734053 -6.28287
-1.25224 2.15736 -3.34548
1.69974 -1.21091 -4.17257
0.331395 -0.183948 0.106024
2.1409 -0.537763 -7.96928
-1.23305 0.980204 -2.18206
-0.616723 0.995782 -5.81535
-1.01944 1.27523 -1.46662
-0.772794 1.70383 -6.80169
0.545783 -0.85436 -0.7847
1.73605 0.709643 -10.6772
0.296776 -0.76907 -1.1974
-1.14586 0.817169 -1.72685
1.74787 1.68948 -12.8557
-1.1305 2.17182 -2.96489
0.432664 -0.0139848 -5.9115
-1.34414 2.14302 -4.37977
-1.10123 1.24831 -1.61247
0.91225 -0.923183 -3.51607
1.86607 0.697237 -10.9029
-1.03582 1.81447 -2.15421
1.46186 -0.380849 0.120751
1.03115 -0.929238 -3.85607
0.259846 -0.510905 -0.214498
-0.0499539 -0.448408 -0.573708
-0.898037 0.334527 -1.29013
0.600197 1.17941 -9.36587
0.157657 -0.637576 -2.36223
1.17549 -0.807437 -0.103792
3.85301 -1.39616 -7.90516
1.25964 -0.804959 -0.0847852
1.72723 -1.37114 -2.99293
-0.0549606 -0.183231 -3.96187
-1.14051 0.726121 -1.92504
0.102684 -0.637969 -1.97527
1.03226 1.67767 -11.3447
-0.558444 -0.00777027 -2.73445
-1.22947 1.77122 -2.55756
0.539556 -0.696344 -3.55797
0.631703 -0.702576 -0.204569
-0.0553036 -0.236767 -0.180761
1.42735 -0.410295 -6.92398
1.11026 0.0549703 -7.67882
2.08329 -0.224515 -8.84684
1.77778 1.68469 -12.9061
-0.231208 1.44087 -7.88763
0.783856 -1.01269 -2.23626
1.4118 -1.04274 -4.33214
1.42984 -0.181786 -7.65711
0.529238 1.74536 -10.3552
0.781402 -1.0266 -1.37217
0.298655 -0.622444 -0.399837
-0.204415 1.32503 -7.72136
-1.13072 1.035 -1.57734
2.51741 -1.60454 -3.55944
0.617336 -0.660737 -0.145621
1.80689 -1.09312 -5.08558
0.31695 -0.0725105 0.122928
0.618153 0.159602 0.132593
0.564622 0.118013 -6.63071
-1.35708 1.96445 -4.15019
-1.03567 1.93196 -2.33702
-1.25542 2.62011 -5.40923
1.20764 -1.04368 -3.73551
-1.06267 1.40187 -5.14169
0.141714 -0.661435 -1.01651
1.45357 -1.15603 -0.689389
1.52255 -0.306337 0.111091
1.36344 -1.0603 -0.477507
2.14424 -0.882055 -6.74156
4.06428 -1.63727 -7.09576
2.01307 1.71662 -13.4377
3.22415 -1.63422 -5.35122
-1.1501 2.62383 -6.43588
2.72114 -1.04716 -7.25238
-0.97833 0.881072 -1.13742
0.255686 -0.751826 -1.36838
-1.07591 1.6107 -5.50626
-0.61484 -0.0168786 -1.00944
2.84681 -1.42061 -5.79244
-1.31372 2.08442 -3.53723
0.515812 -0.891557 -1.90558
-0.777919 0.169765 -2.38745
-0.75682 0.283053 -3.13177
3.80139 -1.6114 -6.72794
1.94576 -1.42895 -1.4632
1.66337 -1.31026 -1.12896
-0.683 0.322496 -3.62971
0.787979 -0.929526 -3.03123
1.31233 -1.10437 -3.68499
2.43884 -1.40335 -4.94739
1.36206 -1.25911 -2.51847
0.109926 -0.661141 -1.59588
-0.172581 0.384728 -0.115342
0.851708 -0.565536 0.0594258
-0.288476 0.618935 -5.83773
-0.890276 0.507873 -3.38503
0.553931 1.08261 -9.04858
-1.15985 2.79756 -4.67435
-0.623507 0.674145 -4.96555
0.262619 0.0498013 0.109443
1.38389 -1.18447 -3.36593
0.889824 -0.509208 -5.3444
-0.87566 0.657002 -3.97559
0.629623 0.940462 -8.89855
-1.09574 1.10465 -4.28617
-0.686855 0.643234 -0.60299
3.13344 -1.67722 -4.80135
-1.34054 2.17686 -4.21911
-1.35091 1.84051 -3.37543
-1.29304 1.25393 -2.42439
0.499922 -0.339629 0.102441
2.0621 -0.638708 -7.46821
-1.00179 2.00374 -2.39583
1.92365 -1.00353 -5.76847
0.977482 -1.09473 -1.16175
1.57133 -1.20063 -0.750098
1.37562 -0.3517 0.138049
