ply
format ascii 1.0
comment Created by Open3D
element vertex 400
property double x
property double y
property double z
end_header
0.221537 -1.45265 1.19603
1.77602 -2.84726 1.27073
0.300436 -1.5666 0.657326
1.70147 -1.54214 0.377963
0.540626 -1.82028 1.85799
0.338344 -1.65045 1.35364
0.97573 -1.20395 0.0906582
0.482798 -1.90588 0.96769
1.71541 -2.89405 1.34355
2.7273 -2.98318 1.49423
0.0877944 -1.17865 1.02665
0.691706 -1.77484 0.459973
1.76289 -2.09585 0.656181
1.53248 -2.66272 1.10403
1.27897 -2.32966 0.801244
0.109114 -1.00771 1.36474
0.130051 -1.30441 0.967902
2.42181 -2.55107 1.10507
0.274669 -1.01361 0.108173
2.05405 -2.08457 0.727189
0.588306 -1.99173 0.870597
0.789082 -2.17984 0.899518
1.35309 -2.36293 0.821092
0.619786 -1.67348 0.403454
0.303957 -1.09472 0.138989
0.568245 -2.04148 1.12232
1.72927 -1.53429 0.383549
1.145 -2.73436 1.83846
1.3132 -1.91878 0.479715
1.08254 -2.65266 1.99841
0.34977 -1.48733 1.67593
1.28423 -2.17768 0.664235
1.23145 -1.3539 0.187405
1.51333 -2.52824 0.961729
1.10877 -1.50965 0.235834
0.872209 -1.66311 0.320737
1.65657 -2.99075 1.51918
1.0124 -2.58134 1.89797
0.156695 -1.29378 0.537811
1.03655 -1.30395 0.136903
1.41925 -1.98738 0.532805
0.772217 -2.22689 1.93166
2.0703 -2.55644 1.02014
1.08263 -2.25005 0.774459
1.50618 -2.6814 1.13386
0.883155 -1.0818 0.0369463
0.837313 -2.3836 1.71025
1.07332 -1.91362 0.474737
1.31205 -2.84889 2.41026
0.933954 -1.88415 0.472043
2.75253 -2.8043 1.37319
0.965392 -1.35318 0.150989
1.91268 -2.11755 0.704618
2.47867 -2.9851 1.43782
2.33604 -2.51148 1.05479
0.640639 -2.10607 1.04079
0.445944 -1.80349 1.52053
0.407994 -1.53564 1.80422
0.505023 -1.45507 0.279498
0.748098 -1.43866 0.197799
2.37343 -2.33227 0.960788
0.658727 -2.09957 1.76463
1.08056 -1.52089 0.238564
0.312994 -1.41822 1.63623
0.803358 -2.26553 1.96426
2.13558 -2.47933 0.980757
1.04225 -2.58556 2.07395
0.392692 -1.74477 0.802149
1.49373 -2.26035 0.727641
0.915166 -2.4779 1.75825
0.880949 -2.44518 1.63577
0.894921 -1.16084 0.0666307
0.247346 -1.54893 0.955033
2.75333 -2.89053 1.43312
1.60139 -2.61884 1.04348
0.476144 -1.82831 1.60204
0.103648 -1.25825 0.771185
0.019007 -1.03756 0.85055
0.934272 -2.39967 1.12825
0.808195 -2.3152 1.84064
1.06246 -2.63244 1.56904
1.20897 -2.7854 2.11668
1.19541 -2.69896 1.4137
0.740899 -2.25934 1.24
1.74742 -2.77504 1.19277
0.36276 -1.28443 0.232511
0.291243 -1.60934 0.828757
1.12897 -2.5597 1.19017
0.229393 -1.42209 0.565495
0.336689 -1.6053 1.4485
1.41051 -2.92594 1.66048
1.17306 -2.30775 0.805437
1.20653 -1.42067 0.209693
1.62396 -2.37725 0.825215
1.09971 -2.67143 1.60145
0.200931 -1.40474 0.62224
1.36824 -2.62882 1.11898
0.198959 -1.34531 1.3033
0.963893 -2.36279 2.33049
1.28136 -2.58384 1.10183
1.05891 -2.5932 1.40172
1.0639 -2.5387 1.23558
1.49086 -1.71663 0.397033
0.254961 -1.56 1.02813
0.0550129 -1.13565 0.6585
0.86383 -2.39373 1.29111
1.55694 -2.67518 1.11278
0.621915 -2.09835 1.5688
0.707107 -2.23599 1.4003
1.58132 -1.783 0.449105
0.353023 -1.23215 0.200246
1.52193 -2.58937 1.02395
2.14928 -2.38257 0.922279
1.24116 -1.60051 0.296087
0.794427 -2.31761 1.74918
0.378592 -1.72574 1.37157
1.41592 -2.3681 0.818851
1.99633 -2.30196 0.833417
1.68821 -1.38454 0.317696
0.824105 -2.21522 2.14549
0.849157 -1.4914 0.218489
0.0530613 -1.01109 1.13288
1.41566 -2.13486 0.631036
1.47106 -2.97158 2.67379
1.34129 -2.92687 1.94618
1.31147 -1.07554 0.113052
0.904234 -1.80972 0.419696
0.182158 -1.15449 1.47984
1.39583 -2.92997 1.70843
0.0948159 -1.00739 1.31257
1.38372 -2.96154 1.92234
1.23985 -2.81389 2.16566
0.287708 -1.61273 0.879457
0.779267 -1.25991 0.104192
0.128891 -1.2662 0.585145
0.721843 -1.89978 0.570409
0.365602 -1.40138 0.329639
1.46712 -2.47611 0.915618
0.165109 -1.11097 0.280721
2.31969 -2.38352 0.972413
2.00653 -1.84825 0.600037
0.0816425 -1.0305 0.341589
0.980319 -1.03151 0.0319047
0.804652 -2.32008 1.80246
1.47897 -2.7623 1.25441
2.12521 -2.07359 0.743989
1.946 -2.51248 0.965554
1.62164 -1.43231 0.313567
1.43283 -2.61478 1.07499
0.886231 -2.39099 1.97833
0.167422 -1.00637 1.55802
0.149687 -1.1961 0.400668
0.241831 -1.04968 0.153272
0.54648 -2.02022 1.18258
0.938104 -1.389 0.165788
2.6415 -2.73302 1.29031
1.67443 -1.47249 0.343923
0.012141 -1.00676 0.885248
1.62258 -1.36663 0.291187
0.0486207 -1.09234 0.553467
0.303497 -1.38365 0.37722
1.64468 -1.75979 0.453517
1.64116 -1.40107 0.30856
0.811108 -2.32217 1.83115
0.8196 -1.97236 0.592322
0.321486 -1.5005 1.56109
1.39312 -1.30067 0.204319
1.47559 -2.98534 2.64905
0.291844 -1.58687 0.741295
1.68561 -1.69701 0.436264
0.0961524 -1.21694 0.625846
0.332376 -1.56252 1.50783
0.502201 -1.4466 0.274372
0.191852 -1.32234 0.488667
0.610629 -2.10069 1.46146
0.424222 -1.84148 1.06541
0.665918 -2.16384 1.16714
1.22136 -2.70395 1.38178
0.655721 -1.58486 0.314613
1.30626 -2.15352 0.643757
0.516937 -1.90702 0.844894
1.16195 -1.941 0.489657
0.948584 -1.74314 0.365829
1.14972 -2.50688 1.07601
0.739881 -2.27669 1.47943
1.30349 -2.53143 1.01926
2.56689 -2.93894 1.41885
2.55716 -2.65627 1.21369
0.336286 -1.13456 0.144759
2.61728 -2.69025 1.25458
0.183911 -1.42773 0.922301
0.131027 -1.07466 0.296702
1.00891 -1.04919 0.0417334
0.816807 -2.32156 1.86372
1.06852 -2.65123 1.86346
0.902035 -2.46843 1.54006
0.661159 -2.01929 1.94382
0.603643 -1.94792 0.753832
2.14497 -2.61278 1.07624
0.235742 -1.08605 0.183233
0.138232 -1.18331 0.408446
0.745467 -2.2284 1.09814
0.918107 -2.48862 1.63859
1.38366 -1.96793 0.516846
0.846591 -2.406 1.54446
0.892093 -2.25412 2.29396
1.15989 -2.71624 2.16979
1.21928 -1.7794 0.388371
0.497167 -1.6293 0.443427
0.568203 -1.9008 1.82359
1.34215 -1.55266 0.291187
1.16306 -2.73499 2.09277
1.57703 -2.58385 1.01041
2.27319 -2.358 0.943273
0.701075 -1.17344 0.0686106
0.446481 -1.67025 1.76019
1.4977 -2.17017 0.661661
1.40839 -2.91328 2.60531
1.53388 -2.92403 1.49032
0.179775 -1.27377 0.44279
1.19872 -2.74363 1.54981
1.02036 -2.3151 0.887136
1.78871 -1.51294 0.394693
0.624326 -2.12396 1.43273
1.14623 -2.21391 0.716971
0.686983 -1.71202 0.40537
0.455179 -1.71563 1.7242
0.584933 -1.89686 1.8882
1.44501 -2.33707 0.789704
1.13692 -1.81764 0.407442
0.760953 -2.28546 1.26646
0.7007 -2.22127 1.28593
1.76703 -1.60629 0.422836
0.315886 -1.51444 1.51968
0.682478 -2.19527 1.24558
0.808499 -2.19187 2.13581
1.28483 -2.8018 2.44909
0.107176 -1.23125 0.601812
0.891662 -1.4252 0.182292
0.755742 -1.69813 0.36935
0.684423 -2.13823 1.00445
1.71827 -2.54412 0.968072
1.45351 -2.99613 2.51094
0.438272 -1.86491 1.1711
1.68843 -2.91154 1.37718
0.56268 -2.01324 1.01497
0.635434 -1.8021 0.521873
1.37851 -2.10198 0.6058
0.0755473 -1.1542 1.00084
0.857056 -2.40472 1.3831
0.0846973 -1.08369 0.401467
1.24039 -2.67959 2.5942
0.853704 -1.58089 0.270454
0.982391 -2.19614 0.758308
1.11257 -2.69536 1.9395
1.4769 -1.69822 0.38531
0.891237 -2.37061 2.05757
2.00553 -1.94662 0.644351
2.34738 -2.55295 1.08456
0.281188 -1.552 0.686686
0.196059 -1.24913 1.42696
1.19839 -2.69637 1.40116
0.0894419 -1.10723 1.17072
0.883 -1.85266 0.458142
1.94137 -2.59903 1.03183
1.21027 -2.79599 2.03736
0.544592 -2.01786 1.31839
1.27994 -2.84496 1.71625
0.737279 -2.27367 1.46758
0.83831 -2.23639 2.154
1.10701 -1.18475 0.102608
0.367858 -1.41276 0.338414
1.03465 -2.09573 0.632528
1.36833 -2.94699 2.24233
1.82908 -1.89851 0.568634
1.33395 -2.84998 2.50123
0.299608 -1.00426 0.0884803
1.24743 -2.72249 2.52223
2.04446 -2.75432 1.17377
0.750912 -1.34074 0.144582
0.829719 -2.22954 0.935672
0.264027 -1.50798 1.30246
1.01548 -2.57659 1.95235
0.483003 -1.9229 1.05835
1.68214 -2.72145 1.14239
0.0521138 -1.1333 0.83143
0.167556 -1.24342 0.42647
0.405604 -1.37524 0.275114
1.00845 -2.58874 1.67654
2.00727 -2.93866 1.35072
1.2378 -2.8147 2.14427
2.10221 -2.96329 1.37566
0.604371 -1.98675 1.79708
0.599895 -1.83549 0.591297
1.69889 -2.88226 1.33292
0.258631 -1.42646 1.42848
1.50194 -2.58135 1.0189
1.3376 -2.92296 1.93759
0.880164 -1.33501 0.138706
0.0396545 -1.069 0.948669
1.37486 -2.57876 1.05061
0.273834 -1.45 0.508438
1.77601 -2.29302 0.781834
0.0330855 -1.04591 0.524284
1.71634 -2.49372 0.925044
0.856632 -2.15134 0.783488
0.0864014 -1.03863 1.24631
0.381986 -1.46774 0.379667
1.44183 -2.18186 0.66642
0.165534 -1.38847 0.807205
2.01624 -2.38796 0.892609
0.682224 -2.04164 1.97709
0.60068 -2.08474 1.14684
0.787052 -1.14016 0.0532734
0.392034 -1.78311 1.23734
0.426392 -1.81177 0.879012
1.09579 -2.51787 2.45829
1.69825 -1.84751 0.508855
1.89597 -1.89078 0.584388
1.35726 -2.80728 2.69563
0.263899 -1.24118 1.66104
0.117118 -1.21613 1.12715
1.65866 -2.4853 0.915576
0.581192 -1.10526 0.0501268
0.818335 -1.45367 0.199531
0.476993 -1.87513 0.882307
2.01252 -2.70149 1.12488
1.97827 -2.98487 1.4045
2.39735 -2.4576 1.04028
0.505299 -1.78727 0.63617
0.472736 -1.91623 1.14616
1.30558 -2.88473 2.19132
1.64171 -1.88227 0.512518
1.19927 -2.78294 2.04669
1.52565 -1.53528 0.325757
1.24256 -2.82302 1.77714
0.77769 -2.09154 0.768993
1.30965 -2.60396 1.11457
1.21655 -2.52039 1.04916
2.8716 -2.93838 1.50384
1.17699 -1.65037 0.313369
1.11039 -1.30783 0.148528
0.19613 -1.43174 1.07583
0.453475 -1.78259 1.60081
0.322893 -1.67665 1.11777
1.01176 -1.62087 0.287757
1.2724 -1.96086 0.504245
0.760097 -2.2686 1.19043
1.01999 -2.37771 0.979958
0.551501 -2.02766 1.19402
0.710218 -2.16219 1.00347
2.36313 -2.78852 1.25474
0.618711 -2.12071 1.29018
0.0722663 -1.12577 0.51343
0.587012 -2.03685 1.58731
0.127887 -1.25991 0.574157
1.5173 -1.36875 0.261028
0.365419 -1.51905 1.68881
1.78821 -2.31288 0.797341
0.463113 -1.29235 0.1829
0.729706 -1.33403 0.142949
1.06484 -1.40984 0.185128
0.457236 -1.84409 0.859524
1.88769 -2.00288 0.636884
1.57645 -1.46558 0.312534
0.421839 -1.66033 0.56787
1.85944 -1.95557 0.605128
0.304961 -1.47784 1.53223
1.69629 -1.98354 0.578399
0.919946 -2.34126 1.02601
0.347295 -1.01792 0.0724572
0.210152 -1.3496 1.34588
0.945062 -2.4647 1.28382
0.665769 -1.99962 1.99243
0.149454 -1.0149 1.49508
1.8903 -2.96084 1.38775
0.929053 -2.31771 0.971423
0.766829 -2.2327 1.89399
1.09097 -1.88264 0.451389
0.280559 -1.56223 1.25828
1.38542 -2.49245 0.946929
0.184993 -1.40696 1.07509
0.114261 -1.16444 0.440294
1.67003 -2.84985 1.29884
0.499267 -1.92407 0.959141
1.93829 -2.25425 0.79027
1.40524 -2.58732 1.05051
0.0997869 -1.2311 0.963207
1.7588 -2.35582 0.822832
0.243994 -1.50852 0.722394
0.480628 -1.80612 1.66564
2.08851 -2.66038 1.10198
1.31515 -1.81067 0.415857
1.44592 -2.8418 1.41021
0.0110167 -1.02607 0.649251
1.09462 -1.76689 0.375156
0.327638 -1.6848 0.948577
1.01677 -2.55205 1.37837
2.07084 -2.51902 0.993436
1.49784 -1.71265 0.396644
