ply
format ascii 1.0
comment Created by Open3D
element vertex 400
property double x
property double y
property double z
end_header
-1.00237 0.539933 1.51442
-2.15438 2.26596 1.76067
-0.67724 0.929308 1.2862
-1.47038 1.75221 0.428705
-1.69608 0.628448 1.94582
-1.19641 0.659398 1.67469
-0.75405 1.29386 0.408786
-1.02565 1.10521 1.59011
-2.16301 2.23233 1.86048
-2.98507 2.72596 1.49289
-0.78803 0.364004 1.30286
-0.81436 1.37087 1.13913
-1.71054 2.03534 0.928636
-1.8643 2.09705 1.6686
-1.47093 1.88618 1.40846
-1.04217 0.0847467 1.34037
-0.77637 0.503432 1.34128
-2.49388 2.46224 1.14551
-0.27071 0.799978 0.633483
-1.96663 2.13744 0.810585
-1.0316 1.26722 1.54951
-1.19402 1.48616 1.5966
-1.53738 1.93684 1.40484
-0.72354 1.2915 1.07516
-0.31321 0.856568 0.6916
-1.19541 1.16651 1.72058
-1.49399 1.75777 0.412045
-2.10963 1.58675 2.28021
-1.26778 1.77352 0.940042
-2.17856 1.41778 2.33365
-1.43239 0.388619 1.71478
-1.37777 1.84985 1.22986
-1.00328 1.47937 0.43533
-1.75013 2.06354 1.51194
-0.95078 1.50395 0.631015
-0.84354 1.45173 0.90026
-2.24559 2.18348 2.04608
-2.05794 1.3825 2.26807
-0.49109 0.724282 1.1054
-0.82976 1.37186 0.472206
-1.38031 1.84851 0.962068
-1.91193 0.994928 2.15437
-2.18527 2.33275 1.2826
-1.31316 1.74511 1.43694
-1.86679 2.0822 1.70988
-0.65061 1.18805 0.341844
-1.8014 1.24899 2.12193
-1.09464 1.65242 1.05384
-2.63207 1.46537 2.56357
-0.99419 1.56325 1.10134
-2.91732 2.67261 1.29327
-0.7894 1.36404 0.549641
-1.85071 2.10137 0.893302
-2.76938 2.63121 1.59036
-2.39768 2.41651 1.13526
-1.18895 1.28914 1.68929
-1.39051 0.737965 1.81256
-1.56427 0.387749 1.78397
-0.55474 1.14165 0.916128
-0.66885 1.29244 0.742137
-2.35765 2.35549 0.942842
-1.71357 0.93167 2.03757
-0.93276 1.49643 0.654434
-1.37831 0.341214 1.66445
-1.957 1.02152 2.18242
-2.20358 2.33056 1.17574
-2.20349 1.31242 2.34412
-0.84488 1.02901 1.43847
-1.57075 1.98136 1.21526
-1.89039 1.3306 2.17368
-1.77959 1.35159 2.10641
-0.67992 1.23498 0.406692
-0.85021 0.741416 1.4491
-2.96027 2.70402 1.38381
-1.87021 2.13075 1.57285
-1.4695 0.729861 1.85576
-0.6186 0.555949 1.22349
-0.61487 0.317894 1.14944
-1.45842 1.59984 1.79381
-1.87301 1.12087 2.15332
-1.86075 1.60812 2.11471
-2.35159 1.51572 2.42343
-1.84492 1.79931 2.01759
-1.40071 1.34804 1.84715
-2.07903 2.23958 1.68492
-0.42092 0.973354 0.843105
-0.79196 0.869218 1.40673
-1.63988 1.77938 1.84058
-0.56207 0.837518 1.17362
-1.26232 0.579212 1.69102
-2.17152 1.94396 2.19394
-1.39901 1.81564 1.44801
-1.00142 1.50298 0.506147
-1.73183 2.08034 1.2816
-1.91001 1.63812 2.13985
-0.58207 0.782647 1.20396
-1.75873 1.98348 1.73423
-1.06226 0.399105 1.50345
-2.32948 0.987446 2.35404
-1.68517 1.91681 1.73729
-1.73993 1.66227 2.00507
-1.62598 1.70929 1.88097
-1.33494 1.76075 0.666929
-0.90728 0.716504 1.48967
-0.50453 0.501282 1.10477
-1.52377 1.47898 1.90626
-1.88778 2.11372 1.66956
-1.54907 1.01031 1.9572
-1.49016 1.23449 1.92768
-1.43573 1.82688 0.694662
-0.39122 0.94765 0.794873
-1.80021 2.07995 1.58197
-2.17192 2.29823 1.07123
-1.087 1.60427 0.659193
-1.7986 1.16142 2.11617
-1.23755 0.723795 1.71677
-1.58022 1.97303 1.37597
-2.00093 2.20919 1.04628
-1.41839 1.66427 0.29376
-2.09982 0.905705 2.22709
-0.75494 1.36991 0.739245
-0.83859 0.175037 1.25486
-1.44723 1.90188 1.11726
-2.93085 1.49986 2.70259
-2.32459 1.76717 2.37205
-1.00729 1.35973 0.161312
-0.93616 1.52193 1.0374
-1.17521 0.167507 1.46519
-2.19504 1.9155 2.2281
-0.99517 0.103457 1.32121
-2.33774 1.82482 2.36343
-2.40806 1.52681 2.45263
-0.82531 0.844498 1.43625
-0.6247 1.22843 0.553353
-0.5049 0.667212 1.12347
-0.91376 1.41906 1.26763
-0.49161 1.00891 0.972944
-1.68485 2.02662 1.47512
-0.31525 0.727768 0.84338
-2.32787 2.35904 1.01176
-1.84312 2.01016 0.603664
-0.29927 0.5987 0.858647
-0.71575 1.20359 0.255181
-1.84351 1.14164 2.13945
-1.93279 2.06552 1.84096
-2.02883 2.15686 0.77564
-2.05878 2.26681 1.28637
-1.3684 1.66683 0.358758
-1.7733 2.02785 1.67001
-2.02555 1.14464 2.23673
-1.22007 0.016313 1.40691
-0.38916 0.72028 0.971261
-0.27938 0.786515 0.697957
-1.22263 1.11046 1.74656
-0.78057 1.36833 0.596013
-2.78021 2.60814 1.25694
-1.42719 1.70646 0.375955
-0.63455 0.275333 1.14844
-1.35324 1.63205 0.300655
-0.42574 0.519978 1.02482
-0.48134 0.941527 1.01525
-1.48365 1.83994 0.648778
-1.37866 1.65701 0.324406
-1.86836 1.132 2.15204
-0.99838 1.50831 1.28103
-1.33118 0.441213 1.68081
-1.12956 1.51411 0.325312
-2.91656 1.52423 2.69768
-0.73054 0.897361 1.34681
-1.50039 1.82464 0.575295
-0.51053 0.59566 1.12535
-1.30122 0.517143 1.69259
-0.54912 1.13682 0.908986
-0.4812 0.786628 1.08344
-1.46519 1.06 1.91083
-1.05333 0.981528 1.62272
-1.29617 1.27945 1.78068
-1.8407 1.83177 1.99219
-0.68613 1.29122 0.950111
-1.37887 1.85402 1.19152
-0.96296 1.18449 1.51244
-1.16786 1.70864 1.03635
-0.92943 1.52396 0.941209
-1.57383 1.80949 1.73578
-1.56929 1.24009 1.97964
-1.64243 1.93211 1.64788
-2.81834 2.65217 1.50412
-2.66639 2.55 1.20653
-0.34015 0.898019 0.706492
-2.73782 2.58364 1.22095
-0.78221 0.640363 1.37875
-0.30245 0.677062 0.842737
-0.74292 1.22548 0.258299
-1.89542 1.11813 2.16505
-2.07322 1.47723 2.27217
-1.72682 1.42643 2.06445
-1.842 0.786522 2.06919
-0.95988 1.30229 1.45248
-2.27774 2.38188 1.31315
-0.29626 0.794208 0.741698
-0.38656 0.70162 0.971833
-1.30363 1.39938 1.75206
-1.80786 1.39948 2.11996
-1.34386 1.82494 0.95813
-1.69073 1.35236 2.05023
-2.25288 0.89297 2.29484
-2.35444 1.41572 2.42562
-1.13678 1.67368 0.842772
-0.6651 1.17896 1.12522
-1.69125 0.716377 1.97176
-1.15494 1.62338 0.572417
-2.30222 1.46908 2.39878
-1.8296 2.11037 1.54375
-2.27438 2.33231 1.0024
-0.54425 1.14598 0.513515
-1.56035 0.524192 1.8379
-1.5269 1.95256 1.11652
-2.83811 1.46154 2.65846
-2.13843 2.08938 2.04582
-0.44022 0.769184 1.0322
-1.9435 1.76449 2.11559
-1.3488 1.70363 1.57041
-1.5439 1.76682 0.372801
-1.45456 1.09766 1.90607
-1.31748 1.7801 1.35084
-0.77241 1.35139 1.06977
-1.54105 0.578625 1.84764
-1.74877 0.689648 1.99292
-1.58018 1.98021 1.32491
-1.09203 1.65001 0.920526
-1.4336 1.36331 1.86882
-1.40476 1.27806 1.86329
-1.54847 1.80792 0.463721
-1.29794 0.468974 1.67277
-1.36334 1.27074 1.83384
-2.08194 0.886231 2.21354
-2.64028 1.39904 2.5633
-0.50133 0.623308 1.11794
-0.7594 1.36245 0.653084
-0.79556 1.39395 1.00756
-1.19421 1.35195 1.67197
-1.89953 2.17406 1.42387
-2.80329 1.58987 2.6473
-1.138 0.952275 1.68511
-2.16771 2.2144 1.90314
-1.11557 1.19743 1.64972
-0.81834 1.33106 1.2175
-1.40312 1.87268 1.09997
-0.76112 0.353497 1.27879
-1.58403 1.43737 1.96342
-0.34377 0.6079 0.924669
-2.71146 1.21785 2.57166
-0.7949 1.40948 0.826233
-1.23086 1.66495 1.44086
-2.15814 1.49244 2.31937
-1.31678 1.74662 0.655028
-2.08512 1.09311 2.25944
-1.87375 2.05706 0.695878
-2.42675 2.43662 1.1738
-0.68439 0.894681 1.30018
-1.14765 0.267817 1.49872
-1.83816 1.80524 2.00801
-0.89107 0.24229 1.32357
-0.94833 1.52246 1.0976
-2.10237 2.29256 1.38302
-2.29642 1.56352 2.39061
-1.31733 1.03994 1.81374
-2.11863 1.79353 2.22985
-1.55907 1.24258 1.97288
-2.11588 0.923524 2.23921
-0.85533 1.33995 0.335543
-0.49941 1.01369 0.98425
-1.17887 1.68296 1.28085
-2.55312 1.64684 2.52084
-1.69544 1.97267 0.712226
-2.71188 1.4316 2.59888
-0.27442 0.815683 0.604555
-2.66555 1.28769 2.56249
-2.27563 2.38294 1.51225
-0.63321 1.25121 0.644881
-1.24832 1.52355 1.6295
-1.10767 0.547089 1.58552
-2.09857 1.35349 2.29036
-1.0899 1.07202 1.64737
-1.99724 2.19423 1.65448
-0.62476 0.411706 1.19102
-0.42004 0.749774 1.00869
-0.48134 1.03769 0.907197
-1.89857 1.49647 2.16456
-2.37446 2.40622 1.74967
-2.39148 1.53706 2.44353
-2.45922 2.45864 1.73209
-1.69808 0.808492 2.0012
-0.8423 1.30219 1.29359
-2.14382 2.22105 1.85508
-1.19297 0.423734 1.59359
-1.7825 2.06681 1.58377
-2.31591 1.76685 2.36684
-0.72045 1.31472 0.573266
-0.69885 0.30139 1.2104
-1.71506 1.98558 1.66133
-0.55315 0.908003 1.14261
-1.80867 2.1185 1.12432
-0.39412 0.493971 0.985169
-1.86774 2.15897 1.36768
-1.15974 1.5578 1.48466
-0.94237 0.154467 1.31438
-0.53857 1.03901 1.03669
-1.49076 1.93051 1.1551
-0.68783 0.660961 1.30263
-2.05687 2.25036 1.12673
-1.88042 0.796223 2.09109
-1.23568 1.20106 1.74721
-0.5942 1.1731 0.439325
-1.15214 0.838197 1.6835
-0.92306 1.05481 1.50742
-2.51311 1.09916 2.46165
-1.56066 1.90108 0.711689
-1.75388 1.99278 0.681191
-2.86582 1.31586 2.65423
-1.36114 0.179075 1.57622
-0.87983 0.354918 1.36495
-1.82026 2.12891 1.38583
-0.44641 1.04707 0.516004
-0.71974 1.3373 0.718498
-0.96117 1.12326 1.52857
-2.21848 2.35406 1.46642
-2.39198 2.39751 1.82373
-2.43077 2.41632 1.05925
-0.80714 1.19836 1.32923
-1.14473 1.01827 1.69169
-2.47268 1.59694 2.48268
-1.52327 1.89556 0.766369
-2.29524 1.54413 2.39154
-1.30914 1.68555 0.485662
-2.13525 1.72888 2.26347
-1.09367 1.48329 1.47459
-1.71418 1.93882 1.74374
-1.6021 1.86588 1.69849
-3.0939 2.76163 1.39387
-1.05384 1.5988 0.735179
-0.89019 1.40571 0.443844
-0.89941 0.572544 1.45224
-1.4526 0.686813 1.83415
-1.0187 0.788134 1.58301
-0.9189 1.50813 0.784125
-1.25628 1.77062 1.00246
-1.37923 1.38898 1.81931
-1.41418 1.70131 1.66128
-1.23427 1.11251 1.75503
-1.21176 1.38227 1.67552
-2.55822 2.52598 1.41759
-1.34979 1.16383 1.8353
-0.41415 0.575458 1.01662
-1.53748 0.94012 1.94042
-0.49642 0.667756 1.11403
-1.25747 1.59599 0.339715
-1.45256 0.412434 1.73583
-1.82826 2.13089 1.14002
-0.4568 1.05394 0.773723
-0.61706 1.23668 0.649923
-0.88386 1.43676 0.557052
-0.93109 1.10282 1.50511
-1.78514 2.04165 0.790849
-1.33571 1.66828 0.404366
-0.69983 1.10101 1.24705
-1.74271 2.00995 0.755643
-1.29909 0.431356 1.65863
-1.60845 1.96152 0.843628
-1.376 1.60249 1.70855
-0.29681 0.857197 0.582359
-1.10028 0.386448 1.52217
-1.57606 1.57343 1.91219
-1.87963 0.750615 2.07727
-1.16286 0.0448306 1.39045
-2.31793 2.34491 1.84235
-1.34384 1.61768 1.66005
-1.88148 1.01518 2.14234
-1.09061 1.65102 1.01144
-1.08812 0.615805 1.59352
-1.64922 1.98167 1.54318
-0.89101 0.549825 1.43992
-0.39213 0.660367 0.9864
-2.09931 2.20074 1.82955
-1.03125 1.13059 1.59046
-1.92938 2.168 1.01999
-1.73648 2.00688 1.65215
-0.75165 0.438809 1.30223
-1.82549 2.1338 1.19783
-0.68334 0.827485 1.30588
-1.51764 0.684614 1.86963
-2.25602 2.37444 1.38791
-1.22401 1.72999 0.830688
-2.01959 2.02731 1.9916
-0.46688 0.406424 1.04466
-1.03929 1.60911 0.889646
-0.90242 0.880864 1.5018
-1.69362 1.62377 1.98537
-2.16677 2.31992 1.24251
-1.3396 1.76162 0.660431
