ply
format ascii 1.0
comment Created by Open3D
element vertex 400
property double x
property double y
property double z
end_header
2.24723 0.743554 -0.328094
3.73859 0.667068 -0.700788
2.11759 0.70213 0.13568
3.6552 -0.551325 0.683325
2.23623 0.743598 -0.320598
1.60677 -0.791008 0.596958
1.33586 0.436193 0.472877
2.45236 0.416461 0.560739
2.50058 0.483276 0.499724
3.15884 0.0179857 0.678904
3.72863 0.641977 -0.150717
3.31733 0.322832 0.513228
3.67256 0.60368 0.0192702
0.984816 0.424133 0.368527
1.87856 0.72313 -0.3039
1.23774 0.364777 0.506453
1.67711 -0.222972 0.707962
1.50844 0.477807 0.469293
3.65333 0.58901 0.0671797
4.07663 0.634779 -0.563979
3.01532 0.734765 -0.315035
1.67629 -0.0683807 0.706651
3.18601 0.443982 0.435978
1.74673 0.645639 -0.685349
1.87286 0.71051 -0.42045
2.726 0.712885 0.0340346
3.6329 0.564807 0.130983
1.86683 0.7234 -0.28574
2.46952 -0.162619 0.747809
1.79981 0.450767 0.532013
3.79637 -0.399808 0.665448
3.3523 0.334067 0.497903
1.20706 0.366668 0.497172
3.28554 -0.63587 0.70496
1.59225 0.474536 0.486684
3.14711 0.41192 0.4744
3.23421 0.700253 -0.696283
3.27384 0.0214098 0.664
2.92136 0.470419 0.459161
1.94481 0.48884 0.50697
3.33642 -0.383166 0.713316
1.56716 0.688214 -0.000253723
2.46567 -0.645646 0.711816
2.14912 0.735396 -0.0421956
2.3965 -0.487608 0.733608
1.2237 -0.30519 0.63092
2.62855 0.694908 0.124302
2.51891 0.741843 -0.432973
3.85207 -0.450804 0.660994
3.18782 0.714617 -0.192077
1.1148 0.263676 0.534554
2.96279 0.72399 -0.57553
1.09461 0.605592 -0.0130418
1.61831 0.697686 -0.033816
3.8238 0.631343 -0.171733
2.97 0.232362 0.622148
3.32621 -0.0927391 0.685149
2.64988 0.451125 0.515005
2.30418 0.743134 -0.094434
1.55792 0.695004 -0.139254
3.83294 -0.432326 0.662586
3.15083 0.549327 0.314213
3.60355 0.489838 0.270692
1.00624 0.140626 0.552714
1.19869 0.467425 0.401565
1.86997 -0.7756 0.63761
0.968298 0.380675 0.406625
1.70459 0.4897 0.48683
3.72937 0.629627 -0.098297
3.16813 0.546508 0.314082
3.9818 -0.408841 0.640901
1.48358 0.344448 0.569252
3.36477 0.447025 0.391955
2.9664 -0.132121 0.725501
1.68675 0.699807 0.0155535
1.63065 0.3851 0.56421
2.82778 0.418783 0.520917
2.85349 0.74181 -0.26593
3.44624 -0.449891 0.704291
1.10263 -0.146606 0.613986
1.63477 0.649341 -0.605221
1.00304 0.571025 0.0625448
1.84475 0.533037 0.453573
1.19569 0.628398 -0.271678
2.33445 -0.502528 0.729578
1.24681 0.506017 0.368583
3.19128 -0.339577 0.723827
2.87556 -0.403443 0.739793
3.07325 0.26036 0.59393
1.93126 0.397652 0.580368
1.78107 0.718224 -0.0937041
2.65188 0.00843164 0.722298
1.96192 0.655734 -0.745384
1.53811 0.151227 0.656483
3.04182 0.387656 0.513874
2.56811 0.460644 0.514836
1.36286 0.529565 0.372445
1.87431 0.30984 0.62876
1.65614 0.643977 -0.641557
3.60765 0.500509 0.253701
3.15244 -0.669248 0.706938
2.14278 -0.571486 0.708716
2.92464 0.732638 -0.495508
2.07628 -0.410174 0.727844
3.30814 0.55771 0.25784
2.74307 -0.164689 0.741299
2.39661 -0.0654277 0.740448
1.61138 0.69762 -0.26727
3.3229 0.309135 0.521875
4.33551 -0.747847 0.597537
2.5538 0.747978 -0.186238
3.74531 0.656501 -0.245711
2.08094 0.229797 0.671243
2.0975 0.713638 -0.523898
1.2701 0.580137 0.244813
1.41013 0.583296 0.296224
2.59165 0.608582 0.329798
2.30676 0.720958 0.0614116
2.56999 0.310131 0.621399
2.81634 0.313131 0.596809
1.16943 0.564776 0.227344
3.70883 0.527747 0.172653
1.48201 0.684114 -0.180734
2.61798 0.727177 -0.570817
2.90033 0.534415 0.389345
3.51381 0.610159 0.0758409
2.27103 0.124797 0.706123
2.54098 0.746303 -0.374673
2.28564 -0.0154123 0.734262
2.30447 0.607689 0.357981
3.54732 0.642558 -0.0387678
1.47046 -0.219089 0.681029
3.01292 0.710478 -0.0577083
2.66635 0.131784 0.690286
2.20882 0.40052 0.58226
2.74838 0.733318 -0.522688
2.44495 -0.598716 0.719176
2.59582 0.406854 0.556746
2.21853 -0.536226 0.719256
1.11943 0.365392 0.473098
3.35717 -0.130233 0.688483
1.48448 0.669706 -0.368356
3.80281 0.637476 -0.185286
3.98996 0.643759 -0.471659
1.77639 0.695716 -0.455016
2.64529 -0.505901 0.735411
2.88925 0.464462 0.470388
3.9457 -0.443003 0.648303
3.0627 0.180221 0.634509
1.94592 0.732906 -0.198226
2.57907 -0.290084 0.749264
2.94582 0.694647 0.0408133
1.98839 0.650883 0.273627
3.31547 0.684352 -0.0824916
0.977702 0.544744 0.139756
2.24676 0.343876 0.617484
3.32832 0.309939 0.520261
2.61244 0.149507 0.687883
1.82787 -0.751981 0.638841
2.74368 -0.120113 0.737183
2.15455 -0.112787 0.741397
2.4669 0.250592 0.657008
3.99199 0.645416 -0.530546
3.58085 0.228948 0.522142
2.0722 0.733504 -0.350604
3.49138 -0.635395 0.692255
3.34312 0.561371 0.240939
1.66442 -0.0226284 0.701788
2.47299 -0.691334 0.703504
2.79535 0.710499 0.024761
3.48881 0.689719 -0.246519
3.62842 0.208465 0.524415
1.69354 -0.261931 0.707781
3.25884 -0.0469832 0.683373
2.52955 -0.487715 0.736485
3.11784 0.185238 0.625072
2.18141 -0.519821 0.719681
2.92655 0.691234 0.0600562
2.86288 0.283412 0.608468
1.12021 0.34864 0.48565
2.00638 0.733275 -0.0815246
3.28549 0.717149 -0.364739
2.47159 0.729375 0.00491541
3.31782 0.0472347 0.650255
2.48818 0.707929 -0.671029
2.12019 0.725527 0.0256329
1.81173 0.710635 0.0182647
1.89867 0.119353 0.697837
3.03797 0.025271 0.689909
1.25178 0.640354 -0.0219643
3.71091 0.461915 0.274405
2.10795 0.620371 0.340159
1.43774 0.651143 0.115127
0.909495 0.415008 0.343492
3.10218 -0.70411 0.70374
1.71596 0.367674 0.584686
1.52303 0.664681 0.109149
2.06718 0.730148 -0.0194982
2.46644 0.227095 0.667015
2.55884 0.737336 -0.483186
1.78597 0.64864 0.25225
1.42693 0.666758 0.0159515
3.31738 -0.65037 0.70176
2.90711 -0.461347 0.735657
2.11962 0.714436 -0.528346
2.78073 -0.631049 0.719299
2.32891 0.404223 0.576277
1.61795 -0.0364069 0.697867
2.54607 0.728312 -0.555172
2.69227 0.732796 -0.529546
2.91345 0.000989366 0.706951
3.83596 -0.169587 0.628907
1.69592 -0.0496243 0.707404
1.80458 0.380143 0.584397
2.31723 0.228164 0.671576
2.64572 0.714551 0.046519
2.33842 -0.29181 0.74785
3.26238 0.426233 0.437307
1.95977 0.733931 -0.181941
2.75609 0.745237 -0.252717
1.16173 0.624446 -0.0549562
2.00948 -0.159365 0.736765
2.073 -0.0119778 0.729438
4.37154 -0.8066 0.58995
1.50733 0.237525 0.624355
2.85592 0.740551 -0.400351
1.80918 -0.215945 0.721665
1.66433 -0.0492687 0.704069
2.24154 -0.133506 0.744806
1.56167 0.64505 -0.57608
1.53994 -0.457314 0.664794
3.47626 0.69401 -0.62719
3.09989 0.728768 -0.290088
1.84094 -0.279944 0.721504
1.63885 0.238718 0.640312
1.4504 0.480172 0.455338
2.06556 0.718514 0.0567756
1.26472 0.0458392 0.634421
2.75305 0.724689 -0.0334287
2.40189 0.732098 -0.500968
2.44517 -0.19571 0.74924
2.52065 0.600604 0.351716
3.72314 -0.579903 0.675763
2.24267 0.0511156 0.722994
2.08455 -0.00921016 0.72949
1.39659 0.270585 0.593125
1.8814 0.346106 0.609914
3.76088 -0.00463396 0.596124
2.085 0.700556 -0.593336
2.82196 0.522807 0.417463
2.04405 0.603507 0.367433
3.86295 0.6368 -0.2327
3.21876 -0.572667 0.714367
2.41952 -0.161211 0.747931
2.83467 0.45051 0.49206
3.06985 0.028997 0.685673
1.13825 0.596911 0.101399
3.19743 0.673598 0.0209523
2.18623 0.728052 0.0187677
2.98428 0.192973 0.638577
1.28937 0.230989 0.589761
1.59568 0.0555097 0.684
3.03586 0.70001 -0.0161197
1.82221 -0.718282 0.646872
2.95129 0.737089 -0.401749
3.48156 0.431481 0.379169
3.66723 0.677721 -0.344431
1.3095 -0.279539 0.650009
2.939 0.727303 -0.131223
1.97162 0.670868 -0.687018
3.56421 0.457471 0.325949
2.27102 0.463401 0.531609
2.58807 0.703369 -0.710689
1.60792 0.643456 -0.614076
3.66816 0.682061 -0.551841
2.60019 0.582242 0.370548
1.06644 0.263753 0.521027
1.86709 0.699848 0.102032
2.89953 0.470826 0.462354
1.30336 0.0165908 0.645859
3.37982 0.666081 -0.0376313
1.53383 0.25818 0.61971
2.27861 0.737409 -0.417989
1.60864 -0.189538 0.700978
1.08212 0.580529 0.113061
1.92397 0.709696 0.0703441
2.78103 -0.283466 0.744936
2.51957 0.735831 -0.0438813
1.17023 0.597651 0.128499
2.1765 0.172984 0.692086
1.88216 0.312735 0.627765
1.21018 0.267733 0.556557
2.42379 0.480637 0.508143
3.07049 0.275229 0.585961
0.920094 0.29349 0.4558
2.72003 -0.44691 0.74059
2.97476 0.132155 0.663715
2.99154 0.229749 0.620751
3.17041 0.654412 0.0934782
2.73399 0.612337 0.301253
1.51758 0.567175 0.356585
2.2826 0.505968 0.490752
4.02834 0.640681 -0.532621
3.51122 0.672507 -0.147737
2.74613 0.72912 -0.55927
3.3498 -0.66387 0.69854
1.9931 0.725998 -0.374048
1.89072 0.236124 0.661816
2.15841 -0.397771 0.733981
2.36913 0.304895 0.635255
2.29779 0.748162 -0.235522
2.30785 -0.398052 0.740362
2.31631 0.748004 -0.182534
2.40081 -0.667808 0.705168
3.25889 0.718732 -0.342182
2.16186 0.606245 0.364485
3.03161 -0.538453 0.725543
3.71935 0.66808 -0.31009
2.89913 -0.436432 0.737422
1.47702 -0.362615 0.669295
2.55494 0.682081 0.175949
2.53835 -0.451961 0.740291
3.62434 0.665321 -0.193771
2.53249 0.705318 -0.692378
3.01292 0.725884 -0.164674
3.95182 0.621067 -0.225467
2.20668 0.737496 -0.0493159
2.50034 -0.540844 0.729374
1.14541 0.0487259 0.608924
2.72311 0.181456 0.668964
1.14763 0.523137 0.301813
1.4032 0.672235 -0.115595
1.96428 0.734198 -0.172328
2.809 0.387144 0.548336
3.40133 0.300825 0.512165
2.75676 0.737179 -0.125789
2.29912 -0.635448 0.706428
3.46044 0.440194 0.375126
2.08273 0.33981 0.62029
1.27858 0.00533647 0.642624
2.1682 -0.271018 0.743298
2.31191 0.599068 0.371422
2.97669 -0.413194 0.735614
1.91779 0.645223 0.279777
2.99182 0.514227 0.397343
1.86084 0.657976 0.241604
2.79007 -0.636033 0.718543
2.07032 0.390326 0.589334
2.38061 0.662898 0.245112
2.08072 0.145084 0.698776
1.00995 0.129924 0.556876
2.73175 -0.171283 0.742243
2.62085 0.440297 0.527483
2.30502 0.721773 0.0575169
3.36352 -0.546692 0.707532
1.39894 -0.521801 0.629821
3.4768 -0.611554 0.695194
3.01524 -0.544543 0.725563
2.50231 0.724245 -0.576945
4.13965 -0.733468 0.623158
1.2497 0.644154 -0.085354
2.52935 0.696448 0.136052
1.74365 -0.759695 0.625895
1.78643 0.333244 0.610726
1.63725 -0.238079 0.702599
2.93437 0.655412 0.165798
1.95203 -0.561757 0.695267
1.52932 -0.376504 0.675374
1.11217 0.289137 0.520573
1.70344 -0.334056 0.702986
1.33789 -0.0673841 0.659564
2.107 0.739742 -0.112972
1.56935 -0.80426 0.587
2.79401 -0.0885747 0.730835
2.61174 0.748875 -0.252615
1.80617 0.66939 -0.61456
3.92855 0.650743 -0.445033
1.33357 0.0275539 0.649836
1.36629 -0.358308 0.651568
2.09514 0.69731 0.15155
1.57285 0.655859 -0.532279
3.55484 0.643264 -0.0455143
1.45221 -0.600606 0.621826
3.08497 0.731094 -0.363054
2.72443 -0.104662 0.736342
2.01135 0.7144 -0.47764
2.6665 0.285686 0.626894
1.33558 0.274875 0.579935
2.72535 -0.540699 0.731429
2.43522 0.748308 -0.169828
2.11096 0.723531 -0.462981
1.20959 0.0685678 0.619432
2.13701 -0.401962 0.732392
1.03776 0.442761 0.369689
2.10315 0.726289 -0.437779
2.54122 0.712383 0.0759869
1.21286 -0.299643 0.629283
0.910372 0.475464 0.254436
1.34368 0.5515 0.33193
3.60516 0.220945 0.521875
