ply
format ascii 1.0
comment Created by Open3D
element vertex 250
property double x
property double y
property double z
end_header
1.25402 -0.19394 -0.551294
2.96853 0.390976 0.482521
2.14863 0.573982 1.1263
0.643134 0.418877 0.461018
1.07262 0.434993 0.865828
0.720423 0.286213 0.781555
0.45222 0.3155 0.42843
3.26769 0.270535 1.75233
0.87074 -0.672488 -0.825758
-0.607968 -1.71434 -0.0117096
0.308424 0.251328 0.297377
0.443518 -0.774396 -0.83472
4.19912 0.0358308 2.04953
0.649311 -0.166944 -0.528491
1.02922 0.494319 0.732536
2.11188 0.460583 0.218374
-0.365074 -0.553856 -0.214264
1.46066 0.570729 0.279315
1.14461 -0.259597 -0.599415
0.801862 0.445006 0.115644
2.56721 0.278015 0.135525
0.268992 0.212448 0.0368397
-0.617107 -1.52482 -0.101653
-0.276562 -0.54942 0.289269
1.27502 0.510365 0.147692
0.970546 -0.19002 -0.559605
-0.431924 -1.77528 -0.777344
-0.0888518 -0.154972 0.262806
5.52448 -0.462874 2.52869
-0.151038 -0.218769 0.20911
0.381522 -2.00095 -1.21115
-0.613129 -1.96936 -0.0189529
-0.293254 -0.808181 -0.551464
-0.273538 -0.60207 0.329944
0.988303 -0.345247 -0.655001
-0.253877 -0.542838 -0.407863
1.06136 0.518799 0.194933
5.44246 -0.196579 1.46015
5.78942 -0.306172 1.71531
1.96844 0.650581 0.73182
6.30391 -0.546605 2.26177
-0.151666 -1.49388 -0.90901
1.64233 0.606146 0.391219
2.27801 0.6348 0.863839
-0.35292 -0.512406 -0.172031
4.57076 0.0746638 1.86112
1.15007 0.575368 0.611954
4.85396 0.0347514 1.71252
5.86647 -0.378715 1.4974
0.52919 -0.610114 -0.770308
-0.0845627 -0.466012 -0.496194
4.05005 -0.00658752 0.519965
6.56775 -0.810168 1.31666
4.59282 0.115539 1.67971
1.7173 0.521994 1.08856
3.59561 0.240815 1.7931
-0.1848 -0.441896 0.373554
-0.117081 -0.209839 0.277986
0.677123 -0.520587 -0.740464
0.403248 0.312554 0.14672
6.00735 -0.613727 2.61622
4.8 0.0616301 1.51334
4.45375 0.150318 1.6898
3.94364 0.137508 1.92489
0.902106 0.461005 0.109132
5.66283 -0.253206 1.84409
0.777467 0.166715 -0.271463
1.60838 0.301372 -0.103366
-0.0392405 -0.954887 -0.778309
6.40874 -0.690242 1.38618
4.18831 0.235066 1.59309
0.0425664 -0.0384897 -0.176643
2.66539 0.560334 1.18971
0.124895 -0.622395 -0.687082
0.426331 0.219755 0.56985
0.0168795 0.0249553 0.112279
4.19502 0.198282 1.03148
5.96778 -0.373241 1.84216
-0.480604 -1.57524 -0.676017
2.07873 0.200751 -0.103779
-0.552443 -1.11594 -0.0470445
0.629514 0.414574 0.16947
0.533572 -0.774972 -0.847747
0.422504 0.272826 -0.00802911
0.481848 0.187938 -0.178517
-0.0737587 -0.072031 0.0303434
1.37169 0.524535 0.915913
1.88802 0.259471 -0.091683
-0.57673 -1.64969 -0.544104
0.882988 0.375862 0.805351
3.17929 0.448754 1.42731
4.40265 0.133567 1.79444
0.751893 0.465044 0.48452
0.086388 -0.335084 -0.499133
2.9357 0.5517 0.98437
0.442704 0.0969578 0.721121
0.372535 0.301691 0.225097
0.202141 0.0531756 -0.196806
-0.608943 -1.61261 -0.446547
1.91422 0.25142 -0.0938771
-0.0347069 -0.681708 -0.653564
3.23174 0.481226 0.934836
2.22528 0.634019 0.722004
0.476623 -0.103785 -0.456344
1.42642 -0.0139616 -0.40938
1.04996 0.565363 0.495401
1.86987 0.306477 -0.0457944
1.92465 0.437094 1.28484
-0.64168 -1.78363 -0.359349
3.32556 0.271342 1.75298
1.54035 0.637313 0.55033
2.3376 0.575143 0.537219
2.19879 0.0756876 -0.188062
3.29822 0.445637 1.39744
3.33805 0.426049 0.828217
0.485332 -0.766986 -0.837719
4.29099 0.048592 2.01598
-0.312331 -1.82807 -0.889824
2.19208 0.456006 1.34211
4.60346 -0.155561 0.679371
3.51131 0.202621 0.490841
-0.458421 -1.1377 -0.541356
2.57718 0.577557 1.1405
5.55069 -0.261504 1.39324
-0.460876 -1.03394 -0.480985
5.60117 -0.31313 1.30676
-0.243897 -1.76903 -0.923875
0.477513 -1.42679 -1.08045
-0.602618 -1.54684 -0.439589
3.03454 0.412796 0.563294
0.0185175 -0.860604 -0.761902
1.46575 0.441468 0.0469143
0.173379 -1.31809 -0.981341
4.88411 -0.114941 2.14855
5.11098 -0.0508888 1.5282
0.471862 -1.24073 -1.01966
0.826558 0.48389 0.214591
0.997092 0.455185 0.0726023
3.55632 0.286462 0.664353
6.1596 -0.462275 1.75413
-0.239715 -0.493204 -0.38098
2.53574 0.541556 1.25024
2.18322 0.125917 -0.147048
4.97861 -0.213124 2.28786
1.76427 0.647324 0.745119
2.90538 0.540064 1.19628
0.476917 0.352683 0.169345
2.16608 0.603673 0.539748
-0.522073 -0.999984 -0.0155161
5.77397 -0.421194 2.36799
6.42983 -0.619399 1.6124
3.03723 0.407374 1.53349
-0.44643 -0.710875 -0.0729988
-0.168319 -0.189285 0.0220161
3.56056 0.41212 1.05027
-0.228586 -0.509121 0.347257
0.27983 0.212627 0.0178307
0.965474 0.349176 0.899351
-0.127403 -0.768527 -0.649924
2.08699 0.567866 0.408921
-0.585564 -1.21665 -0.212736
-0.0833166 -0.374187 -0.4278
0.281737 -0.850936 -0.83699
2.43331 0.620678 0.917675
-0.453341 -0.888751 -0.39208
-0.406583 -1.00424 -0.54037
2.32588 0.513966 0.389695
3.39117 0.350832 1.61727
-0.105546 -0.418681 -0.446357
3.36361 0.435146 0.887271
6.18259 -0.489868 2.20088
3.69288 0.391221 1.25133
4.08446 0.223187 0.98041
1.08216 -0.294037 -0.62285
0.977761 0.540267 0.319924
0.935457 0.0766293 -0.363428
1.61577 0.52362 0.197874
0.93256 0.522247 0.548352
2.112 0.352156 0.0706454
0.320457 -1.50442 -1.07363
1.19148 0.594604 0.53506
1.82725 0.614044 0.4512
2.44636 0.60914 1.0199
0.297286 0.142471 -0.139995
5.48268 -0.185108 1.66434
4.36912 0.182094 1.63829
0.462717 -0.159054 -0.494434
0.171943 -1.40045 -1.00621
-0.298329 -1.21334 -0.731984
3.71453 0.195764 1.85542
-0.0559473 -1.82191 -1.03336
0.552536 -1.35598 -1.06933
0.490715 -0.248188 -0.560703
5.49336 -0.320912 2.30262
4.7482 -0.0173355 2.00081
-0.32419 -1.3362 -0.75486
2.56372 0.464081 0.403088
-0.364936 -0.614802 -0.305549
-0.484212 -0.827725 -0.0608329
-0.151404 -0.266711 0.27599
1.52281 -2.51904 -1.43914
1.33072 -0.965011 -0.949143
4.09845 -3.23973 -1.34529
3.80778 -4.64372 -1.7529
5.929 -6.85755 -1.89795
5.3285 -6.418 -1.90308
1.28477 -2.05912 -1.32175
3.59357 -4.02428 -1.64363
3.73984 -3.17032 -1.39322
2.15985 -1.62597 -1.13153
1.05566 -1.4032 -1.12114
2.69836 -2.27347 -1.28285
1.05202 -1.67574 -1.20785
1.3768 -1.84412 -1.26125
4.1342 -3.31295 -1.3611
3.57838 -3.17667 -1.42353
0.99439 -2.18357 -1.34007
4.79327 -4.54761 -1.58427
2.73052 -3.98456 -1.71271
3.73497 -4.08937 -1.64054
5.65331 -5.80037 -1.72888
1.36361 -1.84785 -1.26251
2.94439 -4.22205 -1.74514
2.09193 -3.41902 -1.62676
6.09466 -6.13164 -1.72206
6.01863 -6.85873 -1.88465
1.86066 -2.33367 -1.38446
4.61905 -3.66195 -1.36777
5.15379 -6.05767 -1.8608
1.2511 -0.799998 -0.880253
4.84647 -4.6216 -1.59345
1.21262 -0.89791 -0.925544
1.39206 -0.994394 -0.958098
5.34417 -6.39695 -1.89726
4.62329 -5.33324 -1.79192
5.08516 -4.33962 -1.46943
3.10754 -4.39629 -1.76695
2.35439 -3.71203 -1.67661
2.02731 -3.55988 -1.65314
1.39839 -1.23979 -1.05657
2.39393 -2.84552 -1.48381
6.09415 -5.68964 -1.61688
4.0572 -5.44966 -1.87719
6.37235 -6.98576 -1.85193
2.82409 -2.40236 -1.30621
4.59906 -5.68598 -1.86261
1.72796 -1.16652 -1.00224
5.70366 -5.90676 -1.74358
5.58704 -6.32924 -1.85013
2.76244 -3.25854 -1.55424
