ply
format ascii 1.0
comment Created by Open3D
element vertex 400
property double x
property double y
property double z
end_header
0.359449 -2.16588 1.12629
-0.325884 -2.50278 2.22121
-0.049923 -2.78874 2.06266
0.102761 -3.16544 1.16961
-0.311094 -2.79617 2.295
0.324657 -0.916803 0.947127
-0.255337 -2.70955 2.23579
-0.077749 -1.56974 1.70611
-0.494727 -1.7782 1.97435
0.387965 -1.62692 1.17515
0.139588 -1.00937 1.23687
0.342466 -2.2017 1.2588
-1.11053 -3.19821 2.75123
0.171194 -2.63077 1.70874
-0.32681 -2.82823 2.31316
-0.214543 -2.97493 2.25288
0.125922 -3.07989 1.12916
0.284488 -2.29397 0.711901
-0.173941 -2.48816 2.12115
-1.031 -2.65231 2.51159
0.363046 -2.15031 1.09162
-0.245889 -1.08609 1.4883
0.139408 -2.49202 1.78415
-0.201725 -1.36445 1.65059
0.0601857 -1.62037 1.64111
0.292128 -2.2083 1.46977
-0.62705 -2.49774 2.34784
-0.164476 -2.38247 2.08439
-0.719095 -1.32895 1.74134
-0.274517 -1.82473 1.92499
0.305397 -2.05339 1.44481
-0.0676398 -3.70824 1.36948
-0.218379 -1.44253 1.70239
0.258683 -2.64496 1.27416
0.198116 -2.43397 0.557547
0.376763 -1.26475 1.07376
-0.759842 -1.94013 2.11595
-0.311153 -2.06929 2.0513
-0.0308432 -1.20256 1.47493
0.366591 -0.927369 0.86308
-0.132432 -1.22285 1.53633
-0.0535704 -2.68289 2.05557
-0.196787 -2.71091 2.19227
0.341006 -2.27156 1.10582
0.331255 -1.68396 0.374512
0.242339 -1.24281 1.28285
0.173921 -2.12094 1.69304
-0.0436584 -2.85657 2.059
0.391305 -1.77088 1.1719
-0.0672538 -0.885884 1.27677
-0.682571 -2.06103 2.16469
0.222045 -2.09832 1.61678
0.259246 -1.89444 1.5185
0.320742 -2.36919 1.18725
0.0931484 -3.16117 1.66722
0.0751006 -3.10487 1.78721
0.12862 -3.11162 1.49774
0.31686 -0.76426 0.82221
0.368841 -2.11681 1.03237
0.391467 -1.45839 1.11958
0.40374 -1.6741 0.645617
0.0195807 -3.45967 1.34064
0.34056 -1.7635 1.33223
0.329268 -2.28764 1.2659
0.405529 -1.35356 1.03332
0.165162 -2.96607 1.50565
-0.0646578 -1.17404 1.47446
0.363618 -1.88852 0.635901
-0.186493 -1.32916 1.62362
0.362469 -1.941 0.68064
0.239327 -2.06578 1.58302
0.266412 -0.792458 0.93541
-0.480058 -2.22474 2.18454
-0.831523 -2.08543 2.20443
0.421036 -1.17915 0.87467
0.141738 -2.96428 1.64364
-0.100348 -0.677428 1.12426
-0.278143 -0.853553 1.32783
-0.116833 -1.66247 1.77316
-0.592273 -1.88298 2.05337
0.360846 -1.0643 0.986661
-0.104052 -1.87081 1.86108
0.324609 -2.33002 1.00881
0.189993 -1.22711 1.32974
0.287293 -0.654777 0.762678
0.0434168 -1.37235 1.52915
-0.439614 -2.93109 2.40876
-0.644808 -2.41254 2.31812
-0.558445 -0.758795 1.3005
0.0792355 -2.63125 1.8823
0.254055 -1.47751 1.38634
-1.02345 -2.91812 2.62336
-0.868126 -2.14537 2.2411
0.422951 -1.67289 0.79681
-0.342869 -2.68963 2.28736
-0.899907 -1.85736 2.08733
0.365473 -2.05959 0.842405
-0.202605 -4.05539 1.37519
0.428904 -1.39606 0.942955
0.421914 -1.41382 0.988217
0.368549 -0.925141 0.855719
0.151135 -1.64478 1.57297
0.398394 -1.80233 0.737357
0.0383341 -0.810806 1.16227
0.396719 -1.56145 0.529559
0.199153 -2.40161 0.531292
0.146852 -1.63264 1.57209
-0.686839 -1.703 1.9717
0.173205 -2.1939 0.302041
-0.673508 -2.0092 2.13647
-0.298218 -1.8136 1.92916
0.381866 -1.49639 0.433499
0.312494 -1.12437 1.11741
0.0910882 -2.29511 1.83183
0.219559 -2.51873 0.712544
0.294892 -1.56268 0.213511
-0.640394 -2.09288 2.17099
0.385069 -1.08772 0.942411
0.112827 -1.40434 1.49492
0.16165 -2.19157 1.72264
-0.551118 -2.41384 2.28834
-0.128029 -3.878 1.41107
0.400447 -1.9075 1.00172
0.386169 -1.95528 0.848875
0.367961 -1.82265 1.26134
0.112306 -1.3438 1.46324
-0.496863 -1.77941 1.97555
0.241607 -0.765573 0.945175
0.0278824 -3.43341 1.33013
0.41321 -1.44642 1.03862
-0.0478151 -1.33802 1.56484
-0.451082 -2.2985 2.20459
0.37833 -1.89117 0.711081
0.157654 -1.9475 0.114134
-0.229077 -1.44001 1.70503
0.351075 -2.02393 0.711639
-0.47302 -0.78894 1.31547
0.144418 -0.800062 1.07623
0.18234 -2.87315 1.05805
0.362417 -1.60763 0.427326
0.414988 -0.923482 0.612687
-0.502703 -1.1796 1.61259
0.237416 -2.47228 0.726708
0.190859 -0.865581 1.08556
0.315286 -1.62961 0.299276
-0.8558 -2.54455 2.4295
0.0833577 -2.90218 1.84702
-1.03896 -2.93211 2.63237
-0.0227908 -3.52902 1.19698
0.343941 -1.13279 1.06772
0.433724 -1.57456 0.842871
0.305713 -2.43579 1.2328
0.330151 -2.27355 0.933324
-0.526664 -1.16517 1.60643
-0.823051 -1.73724 2.00934
-0.00928371 -3.55545 1.41006
0.0180382 -2.57946 1.9616
0.419266 -1.00995 0.485401
-0.476263 -1.10539 1.55641
0.0513374 -2.04976 1.81244
0.259957 -2.60028 1.38631
-0.802746 -1.18311 1.64476
0.0980814 -1.24402 1.41799
0.238499 -2.10229 1.58914
0.31695 -2.26097 0.823921
-0.561696 -2.9949 2.49152
0.134835 -2.55595 1.79143
-0.118653 -0.653833 1.11154
0.153492 -2.64432 0.62738
-0.0836965 -3.77851 1.60001
0.102399 -2.63773 1.84499
0.406013 -1.82781 0.839166
0.0548515 -2.84586 1.91267
-0.594716 -1.23156 1.66174
0.0480506 -3.02152 1.89306
-0.0575978 -3.03594 2.07684
0.424768 -0.996082 0.58419
0.322857 -1.02757 1.03525
-0.252346 -0.977016 1.41326
0.0213219 -1.06845 1.35938
-0.549498 -2.86327 2.44725
0.106031 -2.67983 1.83646
-0.105578 -2.54657 2.0815
0.104595 -2.83365 1.8166
0.215671 -2.34675 0.530443
0.021593 -1.19248 1.43869
0.0329388 -2.37117 1.91211
0.372089 -1.46485 0.38369
0.160675 -2.74565 0.762289
-0.656197 -2.57114 2.38657
0.0463614 -3.30522 1.72592
-0.429823 -2.68737 2.33468
-0.10128 -0.7322 1.17078
0.233582 -0.975718 1.1227
0.302644 -2.40192 1.33283
-0.181697 -3.97905 1.30616
-0.584775 -1.84112 2.02952
-0.187274 -2.72712 2.18797
-0.619057 -2.33101 2.27543
0.188416 -1.91791 0.160846
0.184096 -1.57852 1.51164
0.377108 -0.895092 0.800728
0.428597 -1.46015 0.961064
-0.86991 -2.64649 2.47663
0.348476 -1.70012 0.437572
-0.33873 -1.03788 1.48028
0.253627 -2.65964 1.31477
-0.0602472 -3.71135 1.51285
0.127623 -2.78516 0.695722
0.122423 -2.18336 1.77221
0.300534 -0.706046 0.793869
0.196781 -2.16951 1.66734
-0.112797 -3.86099 1.57719
-0.0831286 -2.57179 2.06669
-0.189238 -1.0482 1.44328
0.171082 -2.75713 0.815754
0.194953 -2.14377 1.66644
-0.0708615 -1.40897 1.61712
0.364162 -1.05215 0.970299
-0.197075 -2.99094 2.23842
-0.449779 -1.58447 1.85599
-0.143065 -0.700485 1.16113
0.221508 -2.79208 1.32455
-0.46155 -2.4982 2.28579
0.285953 -2.3811 0.824649
0.0559905 -3.0846 0.8126
-0.428241 -1.72381 1.92721
0.147331 -3.02974 1.1717
0.415033 -1.77568 0.869055
0.205958 -2.76663 0.997607
-0.210619 -0.910399 1.35121
0.0406748 -3.31498 1.10571
-0.52586 -1.88355 2.03755
-0.349533 -2.89368 2.34351
0.280053 -0.664747 0.787604
0.320564 -2.07565 1.40168
-0.166181 -1.03126 1.42308
0.357211 -2.04048 0.76282
0.288982 -2.50261 1.08106
0.225132 -1.98904 0.286088
-0.0989512 -3.73433 1.21412
0.261567 -2.26781 0.601394
0.319323 -2.23574 1.36527
0.287498 -2.25396 0.680859
-0.190802 -1.80738 1.87935
0.147876 -2.69289 0.660275
0.39363 -1.34292 1.06693
0.217466 -2.80775 1.32739
0.252058 -1.5508 1.42007
-0.102774 -0.945074 1.33638
0.0905466 -3.17664 1.66123
0.0513778 -3.19274 0.944751
0.245047 -1.34939 1.3367
0.170447 -2.79893 0.869557
-0.068876 -3.6205 1.13591
0.350934 -1.52489 1.2455
0.232049 -1.65684 1.48712
0.153234 -3.04259 1.3296
-0.517751 -2.85888 2.43073
0.405293 -1.85133 1.03775
0.22972 -2.47904 1.59293
-0.0304535 -1.24003 1.49767
-0.64063 -2.36043 2.29453
0.409908 -1.40308 1.03722
-0.188378 -2.06991 1.9908
0.171863 -2.21252 0.312004
0.141091 -2.77969 1.74449
0.391064 -1.48386 0.461642
-0.138994 -1.26881 1.56759
0.333809 -2.19852 0.834322
0.244391 -1.306 1.31496
0.33592 -1.79321 0.458226
-0.0437345 -3.54224 1.10958
0.156764 -1.84012 0.0544331
0.102953 -2.49128 1.84123
0.211404 -2.65671 1.58318
0.397562 -0.815348 0.558225
0.402133 -1.83793 1.08716
0.210666 -1.09388 1.22776
0.427383 -1.65662 0.853379
-0.165167 -1.29265 1.59304
-0.628683 -0.946383 1.45755
-0.235555 -2.34893 2.11924
0.27288 -0.67395 0.81021
0.308834 -2.40145 1.27995
0.320097 -1.58078 1.32614
0.204922 -2.75717 0.974089
0.427742 -1.40266 0.952289
0.417061 -1.63016 1.04551
-0.866928 -2.81833 2.54571
0.11169 -1.69206 1.62948
-0.0914389 -1.78825 1.81775
0.220994 -2.40733 1.62792
0.000612774 -2.78062 1.99847
-0.278582 -2.28144 2.11965
-0.00369753 -0.709208 1.10386
-0.883489 -2.0318 2.18316
0.107871 -3.13593 1.13387
0.329627 -2.3244 1.17894
0.434218 -1.13363 0.596734
-0.542869 -2.58878 2.35247
-0.0643425 -2.45444 2.0248
0.429823 -1.05003 0.657829
0.391581 -1.9601 0.928148
0.359876 -1.38529 0.309663
0.36007 -2.10173 1.22085
0.432926 -1.56814 0.903548
-0.907104 -2.81431 2.55453
0.375383 -1.20471 1.04365
0.401867 -1.7336 1.12377
0.353976 -1.54467 0.365581
-0.0855619 -2.6295 2.07971
0.3898 -1.08145 0.923941
-0.332477 -0.811467 1.30811
-0.0531634 -1.22128 1.4982
0.267333 -2.29389 1.52667
-0.693451 -1.46024 1.82481
0.111967 -3.11236 1.10769
0.217007 -1.98306 0.26322
0.218585 -2.78453 1.14353
0.241977 -2.5218 1.54001
0.125246 -3.07037 1.10242
-0.0252664 -1.24579 1.4983
-0.234197 -4.1579 1.45835
-0.52883 -1.86798 2.03028
0.187989 -2.2863 1.69387
-0.481594 -2.38961 2.25291
-0.473292 -1.08302 1.54001
0.304768 -2.37543 0.927399
-0.164342 -2.14409 2.00505
0.141541 -3.04901 1.53238
0.295346 -0.965824 1.03466
-0.091938 -3.8022 1.59851
0.198453 -2.34553 0.480861
-0.441306 -0.968636 1.45099
0.43863 -1.18713 0.657524
0.269526 -1.84258 0.302649
0.420892 -1.38659 0.54979
0.406711 -0.895039 0.653374
-0.0798781 -2.44499 2.03618
0.280739 -2.52453 1.33266
-0.783639 -2.11294 2.21068
0.0370103 -3.26385 1.80558
0.163092 -1.09547 1.27423
0.0965651 -1.47597 1.54428
0.0775575 -2.33983 1.85595
0.106243 -2.02904 1.75231
-0.430099 -2.7952 2.36688
0.316528 -2.31358 1.32992
-1.21084 -3.19501 2.77179
-0.660461 -1.08851 1.56728
-0.421466 -1.88867 2.00984
0.356861 -0.847919 0.812961
0.0262339 -3.04103 1.93399
0.275611 -2.2129 1.51418
0.294315 -1.91746 0.417858
-0.227162 -1.28794 1.61369
-0.118593 -0.905453 1.31386
-0.105327 -0.959237 1.34772
-0.119114 -1.59614 1.74131
-0.782446 -1.64483 1.94959
0.176755 -0.646755 0.910393
0.185324 -2.90233 1.46222
0.289351 -2.08283 0.528534
0.00521915 -0.604761 1.00662
0.019998 -3.33545 1.03873
0.359506 -1.80166 0.546756
0.212872 -2.20611 1.64484
0.130301 -3.1037 1.50325
-0.684775 -2.96153 2.53648
-0.0747507 -0.795401 1.21033
0.440036 -1.29334 0.798111
0.149904 -3.02171 1.17194
0.435276 -1.54038 0.802821
-0.103611 -1.00994 1.38301
0.368905 -2.01332 0.799858
0.263493 -2.07929 1.53984
-0.524912 -2.27322 2.2208
0.0470408 -3.14663 1.84785
0.200449 -1.92016 1.61146
-0.839429 -1.0926 1.57892
0.278225 -1.78861 1.46154
0.441169 -1.38353 0.747398
-0.150298 -3.9264 1.37979
-0.0916683 -3.03062 2.12352
-0.184283 -2.76097 2.19209
0.111857 -2.85629 1.79388
0.310387 -2.29338 1.37677
-0.224984 -0.826244 1.29126
-0.157537 -2.93627 2.19351
0.227068 -2.63369 0.891365
0.111505 -3.1622 1.53713
0.123058 -2.72221 1.79877
-0.623051 -2.82835 2.46813
0.0192172 -2.04434 1.83909
-0.426461 -1.72713 1.92847
0.15757 -2.82028 0.845198
0.224445 -1.98054 1.59197
0.375113 -1.84966 1.23438
0.321745 -2.27303 1.33134
