ply
format ascii 1.0
comment Created by Open3D
element vertex 250
property double x
property double y
property double z
end_header
0.778895 -0.798653 0.818278
1.7551 -2.4729 0.0473291
1.28781 -1.99053 -0.770676
0.245096 -0.761941 -0.401236
0.624904 -1.09532 -0.706509
0.481893 -0.733271 -0.664717
0.18758 -0.550596 -0.386333
2.39969 -2.62489 -1.08308
0.796216 -0.191554 1.10528
0.831643 1.59819 0.250734
0.103644 -0.399724 -0.276048
0.593703 0.19437 1.05019
3.24757 -3.16307 -1.13259
0.380366 -0.367145 0.670302
0.516284 -1.10165 -0.600061
1.0823 -1.88024 0.114836
0.100098 0.643425 0.248857
0.605819 -1.47002 -0.0964002
0.741979 -0.673014 0.85635
0.227713 -0.894734 -0.0445497
1.4791 -2.09619 0.323251
0.03076 -0.342355 -0.0263629
0.664562 1.47902 0.29513
0.299252 0.570662 -0.216377
0.4923 -1.29057 0.00529166
0.592802 -0.590384 0.768933
0.765705 1.51404 1.03142
0.129974 0.1676 -0.236633
4.58785 -3.81919 -1.22224
0.120251 0.256916 -0.184208
1.32013 1.06333 1.65615
1.00818 1.77256 0.310288
0.229697 0.762671 0.639405
0.350522 0.603286 -0.243628
0.68724 -0.499077 0.89643
0.107123 0.554887 0.453988
0.363626 -1.13768 -0.0842633
4.03606 -3.92777 -0.271895
4.40955 -4.11456 -0.423933
1.00393 -1.90461 -0.445133
5.06764 -4.34078 -0.79387
0.705659 1.11854 1.15407
0.728889 -1.62969 -0.174763
1.25097 -2.12534 -0.506495
0.090515 0.606345 0.202138
3.40244 -3.46394 -0.886392
0.500658 -1.24476 -0.477625
3.5686 -3.64671 -0.67935
4.44735 -4.12165 -0.184759
0.54983 0.0203319 0.971046
0.134775 0.378306 0.556099
2.7397 -3.01179 0.310593
5.15029 -4.35338 0.218709
3.33482 -3.50624 -0.716964
1.03873 -1.63469 -0.809557
2.64196 -2.84923 -1.05051
0.305512 0.429878 -0.301385
0.155498 0.22515 -0.245243
0.589004 -0.149768 0.953119
0.0768408 -0.509985 -0.125843
5.02894 -4.07815 -1.17808
3.4573 -3.62297 -0.505115
3.22419 -3.42613 -0.761646
2.97591 -3.04005 -1.08558
0.27838 -0.97993 -0.0217126
4.32828 -4.05683 -0.583555
0.298559 -0.687517 0.379637
0.7814 -1.39682 0.35596
0.430745 0.67361 0.937988
4.98341 -4.31584 0.0952664
2.96634 -3.28461 -0.739798
0.00345954 -0.00453671 0.185644
1.64567 -2.36623 -0.725546
0.324709 0.328567 0.813427
0.280322 -0.468456 -0.506703
0.0254875 -0.0301199 -0.10935
2.83421 -3.26059 -0.193198
4.60795 -4.20338 -0.495693
0.621284 1.41573 0.882659
1.1532 -1.67936 0.471228
0.429949 1.15718 0.169729
0.155034 -0.746638 -0.124001
0.647806 0.127882 1.08072
0.07265 -0.49653 0.0344627
0.121699 -0.482579 0.227319
0.0131077 0.102765 -0.0285831
0.766377 -1.378 -0.713699
0.993122 -1.57688 0.409305
0.651264 1.53595 0.752917
0.528566 -0.914286 -0.673965
2.12201 -2.67572 -0.827097
3.23384 -3.37776 -0.86845
0.288369 -0.873873 -0.411775
0.149608 0.163672 0.565427
1.76484 -2.55987 -0.473348
0.422185 -0.399742 -0.622389
0.0876924 -0.4805 -0.204691
0.0340541 -0.18433 0.217449
0.632509 1.53435 0.645325
1.01495 -1.59096 0.418318
0.274885 0.486649 0.762028
1.98968 -2.73255 -0.352134
1.1768 -2.08448 -0.381085
0.24601 -0.281502 0.553559
0.801616 -1.0483 0.678936
0.410154 -1.16269 -0.383912
0.961295 -1.59516 0.35188
1.28846 -1.7337 -0.938244
0.758879 1.67232 0.591323
2.43623 -2.66847 -1.07234
0.687664 -1.57594 -0.353922
1.23696 -2.12721 -0.169463
1.29462 -1.68439 0.602125
2.19148 -2.76185 -0.774166
2.066 -2.77389 -0.2173
0.61423 0.158342 1.05983
3.28737 -3.23966 -1.08486
0.8471 1.46127 1.17401
1.46221 -1.94569 -0.943758
3.24528 -3.32505 0.299615
2.23824 -2.75073 0.187125
0.362301 1.10569 0.666146
1.56284 -2.31175 -0.699642
4.13206 -3.96433 -0.172638
0.304203 1.03769 0.586048
4.17606 -3.96668 -0.0689431
0.838793 1.37118 1.20781
1.00963 0.607112 1.42939
0.591639 1.48562 0.626088
1.80506 -2.53722 -0.0214185
0.405093 0.567502 0.913957
0.63397 -1.38557 0.154239
0.766721 0.759862 1.25108
3.82091 -3.57251 -1.05918
3.74031 -3.77916 -0.433713
0.890901 0.486464 1.33094
0.24439 -0.939873 -0.142513
0.332565 -1.0464 0.0333987
2.25741 -2.84162 0.012386
4.76837 -4.28583 -0.354502
0.0885373 0.510964 0.420638
1.59386 -2.25773 -0.805357
1.26073 -1.70671 0.549202
3.9916 -3.57826 -1.15303
0.879821 -1.75069 -0.497853
1.81517 -2.53122 -0.679759
0.101776 -0.591776 -0.141263
1.10789 -2.01873 -0.212056
0.37574 1.05683 0.12121
4.67078 -4.03133 -1.02749
5.01185 -4.38066 -0.131953
2.09163 -2.54324 -0.948325
0.201114 0.807776 0.130476
0.0340037 0.251535 -0.0147846
2.28223 -2.93181 -0.382567
0.317912 0.507586 -0.270797
0.0320431 -0.350385 -0.00604756
0.627465 -0.958536 -0.741886
0.278724 0.613594 0.758342
1.04507 -1.93494 -0.0950653
0.432669 1.25044 0.3429
0.089872 0.31546 0.47157
0.544413 0.36587 1.03623
1.37574 -2.23182 -0.524112
0.231182 0.934331 0.471914
0.30046 0.977925 0.647455
1.23039 -2.07643 -0.0177319
2.38209 -2.76933 -0.946107
0.102054 0.361881 0.494263
2.09293 -2.79945 -0.270643
4.93211 -4.288 -0.771698
2.43981 -3.01783 -0.544251
2.7311 -3.19461 -0.171585
0.719914 -0.603366 0.873584
0.331164 -1.09084 -0.225064
0.437005 -0.744074 0.518085
0.714812 -1.55325 0.0223583
0.381335 -1.04698 -0.448909
1.11694 -1.80669 0.279063
0.966771 0.775759 1.40791
0.491089 -1.28781 -0.399825
0.858625 -1.77297 -0.196992
1.4219 -2.23462 -0.616925
0.0475194 -0.315228 0.163245
4.11268 -3.96696 -0.461729
3.1326 -3.38403 -0.735892
0.265532 -0.233915 0.598871
0.817359 0.816182 1.29193
0.463212 1.0387 0.896405
2.76803 -2.90804 -1.07699
0.96474 1.26761 1.36117
1.01021 0.503897 1.4188
0.327792 -0.194633 0.686627
4.40124 -3.88915 -1.04193
3.62176 -3.53551 -0.965381
0.527727 1.14023 0.938994
1.42163 -2.22008 0.0273271
0.117225 0.68478 0.349075
0.263887 0.913887 0.135887
0.17359 0.288709 -0.238207
2.35197 0.562645 2.21072
1.26268 -0.337138 1.37655
4.53684 -0.871906 2.78564
5.2349 0.285977 3.41323
8.12579 0.18936 4.44038
7.42754 0.342182 4.23318
1.90597 0.431318 1.95419
4.68795 0.0303691 3.13565
4.24461 -0.65122 2.74547
2.21046 -0.510525 1.85535
1.34995 0.16169 1.57856
2.97219 -0.477013 2.24368
1.51694 0.347255 1.71816
1.82884 0.218687 1.86939
4.60731 -0.849422 2.8233
4.13733 -0.526647 2.74365
1.80415 0.730619 1.94006
5.84402 -0.512522 3.42794
4.08888 0.646227 3.02147
4.82551 -0.0313128 3.17456
7.24465 -0.313603 4.00124
1.82271 0.230999 1.86875
4.38539 0.646174 3.14508
3.30283 0.742442 2.69301
7.76459 -0.420459 4.15232
8.18768 0.123378 4.44575
2.45115 0.187043 2.18671
5.16374 -0.97667 2.9997
7.07125 0.230927 4.08211
1.11411 -0.388768 1.26004
5.9281 -0.50256 3.4629
1.14629 -0.294345 1.31632
1.32019 -0.36305 1.40353
7.42421 0.316418 4.22631
6.23588 0.140689 3.75809
5.91517 -0.869543 3.33242
4.60747 0.641482 3.23512
3.6649 0.743509 2.85465
3.35444 0.884875 2.73502
1.47077 -0.202946 1.55066
3.12782 0.133365 2.49571
7.47941 -0.716369 3.95857
5.93301 0.640191 3.75142
8.51349 -0.0550247 4.51162
3.1376 -0.484185 2.3182
6.45158 0.395049 3.89513
1.64454 -0.497462 1.5489
7.34842 -0.279818 4.04771
7.54454 0.0901534 4.21534
3.63721 0.135933 2.72342
