ply
format ascii 1.0
comment Created by Open3D
element vertex 250
property double x
property double y
property double z
end_header
0.429531 -1.28763 -0.267632
0.102001 -2.82166 1.10711
-0.370847 -1.9587 1.49685
-0.0617599 -0.535121 0.715156
-0.338034 -0.938582 1.04603
-0.389913 -0.624117 0.818659
-0.113917 -0.368459 0.582114
-0.95604 -3.09095 1.83129
0.329063 -1.01186 -0.871869
-1.06869 0.273014 -1.44641
-0.0601755 -0.24429 0.428282
0.238888 -0.612143 -1.03023
-1.25412 -4.03828 1.98845
0.376149 -0.688248 -0.337052
-0.200042 -0.889742 1.00429
0.281266 -1.97762 0.854256
-0.191954 0.245928 -0.623392
0.243338 -1.31552 0.864572
0.419253 -1.19441 -0.366641
0.242449 -0.69875 0.554396
0.276641 -2.46195 0.740586
0.120705 -0.222566 0.233972
-0.884364 0.314383 -1.35473
-0.582823 0.178537 -0.300778
0.296258 -1.14959 0.706151
0.414411 -1.009 -0.318442
-0.480413 0.0604233 -1.92561
-0.309645 0.0677077 0.0226644
-1.8217 -5.41524 2.11779
-0.310356 0.11472 -0.0701237
-0.20089 -0.796469 -2.22295
-1.21603 0.229733 -1.6502
-0.0695451 0.115018 -1.01252
-0.646483 0.167149 -0.316695
0.398967 -1.05922 -0.4938
-0.0217151 0.131714 -0.712502
0.245526 -0.936569 0.704412
-0.818194 -5.32409 1.66605
-1.05755 -5.6758 1.79452
-0.0261128 -1.78203 1.28734
-1.59301 -6.2058 2.02581
-0.18326 -0.166436 -1.73772
0.19085 -1.48298 0.990987
-0.114405 -2.08393 1.40808
-0.199742 0.243377 -0.563541
-1.04923 -4.40265 1.969
-0.0452112 -0.997526 1.01543
-0.93071 -4.6936 1.89705
-0.920877 -5.77315 1.6198
0.29322 -0.662864 -0.848698
0.109019 -0.0232326 -0.676832
-0.07394 -3.9566 1.00657
-0.975639 -6.5494 1.29567
-0.878397 -4.42331 1.89513
-0.408569 -1.54661 1.35928
-0.978441 -3.41686 1.88927
-0.577783 0.111875 -0.150391
-0.356982 0.0856291 -0.0157506
0.335619 -0.790058 -0.7355
0.104529 -0.331381 0.401355
-1.9407 -5.9143 2.13639
-0.76056 -4.64295 1.78845
-0.87743 -4.27989 1.90434
-1.11568 -3.77301 1.94836
0.265731 -0.79435 0.580194
-1.13917 -5.53681 1.89166
0.382082 -0.741601 0.0999087
0.39942 -1.52543 0.449367
0.044881 -0.170317 -1.21987
-0.97272 -6.36818 1.40359
-0.772224 -4.00701 1.86621
0.121264 -0.0555677 -0.129243
-0.385613 -2.46607 1.61354
0.185228 -0.265336 -0.877692
-0.286074 -0.355867 0.588472
-0.0730515 -0.00770462 0.0901022
-0.346371 -4.04131 1.49976
-1.18358 -5.85879 1.8496
-0.445492 0.149658 -1.71712
0.379475 -2.006 0.451834
-0.677571 0.330028 -0.992323
0.166714 -0.533357 0.533495
0.256571 -0.701111 -1.02302
0.205633 -0.363496 0.280346
0.295641 -0.444048 0.121589
-0.0735588 0.0599282 -0.0504703
-0.298904 -1.21335 1.1975
0.388791 -1.80733 0.471986
-0.603298 0.234839 -1.71203
-0.34138 -0.765872 0.930822
-0.597985 -2.98264 1.75863
-0.975139 -4.22903 1.94564
-0.0435977 -0.632281 0.784021
0.204271 -0.166424 -0.547225
-0.20427 -2.74056 1.52946
-0.478682 -0.389487 0.586998
0.0329917 -0.300388 0.434911
0.20576 -0.195635 -0.0425554
-0.661534 0.277055 -1.62983
0.387945 -1.83464 0.468908
0.109461 -0.118648 -0.931138
-0.181855 -3.04621 1.49571
-0.00638656 -2.03757 1.31278
0.341826 -0.5042 -0.274095
0.438902 -1.41763 -0.0121625
0.0331224 -0.905476 0.920045
0.378842 -1.77895 0.533147
-0.598105 -1.75884 1.44738
-0.836155 0.280167 -1.71598
-0.951156 -3.14757 1.84228
0.0741183 -1.37114 1.09371
0.115084 -2.16574 1.17477
0.38193 -2.15052 0.324293
-0.565962 -3.10104 1.75867
-0.120937 -3.16489 1.40673
0.249267 -0.651892 -1.01906
-1.21195 -4.12728 1.99397
-0.412268 -0.0710569 -2.01399
-0.609673 -2.0156 1.54275
-0.243066 -4.52188 1.08217
0.0287288 -3.38953 1.05902
-0.288906 0.215361 -1.2914
-0.343602 -2.37807 1.58204
-0.794579 -5.44502 1.59377
-0.275083 0.239565 -1.17462
-0.752314 -5.50749 1.51008
-0.343989 -0.128347 -1.97679
0.0469105 -0.777592 -1.68055
-0.627162 0.283505 -1.57334
0.0563404 -2.87934 1.18422
0.0931675 -0.208617 -1.12662
0.351482 -1.35348 0.624556
0.00721112 -0.454963 -1.58852
-1.36505 -4.73527 2.04888
-0.813336 -4.9688 1.76342
0.109407 -0.734719 -1.49999
0.189018 -0.711993 0.648642
0.299412 -0.890017 0.569983
-0.0554469 -3.41148 1.23677
-1.15047 -6.06707 1.76021
-0.0122069 0.128167 -0.655197
-0.45608 -2.34013 1.61311
0.378013 -2.12425 0.385467
-1.52675 -4.84137 2.0728
-0.0560041 -1.58178 1.25765
-0.382589 -2.70516 1.64308
0.116794 -0.395275 0.458944
0.115577 -1.99195 1.16896
-0.630681 0.323251 -0.877792
-1.64756 -5.65817 2.09624
-1.10869 -6.36714 1.59891
-0.719403 -2.84709 1.76603
-0.405385 0.301394 -0.674386
-0.14516 0.130313 -0.16307
-0.287224 -3.37766 1.56824
-0.600805 0.141199 -0.226141
0.136873 -0.233872 0.224506
-0.425216 -0.848373 0.980996
0.0467079 -0.0439121 -1.0125
0.191617 -1.92592 1.04849
-0.608711 0.337414 -1.17643
0.109626 -0.00461278 -0.563853
0.181126 -0.467889 -1.11906
-0.152542 -2.237 1.45634
-0.258327 0.262833 -1.00663
-0.20539 0.189685 -1.17798
0.19496 -2.17123 1.03609
-0.78991 -3.20199 1.83356
0.09588 0.00812738 -0.613522
-0.160353 -3.18607 1.45386
-1.52085 -6.0783 2.01232
-0.448635 -3.50401 1.69613
-0.30018 -3.93001 1.46928
0.411993 -1.14049 -0.418357
0.151725 -0.845851 0.782158
0.414821 -0.917035 0.0014961
0.293178 -1.47963 0.805471
-0.0448388 -0.796435 0.89821
0.334024 -2.00365 0.680708
-0.0183386 -0.637845 -1.76394
0.0310684 -1.03739 0.991131
0.163519 -1.66075 1.0652
-0.239758 -2.2482 1.5113
0.222058 -0.270071 0.0776423
-0.970541 -5.35384 1.80515
-0.824573 -4.19276 1.8834
0.337893 -0.502383 -0.342506
-0.0224114 -0.470002 -1.6679
-0.168763 0.0369339 -1.43776
-1.04494 -3.53975 1.9123
-0.272475 -0.326817 -2.05166
0.0868202 -0.837456 -1.60579
0.339689 -0.549115 -0.447068
-1.5593 -5.3663 2.0865
-1.20049 -4.58896 2.01227
-0.226292 0.038306 -1.55166
0.174636 -2.41355 1.04632
-0.155725 0.230923 -0.725909
-0.488241 0.316894 -0.764519
-0.392357 0.108517 -0.0671435
-0.232502 -2.02261 -2.56722
0.291289 -1.52298 -1.0948
-0.519862 -4.68266 -2.62781
-1.06046 -4.67718 -4.01689
-2.09009 -7.18161 -5.46235
-1.87387 -6.50962 -5.22673
-0.0708766 -1.69795 -2.17935
-0.79485 -4.34613 -3.50563
-0.470602 -4.31942 -2.6645
0.111296 -2.46803 -1.57656
0.142572 -1.34203 -1.58713
-0.110075 -3.12418 -2.07916
0.0481574 -1.39305 -1.85226
0.0174765 -1.74549 -1.9596
-0.54807 -4.73213 -2.68819
-0.463991 -4.16328 -2.71556
-0.155464 -1.43712 -2.33733
-1.05349 -5.61995 -3.67048
-0.789378 -3.49423 -3.66512
-0.824258 -4.49706 -3.53007
-1.61525 -6.70549 -4.58482
0.0151242 -1.73329 -1.96554
-0.887567 -3.75009 -3.83272
-0.573511 -2.75774 -3.28301
-1.78152 -7.20082 -4.76254
-2.09377 -7.2693 -5.43979
-0.136366 -2.31719 -2.3317
-0.710506 -5.27399 -2.88036
-1.70667 -6.26867 -4.95081
0.328447 -1.41119 -0.938485
-1.08596 -5.68645 -3.72446
0.302631 -1.39356 -1.04867
0.286043 -1.58906 -1.11251
-1.86457 -6.52081 -5.20414
-1.3729 -5.60893 -4.4367
-0.995635 -5.86294 -3.38895
-0.960641 -3.94385 -3.95341
-0.686937 -3.07239 -3.49598
-0.642332 -2.72185 -3.41973
0.218098 -1.64518 -1.36189
-0.318363 -2.94071 -2.69824
-1.60071 -7.1131 -4.35505
-1.42279 -5.07849 -4.67634
-2.16583 -7.63917 -5.45799
-0.157951 -3.27273 -2.17193
-1.52984 -5.65427 -4.75814
0.246692 -1.95278 -1.21527
-1.66296 -6.77551 -4.66784
-1.84094 -6.74465 -5.08113
-0.478222 -3.38282 -2.99878
