ply
format ascii 1.0
comment Created by Open3D
element vertex 400
property double x
property double y
property double z
end_header
-1.79676 -1.51255 -0.440902
-2.62672 -2.56514 -1.19729
-1.91627 -1.04581 -0.479362
-2.65062 -1.16361 -2.39826
-1.79275 -1.50066 -0.436462
-1.03913 -0.178007 -1.56597
-1.39913 -0.328182 -0.364867
-2.22268 -0.808548 -0.952826
-2.25968 -0.894525 -0.910973
-2.58208 -1.00257 -1.66349
-2.88217 -2.08698 -1.29428
-2.76374 -1.26788 -1.45827
-2.90837 -1.90824 -1.32383
-1.0927 -0.239964 -0.184357
-1.53796 -1.30458 -0.277546
-1.31083 -0.240006 -0.381682
-1.42839 -0.201617 -1.13255
-1.54018 -0.423628 -0.415114
-2.91139 -1.85558 -1.33375
-2.91801 -2.61266 -1.4139
-2.34202 -1.88416 -0.834365
-1.50445 -0.224966 -0.999997
-2.69283 -1.28589 -1.27789
-1.21527 -1.5529 -0.221911
-1.46934 -1.39936 -0.268397
-2.30103 -1.43835 -0.759496
-2.91674 -1.78736 -1.35354
-1.53888 -1.28325 -0.27411
-2.03881 -0.57265 -1.48308
-1.76405 -0.511818 -0.593065
-2.81726 -1.27164 -2.3369
-2.78642 -1.30009 -1.46392
-1.28544 -0.232864 -0.363368
-2.35777 -0.947926 -2.28876
-1.6065 -0.450208 -0.462356
-2.6685 -1.22895 -1.29143
-2.28892 -2.31397 -0.917436
-2.65766 -1.0733 -1.71589
-2.5305 -1.13765 -1.12639
-1.87309 -0.611266 -0.629396
-2.52428 -1.00324 -2.09973
-1.45213 -0.884584 -0.196116
-1.77658 -0.530712 -1.88817
-1.86626 -1.21827 -0.440683
-1.81758 -0.500667 -1.72188
-1.02815 -0.0286308 -0.964741
-2.26827 -1.30994 -0.739337
-1.93557 -1.73766 -0.562843
-2.82892 -1.29582 -2.40762
-2.5154 -1.86251 -0.955817
-1.1874 -0.139746 -0.410624
-2.16924 -2.07867 -0.779147
-1.07028 -0.647123 -0.0284893
-1.47625 -0.94019 -0.208688
-2.93364 -2.15094 -1.34787
-2.52736 -0.987991 -1.37778
-2.64819 -1.06471 -1.8426
-2.35681 -0.951419 -1.0153
-1.95365 -1.34152 -0.503955
-1.37949 -0.999602 -0.165343
-2.82543 -1.28761 -2.38252
-2.65974 -1.38766 -1.15255
-2.92836 -1.64246 -1.42331
-1.05819 -0.0519441 -0.464032
-1.2821 -0.325043 -0.259183
-1.25327 -0.277165 -1.69037
-1.07834 -0.192821 -0.218772
-1.69359 -0.508473 -0.505603
-2.90273 -2.0408 -1.31287
-2.6705 -1.39601 -1.16359
-2.93159 -1.38398 -2.43373
-1.5059 -0.306347 -0.53115
-2.79874 -1.41329 -1.35822
-2.39425 -0.844597 -1.70222
-1.55039 -0.932582 -0.248329
-1.6277 -0.390139 -0.569249
-2.46939 -1.03059 -1.13272
-2.25566 -1.76236 -0.754624
-2.56406 -1.05609 -2.21027
-1.01337 -0.00577706 -0.766369
-1.17802 -1.42907 -0.174507
-1.02604 -0.531758 -0.023278
-1.79774 -0.613288 -0.533823
-1.02384 -0.921763 -0.021687
-1.76423 -0.470898 -1.703
-1.31893 -0.382905 -0.245472
-2.4487 -0.928085 -1.99149
-2.2015 -0.747242 -1.89048
-2.60026 -1.0678 -1.40137
-1.85462 -0.528492 -0.711208
-1.57167 -1.0757 -0.263772
-2.24053 -0.710656 -1.42452
-1.34246 -1.71321 -0.312096
-1.49146 -0.230856 -0.736112
-2.60166 -1.13906 -1.26528
-2.30367 -0.912076 -0.966268
-1.41469 -0.441079 -0.28396
-1.79464 -0.445852 -0.764771
-1.17228 -1.46998 -0.184449
-2.9281 -1.66058 -1.41377
-2.24796 -0.874804 -2.25099
-1.58379 -0.382771 -1.66297
-2.1866 -1.99256 -0.764411
-1.62699 -0.35682 -1.49484
-2.74698 -1.51566 -1.21579
-2.22795 -0.71468 -1.62067
-2.03217 -0.556712 -1.36259
-1.35459 -1.13598 -0.171092
-2.76515 -1.26127 -1.47401
-2.99051 -1.5482 -2.89359
-2.08668 -1.5454 -0.611188
-2.85373 -2.17853 -1.27631
-1.92197 -0.501183 -0.94263
-1.57803 -1.60044 -0.362901
-1.31057 -0.511047 -0.175723
-1.43687 -0.537642 -0.25057
-2.30176 -1.10345 -0.824663
-2.02231 -1.20654 -0.546997
-2.28302 -0.800014 -1.11128
-2.44642 -0.944617 -1.22829
-1.22297 -0.473373 -0.135941
-2.97274 -1.78433 -1.42924
-1.29963 -0.995458 -0.13061
-1.92937 -1.9027 -0.604711
-2.51272 -1.1961 -1.05103
-2.82764 -1.78153 -1.24721
-2.02132 -0.551077 -1.1324
-1.98256 -1.69959 -0.578611
-1.97562 -0.513833 -1.26351
-2.11234 -0.935672 -0.685964
-2.81023 -1.90085 -1.21953
-1.27074 -0.121849 -1.02197
-2.45684 -1.65976 -0.891577
-2.29643 -0.763279 -1.32178
-2.05326 -0.666073 -0.847814
-2.04871 -1.92772 -0.671716
-1.78907 -0.52094 -1.83883
-2.31732 -0.882278 -1.03217
-1.66025 -0.416811 -1.67229
-1.2108 -0.20941 -0.317116
-2.653 -1.07185 -1.89057
-1.20036 -1.15473 -0.116666
-2.91509 -2.15291 -1.33015
-2.90738 -2.49184 -1.37643
-1.37645 -1.37846 -0.227731
-1.98526 -0.620847 -1.86216
-2.51043 -1.11114 -1.11707
-2.89268 -1.35461 -2.44592
-2.57302 -1.01615 -1.47044
-1.64331 -1.24949 -0.318354
-2.05327 -0.607518 -1.64687
-2.45074 -1.5398 -0.885969
-1.86826 -0.85596 -0.478704
-2.64532 -1.82837 -1.06152
-1.03359 -0.449338 -0.0443497
-2.06938 -0.646685 -0.920292
-2.76858 -1.26548 -1.4758
-2.26597 -0.74097 -1.27935
-1.23593 -0.258525 -1.64935
-2.24861 -0.725025 -1.58232
-1.8378 -0.427934 -1.28212
-2.19816 -0.709355 -1.11577
-2.8802 -2.54336 -1.3674
-2.90759 -1.37828 -1.67147
-1.65672 -1.44278 -0.358673
-2.49721 -1.06176 -2.38941
-2.7651 -1.54812 -1.22769
-1.5165 -0.22988 -0.954297
-1.75475 -0.534771 -1.92961
-2.34424 -1.48059 -0.794852
-2.68856 -2.05583 -1.11959
-2.93212 -1.39712 -1.71307
-1.42044 -0.204283 -1.174
-2.62254 -1.03924 -1.7696
-1.91305 -0.564724 -1.78892
-2.6098 -1.05251 -1.49235
-1.64242 -0.400293 -1.63979
-2.44503 -1.51324 -0.882066
-2.4703 -0.953583 -1.27864
-1.20925 -0.196632 -0.333641
-1.7446 -1.18016 -0.365362
-2.4994 -2.05909 -0.977207
-2.11482 -1.33841 -0.613953
-2.6948 -1.1108 -1.71382
-1.77786 -1.92052 -0.541566
-1.87478 -1.14447 -0.444572
-1.64554 -0.994348 -0.301977
-1.75116 -0.371174 -0.949659
-2.50576 -0.933812 -1.59845
-1.19434 -0.738417 -0.0760988
-2.99217 -1.68888 -1.50137
-1.97081 -0.854482 -0.57427
-1.39977 -0.71596 -0.179945
-1.02236 -0.222336 -0.150819
-2.19339 -0.847298 -2.25515
-1.68955 -0.412767 -0.629778
-1.46386 -0.765691 -0.210159
-1.81704 -1.15716 -0.407513
-2.19109 -0.697144 -1.13706
-1.93645 -1.79983 -0.579304
-1.71332 -0.77267 -0.37628
-1.35035 -0.797496 -0.146689
-2.37144 -0.964458 -2.31659
-2.19279 -0.758068 -1.95507
-1.59184 -1.61541 -0.372624
-2.0104 -0.683991 -2.03434
-2.13704 -0.731771 -0.903824
-1.47479 -0.207974 -0.942248
-1.88691 -1.85356 -0.570077
-2.00535 -1.90545 -0.643107
-2.41409 -0.85345 -1.55941
-2.94209 -1.35634 -2.15483
-1.52809 -0.236888 -0.993916
-1.7583 -0.459146 -0.663401
-2.0884 -0.618803 -1.06222
-2.25134 -1.3878 -0.719764
-1.88153 -0.488144 -1.5278
-2.73862 -1.32035 -1.33142
-1.66176 -1.24266 -0.326789
-2.19511 -1.70289 -0.704936
-1.10621 -0.71922 -0.0398172
-1.70962 -0.352535 -1.24867
-1.82456 -0.41213 -1.15355
-2.98282 -1.56409 -2.96064
-1.49678 -0.255527 -0.642357
-2.18954 -1.87813 -0.73723
-1.53214 -0.256984 -1.19459
-1.50426 -0.22399 -0.977328
-1.89066 -0.465488 -1.3438
-1.13875 -1.36701 -0.145883
-1.19264 -0.135559 -1.25767
-2.4915 -2.37511 -1.05391
-2.41129 -1.90427 -0.885418
-1.52252 -0.263631 -1.26508
-1.59836 -0.307846 -0.70944
-1.49334 -0.406862 -0.382029
-1.84822 -1.08955 -0.427807
-1.23442 -0.0975595 -0.686141
-2.29233 -1.51119 -0.753069
-1.81396 -1.73576 -0.502696
-2.00576 -0.554407 -1.49936
-2.25853 -1.04807 -0.799186
-2.68059 -1.19985 -2.45551
-1.97286 -0.511705 -1.18358
-1.83414 -0.418268 -1.15697
-1.41939 -0.231655 -0.554195
-1.80836 -0.470792 -0.734599
-2.95509 -1.37094 -1.9717
-1.52793 -1.65154 -0.357648
-2.46556 -1.13122 -1.02587
-1.93083 -0.796782 -0.560707
-2.93357 -2.22336 -1.35385
-2.34686 -0.915767 -2.2028
-2.00422 -0.547753 -1.45689
-2.4757 -1.06331 -1.10486
-2.52805 -0.953915 -1.61059
-1.15402 -0.569992 -0.0744796
-2.6082 -1.67948 -1.02683
-1.91931 -1.18372 -0.474433
-2.52598 -0.975341 -1.42095
-1.3221 -0.175122 -0.533894
-1.49807 -0.222138 -0.850628
-2.48862 -1.6342 -0.918072
-1.25279 -0.253774 -1.61893
-2.25455 -1.92651 -0.787667
-2.86716 -1.48033 -1.42802
-2.75977 -2.22686 -1.2047
-1.11119 -0.0589939 -0.988542
-2.37623 -1.68802 -0.829493
-1.38607 -1.67046 -0.312577
-2.91199 -1.57089 -1.43937
-2.10336 -0.749618 -0.817826
-1.82638 -2.00365 -0.589593
-1.15166 -1.42234 -0.164805
-2.65889 -2.40499 -1.17109
-2.31501 -1.06908 -0.857388
-1.14648 -0.127124 -0.384397
-1.72117 -0.948944 -0.351128
-2.51687 -1.12407 -1.1156
-1.25284 -0.102835 -0.732103
-2.70412 -1.81958 -1.11586
-1.52353 -0.275772 -0.637301
-1.77093 -1.60407 -0.448673
-1.3932 -0.17824 -1.06876
-1.11197 -0.529573 -0.0621052
-1.75047 -1.00587 -0.366522
-2.19722 -0.71316 -1.74156
-2.12758 -1.405 -0.625287
-1.19055 -0.562956 -0.0938048
-1.97155 -0.522849 -1.04195
-1.80114 -0.451049 -0.766079
-1.26787 -0.169246 -0.458071
-2.20827 -0.848556 -0.876063
-2.60176 -1.0754 -1.38613
-1.02525 -0.113979 -0.276288
-2.07019 -0.662432 -1.84993
-2.50141 -0.940219 -1.47178
-2.54059 -0.999573 -1.39057
-2.61576 -1.60125 -1.04032
-2.39002 -1.19954 -0.888451
-1.53497 -0.537486 -0.326895
-2.1124 -0.796513 -0.781296
-2.9025 -2.56262 -1.38932
-2.74519 -1.9802 -1.15995
-2.02673 -1.95721 -0.668817
-2.386 -0.981436 -2.34385
-1.58531 -1.42214 -0.322094
-1.78591 -0.415043 -0.840736
-1.69433 -0.39446 -1.52621
-2.1453 -0.68699 -1.01735
-1.8811 -1.45949 -0.475805
-1.80305 -0.463692 -1.60211
-1.92061 -1.4235 -0.492959
-1.71631 -0.500709 -1.87368
-2.49266 -2.02677 -0.965858
-2.01403 -0.858604 -0.616845
-2.23722 -0.817663 -2.08166
-2.80897 -2.22219 -1.24402
-2.20049 -0.756222 -1.93008
-1.19775 -0.114127 -1.14604
-2.23563 -1.22718 -0.721044
-1.93905 -0.571109 -1.76336
-2.79857 -2.075 -1.21591
-1.79721 -1.96052 -0.562822
-2.41106 -1.75332 -0.862762
-2.99216 -2.25931 -1.41278
-1.90445 -1.25344 -0.466627
-1.86227 -0.548404 -1.81862
-1.13875 -0.0600899 -0.620288
-2.35074 -0.817133 -1.30464
-1.22397 -0.392812 -0.171488
-1.27053 -0.898712 -0.110881
-1.66989 -1.23675 -0.330226
-2.454 -0.99316 -1.15435
-2.8116 -1.30756 -1.5189
-2.25502 -1.59371 -0.730738
-1.66121 -0.453524 -1.7954
-2.85456 -1.47449 -1.40943
-1.95276 -0.561676 -0.842157
-1.22807 -0.0915562 -0.728843
-1.76929 -0.409966 -1.42428
-2.12001 -0.926656 -0.69901
-2.26605 -0.79995 -1.94876
-1.81858 -0.81458 -0.449133
-2.57132 -1.23206 -1.11518
-1.7656 -0.820555 -0.404182
-2.01413 -0.688574 -2.04315
-1.95377 -0.589296 -0.788304
-2.13735 -1.07817 -0.660381
-1.89322 -0.465163 -1.01886
-1.05754 -0.0486772 -0.475628
-2.21712 -0.707248 -1.62077
-2.33711 -0.924669 -1.01186
-2.01954 -1.20912 -0.544861
-2.45879 -0.997784 -2.25201
-1.04321 -0.085468 -1.23709
-2.50029 -1.05546 -2.3622
-2.22261 -0.80857 -2.07867
-1.84305 -1.84967 -0.548482
-2.87202 -1.43051 -2.78714
-1.16307 -0.792037 -0.0625295
-2.20477 -1.25054 -0.690143
-1.16605 -0.226338 -1.61193
-1.73518 -0.420729 -0.698211
-1.38997 -0.184053 -1.12473
-2.48552 -1.42165 -0.932037
-1.44705 -0.300301 -1.55732
-1.23083 -0.133056 -1.18493
-1.19128 -0.154093 -0.385529
-1.38898 -0.202763 -1.23981
-1.24212 -0.0961029 -0.823051
-1.80326 -1.25826 -0.405547
-1.00107 -0.165859 -1.55712
-2.29679 -0.760225 -1.57963
-2.09491 -1.63116 -0.629672
-1.30457 -1.52567 -0.241724
-2.88076 -2.43943 -1.34366
-1.28167 -0.116149 -0.738432
-1.11274 -0.074522 -1.0844
-1.90592 -1.02033 -0.474575
-1.17396 -1.3368 -0.148662
-2.81253 -1.91048 -1.2217
-1.03748 -0.107388 -1.32982
-2.36542 -1.95944 -0.865287
-2.2423 -0.718378 -1.55938
-1.54062 -1.51799 -0.325948
-2.34179 -0.84 -1.18121
-1.3718 -0.213037 -0.518097
-2.02248 -0.659179 -1.93131
-2.0112 -1.47215 -0.554018
-1.62295 -1.55662 -0.370107
-1.19931 -0.0861185 -0.636983
-1.67631 -0.384503 -1.51886
-1.14003 -0.26817 -0.195098
-1.63141 -1.53161 -0.36754
-2.1911 -1.31008 -0.673682
-1.02244 -0.0254205 -0.954347
-1.00868 -0.307641 -0.0866135
-1.39184 -0.469286 -0.249715
-2.92064 -1.38949 -1.69042
