ply
format ascii 1.0
comment Created by Open3D
element vertex 400
property double x
property double y
property double z
end_header
1.12629 1.78568 -1.27734
2.22121 1.5393 -2.00017
2.06266 1.93664 -2.00724
1.16961 2.31097 -2.16564
2.295 1.75722 -2.19717
0.947127 0.877845 -0.41871
2.23579 1.73539 -2.09649
1.70611 1.055 -1.16495
1.97435 0.90755 -1.6072
1.17515 1.42474 -0.87607
1.23687 0.812437 -0.61503
1.2588 1.799 -1.31468
2.75123 1.47621 -3.04674
1.70874 1.98128 -1.73918
2.31316 1.76877 -2.23095
2.25288 1.95189 -2.2553
1.12916 2.26685 -2.08877
0.711901 1.82325 -1.42092
2.12115 1.6364 -1.88239
2.51159 1.14644 -2.60449
1.09162 1.77721 -1.26379
1.4883 0.594111 -0.94185
1.78415 1.8607 -1.66355
1.65059 0.822167 -1.10745
1.64111 1.18834 -1.10322
1.46977 1.76807 -1.35494
2.34784 1.32278 -2.20956
2.08439 1.56836 -1.80096
1.74134 0.431236 -1.44819
1.92499 1.09616 -1.48439
1.44481 1.66792 -1.23602
1.36948 2.57429 -2.66995
1.70239 0.865605 -1.17444
1.27416 2.05318 -1.68735
0.557547 1.86117 -1.58099
1.07376 1.16072 -0.6279
2.11595 0.834591 -1.90917
2.0513 1.24319 -1.68323
1.47493 0.828531 -0.87215
0.86308 0.914968 -0.39653
1.53633 0.771043 -0.95833
2.05557 1.85921 -1.93497
2.19227 1.77775 -2.05605
1.10582 1.84737 -1.36511
0.374512 1.42498 -0.95651
1.28285 1.05016 -0.70744
1.69304 1.62271 -1.37675
2.059 1.98903 -2.05077
1.1719 1.5289 -0.97551
1.27677 0.578859 -0.67397
2.16469 0.974718 -1.94002
1.61678 1.64075 -1.32673
1.5185 1.52289 -1.15626
1.18725 1.90207 -1.44847
1.66722 2.30115 -2.16942
1.78721 2.24858 -2.14237
1.49774 2.2912 -2.1093
0.82221 0.764467 -0.31636
1.03237 1.75762 -1.236
1.11958 1.30805 -0.75443
0.645617 1.46925 -0.89828
1.34064 2.4602 -2.43251
1.33223 1.4878 -1.00617
1.2659 1.85043 -1.38478
1.03332 1.24386 -0.67036
1.50565 2.21411 -1.98054
1.47446 0.78445 -0.87589
0.635901 1.5925 -1.07827
1.62362 0.80799 -1.07173
0.68064 1.6288 -1.11619
1.58302 1.62996 -1.2915
0.93541 0.748734 -0.37197
2.18454 1.23368 -1.91258
2.20443 0.886648 -2.0626
0.87467 1.13151 -0.53607
1.64364 2.19629 -1.99584
1.12426 0.408057 -0.54997
1.32783 0.406876 -0.80023
1.77316 1.09293 -1.25816
2.05337 0.91267 -1.75027
0.986661 1.00773 -0.49742
1.86108 1.24929 -1.39644
1.00881 1.87711 -1.41804
1.32974 1.00204 -0.73335
0.762678 0.666144 -0.25985
1.52915 1.0011 -0.9397
2.40876 1.76174 -2.38345
2.31812 1.24997 -2.16187
1.3005 0.141669 -0.93143
1.8823 1.91661 -1.80455
1.38634 1.2244 -0.86511
2.62336 1.33973 -2.78711
2.2411 0.903145 -2.13086
0.79681 1.48198 -0.88384
2.28736 1.65941 -2.1443
2.08733 0.677019 -1.94968
0.842405 1.71478 -1.19792
1.37519 2.72433 -3.01086
0.942955 1.29044 -0.68388
0.988217 1.29806 -0.70138
0.855719 0.914777 -0.39357
1.57297 1.26991 -1.05617
0.737357 1.55614 -0.99273
1.16227 0.600433 -0.54622
0.529559 1.38464 -0.82359
0.531292 1.83902 -1.55737
1.57209 1.25829 -1.05061
1.9717 0.718534 -1.68987
0.302041 1.6738 -1.42885
2.13647 0.944475 -1.89696
1.92916 1.07154 -1.49328
0.433499 1.32813 -0.78809
1.11741 1.01601 -0.57408
1.83183 1.6873 -1.55848
0.712544 1.93626 -1.62576
0.213511 1.3135 -0.89646
2.17099 1.02707 -1.93272
0.942411 1.04142 -0.49685
1.49492 1.0728 -0.91324
1.72264 1.66398 -1.43537
2.28834 1.31714 -2.09654
1.41107 2.65163 -2.83269
1.00172 1.63197 -1.06565
0.848875 1.65566 -1.10953
1.26134 1.549 -1.02862
1.46324 1.02963 -0.8708
1.97555 0.9069 -1.60957
0.945175 0.712184 -0.3705
1.33013 2.4475 -2.40807
1.03862 1.31496 -0.73059
1.56484 0.912309 -0.97993
2.20459 1.30632 -1.94425
0.711081 1.60478 -1.06974
0.114134 1.48857 -1.26561
1.70503 0.856257 -1.18022
0.711639 1.67939 -1.18289
1.31547 0.223389 -0.89234
1.07623 0.667848 -0.46361
1.05805 2.16056 -1.90269
0.427326 1.39304 -0.8805
0.612687 0.946441 -0.35956
1.61259 0.478641 -1.18957
0.726708 1.91605 -1.58029
1.08556 0.747016 -0.4771
0.299276 1.37525 -0.92937
2.4295 1.19413 -2.40441
1.84702 2.1111 -1.99321
2.63237 1.33866 -2.80797
1.19698 2.47928 -2.51151
1.06772 1.04421 -0.5578
0.842871 1.42007 -0.80669
1.2328 1.93853 -1.50619
0.933324 1.84109 -1.37419
1.60643 0.451495 -1.19631
2.00934 0.64643 -1.8104
1.41006 2.50752 -2.52065
1.9616 1.83671 -1.8112
0.485401 1.01061 -0.41768
1.55641 0.444862 -1.1184
1.81244 1.4857 -1.4131
1.38631 2.0225 -1.65486
1.64476 0.268955 -1.40421
1.41799 0.949008 -0.8103
1.58914 1.65519 -1.3179
0.823921 1.82286 -1.37463
2.49152 1.72053 -2.51489
1.79143 1.90268 -1.71199
1.11154 0.378429 -0.54623
0.62738 1.97835 -1.76128
1.60001 2.61263 -2.73099
1.84499 1.93756 -1.79275
0.839166 1.57955 -1.00536
1.91267 2.05111 -1.97354
1.66174 0.450314 -1.29137
1.89306 2.17051 -2.10256
2.07684 2.106 -2.18746
0.58419 1.00469 -0.40398
1.03525 0.954898 -0.49831
1.41326 0.512419 -0.86929
1.35938 0.770584 -0.74043
2.44725 1.63608 -2.41319
1.83646 1.9699 -1.81995
2.0815 1.72604 -1.87535
1.8166 2.07765 -1.92973
0.530443 1.8119 -1.5069
1.43869 0.858477 -0.82794
1.91211 1.69996 -1.65338
0.38369 1.29891 -0.7727
0.762289 2.05508 -1.82785
2.38657 1.35407 -2.28207
1.72592 2.36992 -2.30436
2.33468 1.59633 -2.20419
1.17078 0.446128 -0.58936
1.1227 0.855104 -0.52477
1.33283 1.91241 -1.48441
1.30616 2.68513 -2.94209
2.02952 0.888374 -1.71537
2.18797 1.79595 -2.06079
2.27543 1.21053 -2.08601
0.160846 1.4894 -1.22294
1.51164 1.24636 -0.98601
0.800728 0.899581 -0.36627
0.961064 1.33555 -0.72942
2.47663 1.25623 -2.48647
0.437572 1.44858 -0.95576
1.48028 0.494374 -0.97341
1.31477 2.05999 -1.70131
1.51285 2.58172 -2.66692
0.695722 2.05965 -1.87916
1.77221 1.63043 -1.4573
0.793869 0.71176 -0.28674
1.66734 1.67322 -1.39493
1.57719 2.65037 -2.80989
2.06669 1.75975 -1.87731
1.44328 0.607376 -0.875
0.815754 2.07056 -1.82861
1.66644 1.65372 -1.37802
1.61712 0.946187 -1.0464
0.970299 1.00148 -0.48648
2.23842 1.97556 -2.25427
1.85599 0.802347 -1.43843
1.16113 0.394155 -0.59648
1.32455 2.13093 -1.81767
2.28579 1.44013 -2.09286
0.824649 1.88589 -1.48149
0.8126 2.22073 -2.14155
1.92721 0.916106 -1.52173
1.1717 2.24653 -2.03817
0.869055 1.54907 -0.96212
0.997607 2.10194 -1.81067
1.35121 0.494819 -0.79268
1.10571 2.3728 -2.31528
2.03755 0.960032 -1.70371
2.34351 1.79899 -2.2933
0.787604 0.668074 -0.27202
1.40168 1.69438 -1.24103
1.42308 0.611704 -0.84672
0.76282 1.69542 -1.19025
1.08106 1.97395 -1.56527
0.286088 1.56565 -1.24727
1.21412 2.5706 -2.71054
0.601394 1.78854 -1.41863
1.36527 1.8067 -1.35511
0.680859 1.79708 -1.3905
1.87935 1.14309 -1.41293
0.660275 2.00873 -1.7996
1.06693 1.22793 -0.67125
1.32739 2.13915 -1.83161
1.42007 1.27481 -0.91835
1.33638 0.595596 -0.74094
1.66123 2.31025 -2.1822
0.944751 2.29394 -2.22128
1.3367 1.12744 -0.78089
0.869557 2.09967 -1.85862
1.13591 2.51137 -2.60878
1.2455 1.32641 -0.83011
1.48712 1.33565 -1.00748
1.3296 2.25979 -2.04308
2.43073 1.65543 -2.38764
1.03775 1.59567 -1.0225
1.59293 1.91538 -1.59051
1.49767 0.855302 -0.89837
2.29453 1.21608 -2.12207
1.03722 1.28198 -0.70228
1.9908 1.33044 -1.59685
0.312004 1.68601 -1.44296
1.74449 2.0653 -1.86577
0.461642 1.32577 -0.77272
1.56759 0.798903 -0.99547
0.834322 1.79063 -1.31855
1.31496 1.09629 -0.75067
0.458226 1.50552 -1.03046
1.10958 2.47382 -2.53567
0.0544331 1.41201 -1.19031
1.84123 1.8344 -1.6888
1.58318 2.02806 -1.72909
0.558225 0.857657 -0.29542
1.08716 1.58396 -1.01526
1.22776 0.922456 -0.62453
0.853379 1.47361 -0.8692
1.59304 0.797249 -1.03083
1.45755 0.224648 -1.11374
2.11924 1.49439 -1.82751
0.81021 0.66951 -0.2836
1.27995 1.91646 -1.4797
1.32614 1.34413 -0.89144
0.974089 2.09451 -1.80471
0.952289 1.29429 -0.68937
1.04551 1.4476 -0.85779
2.54571 1.37985 -2.60587
1.62948 1.27544 -1.11749
1.81775 1.19983 -1.32914
1.62792 1.8585 -1.54597
1.99847 1.96663 -1.96576
2.11965 1.41624 -1.81021
1.10386 0.498871 -0.5041
2.18316 0.811978 -2.06142
1.13387 2.29371 -2.14116
1.17894 1.87668 -1.41052
0.596734 1.10864 -0.49456
2.35247 1.44668 -2.21441
2.0248 1.69006 -1.78105
0.657829 1.04641 -0.43855
0.928148 1.66289 -1.10911
0.309663 1.23402 -0.72508
1.22085 1.74076 -1.23154
0.903548 1.41497 -0.80272
2.55453 1.3486 -2.63144
1.04365 1.11729 -0.58642
1.12377 1.51001 -0.94168
0.365581 1.34255 -0.84195
2.07971 1.79884 -1.91984
0.923941 1.04033 -0.48907
1.30811 0.338697 -0.80889
1.4982 0.825986 -0.90117
1.52667 1.81106 -1.43299
1.82481 0.542202 -1.52289
1.10769 2.27995 -2.1216
0.26322 1.55568 -1.24879
1.14353 2.12353 -1.8144
1.54001 1.95429 -1.61208
1.10242 2.25964 -2.08252
1.4983 0.863038 -0.89877
1.45835 2.77447 -3.10568
2.03028 0.946922 -1.6948
1.69387 1.74959 -1.48373
2.25291 1.34917 -2.03025
1.54001 0.431144 -1.10048
0.927399 1.89519 -1.46418
2.00505 1.39989 -1.63231
1.53238 2.25606 -2.05589
1.03466 0.891782 -0.4741
1.59851 2.62355 -2.75357
0.480861 1.79887 -1.51821
1.45099 0.372879 -0.99698
0.657524 1.14959 -0.52927
0.302649 1.49349 -1.11232
0.54979 1.27808 -0.68285
0.653374 0.920476 -0.3453
2.03618 1.67239 -1.78535
1.33266 1.98363 -1.5866
2.21068 0.939957 -2.04819
1.80558 2.33406 -2.28172
1.27423 0.889936 -0.65929
1.54428 1.11195 -0.97539
1.85595 1.70935 -1.59967
1.75231 1.50987 -1.35962
2.36688 1.67238 -2.28063
1.32992 1.85977 -1.41213
2.77179 1.40302 -3.11541
1.56728 0.302677 -1.23671
2.00984 1.03747 -1.63351
0.812961 0.851908 -0.34723
1.93399 2.16888 -2.13178
1.51418 1.75964 -1.36987
0.417858 1.56396 -1.14774
1.61369 0.750085 -1.07134
1.31386 0.556394 -0.72411
1.34772 0.603806 -0.75276
1.74131 1.04442 -1.21287
1.94959 0.609795 -1.71634
0.910393 0.58231 -0.33234
1.46222 2.1833 -1.92121
0.528534 1.67738 -1.26818
1.00662 0.431321 -0.42394
1.03873 2.37266 -2.34438
0.546756 1.52818 -1.01976
1.64484 1.71048 -1.40943
1.50325 2.28678 -2.10251
2.53648 1.60991 -2.57833
1.21033 0.509577 -0.61529
0.798111 1.22568 -0.60338
1.17194 2.24267 -2.03067
0.802821 1.397 -0.78143
1.38301 0.640872 -0.7874
0.799858 1.68449 -1.16278
1.53984 1.6566 -1.28396
2.2208 1.23624 -1.97858
1.84785 2.25827 -2.19174
1.61146 1.4995 -1.21602
1.57892 0.179018 -1.36615
1.46154 1.46147 -1.068
0.747398 1.29026 -0.66635
1.37979 2.67011 -2.88266
2.12352 2.07815 -2.20779
2.19209 1.82199 -2.08261
1.79388 2.0988 -1.94061
1.37677 1.84114 -1.40219
1.29126 0.425155 -0.74333
2.19351 1.96486 -2.18765
0.891365 2.02286 -1.70174
1.53713 2.31486 -2.15717
1.79877 2.01191 -1.83788
2.46813 1.55938 -2.44051
1.83909 1.45916 -1.43198
1.92847 0.919713 -1.52282
0.845198 2.10566 -1.88282
1.59197 1.55916 -1.24175
1.23438 1.57315 -1.04266
1.33134 1.83479 -1.37977
