ply
format ascii 1.0
comment Created by Open3D
element vertex 400
property double x
property double y
property double z
end_header
-0.46626 -1.27734 -2.05907
0.48218 -2.00017 -2.65908
0.08911 -2.00724 -2.82793
-0.80706 -2.16564 -2.46114
0.38027 -2.19717 -2.86535
0.04899 -0.41871 -1.29045
0.35384 -2.09649 -2.80805
0.46041 -1.16495 -1.9524
0.75434 -1.6072 -2.03781
-0.17648 -0.87607 -1.8384
0.30012 -0.61503 -1.44908
-0.38198 -1.31468 -2.16219
0.90157 -3.04674 -2.98925
-0.19272 -1.73918 -2.60924
0.38494 -2.23095 -2.88636
0.21283 -2.2553 -2.97322
-0.80447 -2.08877 -2.40134
-0.78584 -1.42092 -1.79262
0.34277 -1.88239 -2.65699
0.96531 -2.60449 -2.58662
-0.48479 -1.26379 -2.02857
0.63229 -0.94185 -1.47249
-0.05413 -1.66355 -2.5773
0.58578 -1.10745 -1.7485
0.32016 -1.10322 -2.00072
-0.21093 -1.35494 -2.2895
0.72483 -2.20956 -2.59552
0.36489 -1.80096 -2.58288
0.92638 -1.44819 -1.53624
0.58607 -1.48439 -2.13628
-0.15776 -1.23602 -2.20103
-0.85193 -2.66995 -2.78867
0.5917 -1.17444 -1.81585
-0.55085 -1.68735 -2.35279
-0.9218 -1.58099 -1.71029
-0.06149 -0.6279 -1.58002
0.90606 -1.90917 -2.08635
0.57142 -1.68323 -2.32956
0.45707 -0.87215 -1.62879
-0.03669 -0.39653 -1.25727
0.54114 -0.95833 -1.63156
0.13885 -1.93497 -2.76817
0.29311 -2.05605 -2.80723
-0.52435 -1.36511 -2.08822
-0.74279 -0.95651 -1.27243
0.16454 -0.70744 -1.64969
0.04973 -1.37675 -2.34459
0.04948 -2.05077 -2.86239
-0.25244 -0.97551 -1.90975
0.4935 -0.67397 -1.31213
0.84144 -1.94002 -2.2199
-0.01695 -1.32673 -2.30342
-0.0031 -1.15626 -2.15059
-0.50545 -1.44847 -2.18448
-0.44826 -2.16942 -2.80606
-0.32624 -2.14237 -2.85373
-0.56106 -2.1093 -2.67918
0.04083 -0.31636 -1.12195
-0.51283 -1.236 -1.97282
-0.13327 -0.75443 -1.71659
-0.5824 -0.89828 -1.49544
-0.79165 -2.43251 -2.6876
-0.11 -1.00617 -1.99406
-0.41333 -1.38478 -2.20358
-0.14888 -0.67036 -1.61021
-0.50096 -1.98054 -2.63027
0.48791 -0.87589 -1.59729
-0.67642 -1.07827 -1.57572
0.57674 -1.07173 -1.71941
-0.67045 -1.11619 -1.63302
-0.03319 -1.2915 -2.27192
0.132 -0.37197 -1.19087
0.67236 -1.91258 -2.41704
0.93181 -2.0626 -2.18572
-0.18161 -0.53607 -1.41858
-0.39078 -1.99584 -2.71524
0.50643 -0.54997 -1.08351
0.65121 -0.80023 -1.22662
0.48099 -1.25816 -2.02663
0.8066 -1.75027 -2.09731
-0.0149 -0.49742 -1.41025
0.4326 -1.39644 -2.19936
-0.61398 -1.41804 -2.04065
0.23172 -0.73335 -1.64882
0.06826 -0.25985 -1.01033
0.37339 -0.9397 -1.78916
0.45751 -2.38345 -2.94899
0.75529 -2.16187 -2.52302
0.81942 -0.93143 -1.01977
-0.02426 -1.80455 -2.68623
0.11451 -0.86511 -1.84607
0.90766 -2.78711 -2.80233
0.94608 -2.13086 -2.22332
-0.48449 -0.88384 -1.61135
0.44403 -2.1443 -2.79079
0.99724 -1.94968 -1.95469
-0.61686 -1.19792 -1.8082
-0.95399 -3.01086 -2.8988
-0.24571 -0.68388 -1.57925
-0.21909 -0.70138 -1.61664
-0.04176 -0.39357 -1.25193
0.2143 -1.05617 -2.01022
-0.57897 -0.99273 -1.62175
0.39728 -0.54622 -1.24642
-0.60463 -0.82359 -1.35354
-0.9247 -1.55737 -1.67606
0.22189 -1.05061 -2.00138
0.88612 -1.68987 -1.90228
-0.96998 -1.42885 -1.39713
0.84287 -1.89696 -2.17856
0.60643 -1.49328 -2.12181
-0.6326 -0.78809 -1.24566
0.0717 -0.57408 -1.50856
0.1022 -1.55848 -2.4884
-0.8653 -1.62576 -1.87299
-0.77781 -0.89646 -1.07976
0.80888 -1.93272 -2.26137
-0.07001 -0.49685 -1.40278
0.29848 -0.91324 -1.81565
0.04148 -1.43537 -2.3947
0.68674 -2.09654 -2.54946
-0.87721 -2.83269 -2.87276
-0.44565 -1.06565 -1.8623
-0.57048 -1.10953 -1.77097
-0.2034 -1.02862 -1.98721
0.30661 -0.8708 -1.76272
0.75565 -1.60957 -2.0382
0.16475 -0.3705 -1.17193
-0.7901 -2.40807 -2.67119
-0.1954 -0.73059 -1.66423
0.46141 -0.97993 -1.75161
0.63517 -1.94425 -2.48259
-0.63194 -1.06974 -1.63756
-0.97187 -1.26561 -1.13328
0.60017 -1.18022 -1.8111
-0.6843 -1.18289 -1.69071
0.77222 -0.89234 -1.08814
0.28877 -0.46361 -1.23325
-0.77959 -1.90269 -2.2759
-0.68286 -0.8805 -1.28719
-0.236 -0.35956 -1.10247
0.80182 -1.18957 -1.47872
-0.84099 -1.58029 -1.86871
0.23939 -0.4771 -1.29583
-0.76083 -0.92937 -1.18407
0.87354 -2.40441 -2.56229
-0.18673 -1.99321 -2.79881
0.91479 -2.80797 -2.80794
-0.90672 -2.51151 -2.59951
0.01663 -0.5578 -1.49336
-0.40814 -0.80669 -1.60014
-0.49903 -1.50619 -2.24247
-0.64189 -1.37419 -1.96181
0.81666 -1.19631 -1.45517
0.96372 -1.8104 -1.87791
-0.77602 -2.52065 -2.77015
0.08831 -1.8112 -2.68581
-0.37138 -0.41768 -1.05784
0.78598 -1.1184 -1.41511
0.23104 -1.4131 -2.33214
-0.44985 -1.65486 -2.41039
0.97284 -1.40421 -1.3532
0.33162 -0.8103 -1.67372
-0.0467 -1.3179 -2.29409
-0.70636 -1.37463 -1.87156
0.54517 -2.51489 -2.97837
-0.07866 -1.71199 -2.61213
0.51839 -0.54623 -1.05357
-0.95528 -1.76128 -1.84253
-0.71603 -2.73099 -2.97878
-0.06546 -1.79275 -2.67467
-0.52353 -1.00536 -1.71029
-0.09789 -1.97354 -2.80282
0.85661 -1.29137 -1.49345
-0.19619 -2.10256 -2.87338
-0.02062 -2.18746 -2.95772
-0.29734 -0.40398 -1.12351
0.05682 -0.49831 -1.40725
0.63699 -0.86929 -1.36166
0.41634 -0.74043 -1.50611
0.57358 -2.41319 -2.88735
-0.09436 -1.81995 -2.6915
0.25135 -1.87535 -2.69234
-0.18459 -1.92973 -2.75365
-0.90613 -1.5069 -1.65629
0.41027 -0.82794 -1.62434
0.15001 -1.65338 -2.55412
-0.64716 -0.7727 -1.18978
-0.91414 -1.82785 -1.99218
0.73009 -2.28207 -2.64503
-0.45538 -2.30436 -2.8962
0.52209 -2.20419 -2.77964
0.51241 -0.58936 -1.14333
0.18922 -0.52477 -1.39852
-0.40983 -1.48441 -2.29473
-0.97508 -2.94209 -2.82227
0.80691 -1.71537 -2.06326
0.2772 -2.06079 -2.81705
0.753 -2.08601 -2.46495
-0.93943 -1.22294 -1.1669
0.18758 -0.98601 -1.9502
-0.0699 -0.36627 -1.2023
-0.2648 -0.72942 -1.62395
0.86295 -2.48647 -2.63953
-0.71489 -0.95576 -1.33371
0.69714 -0.97341 -1.39629
-0.52695 -1.70131 -2.38632
-0.7558 -2.66692 -2.8953
-0.96444 -1.87916 -1.94834
0.10025 -1.4573 -2.40603
0.05806 -0.28674 -1.06464
-0.00416 -1.39493 -2.36213
-0.75885 -2.80989 -2.98934
0.21704 -1.87731 -2.7057
0.59107 -0.875 -1.45003
-0.88728 -1.82861 -2.04093
0.00899 -1.37802 -2.34771
0.47442 -1.0464 -1.81253
-0.02205 -0.48648 -1.39426
0.18587 -2.25427 -2.97974
0.74504 -1.43843 -1.87973
0.54233 -0.59648 -1.09975
-0.5702 -1.81767 -2.44339
0.59797 -2.09286 -2.63462
-0.75041 -1.48149 -1.91664
-0.9957 -2.14155 -2.14489
0.71496 -1.52173 -2.01053
-0.76002 -2.03817 -2.41705
-0.48084 -0.96212 -1.70987
-0.78088 -1.81067 -2.19171
0.60556 -0.79268 -1.30534
-0.89597 -2.31528 -2.45968
0.76192 -1.70371 -2.11961
0.38504 -2.2933 -2.92919
0.08452 -0.27202 -1.02932
-0.20697 -1.24103 -2.18924
0.57373 -0.84672 -1.43881
-0.65945 -1.19025 -1.73824
-0.63137 -1.56527 -2.16022
-0.90479 -1.24727 -1.30938
-0.95918 -2.71054 -2.6762
-0.83944 -1.41863 -1.68994
-0.31214 -1.35511 -2.24292
-0.78929 -1.3905 -1.75217
0.52061 -1.41293 -2.13719
-0.9535 -1.7996 -1.88727
-0.11384 -0.67125 -1.62271
-0.574 -1.83161 -2.45122
0.10271 -0.91835 -1.90557
0.52381 -0.74094 -1.36611
-0.45893 -2.1822 -2.80826
-0.95402 -2.22128 -2.2901
0.14797 -0.78089 -1.74241
-0.86982 -1.85862 -2.09956
-0.9726 -2.60878 -2.57902
-0.05721 -0.83011 -1.81861
0.10711 -1.00748 -1.996
-0.65774 -2.04308 -2.53808
0.54822 -2.38764 -2.88935
-0.39451 -1.0225 -1.86211
-0.22801 -1.59051 -2.48075
0.45422 -0.89837 -1.6638
0.76258 -2.12207 -2.48238
-0.17307 -0.70228 -1.63992
0.46694 -1.59685 -2.34847
-0.97157 -1.44296 -1.41281
-0.22685 -1.86577 -2.69393
-0.61103 -0.77272 -1.26389
0.54354 -0.99547 -1.67336
-0.67621 -1.31855 -1.85612
0.15462 -0.75067 -1.70501
-0.74055 -1.03046 -1.38858
-0.96466 -2.53567 -2.53385
-0.95995 -1.19031 -1.03693
0.00483 -1.6888 -2.59906
-0.31458 -1.72909 -2.55353
-0.21173 -0.29542 -1.00118
-0.35129 -1.01526 -1.88877
0.21588 -0.62453 -1.52043
-0.43857 -0.8692 -1.64543
0.56271 -1.03083 -1.69019
0.87179 -1.11374 -1.18949
0.44184 -1.82751 -2.55522
0.09949 -0.2836 -1.04632
-0.45008 -1.4797 -2.2602
-0.01272 -0.89144 -1.88816
-0.79226 -1.80471 -2.16983
-0.24183 -0.68937 -1.58857
-0.28432 -0.85779 -1.7629
0.82439 -2.60587 -2.77579
0.25034 -1.11749 -2.05409
0.43694 -1.32914 -2.13375
-0.16305 -1.54597 -2.46527
0.02252 -1.96576 -2.80375
0.49739 -1.81021 -2.50025
0.42779 -0.5041 -1.1333
0.96957 -2.06142 -2.11788
-0.82013 -2.14116 -2.42367
-0.49338 -1.41052 -2.16065
-0.36197 -0.49456 -1.20588
0.64049 -2.21441 -2.6864
0.2367 -1.78105 -2.6268
-0.27477 -0.43855 -1.20508
-0.51954 -1.10911 -1.83214
-0.65362 -0.72508 -1.09155
-0.36763 -1.23154 -2.09417
-0.36163 -0.80272 -1.63944
0.85272 -2.63144 -2.75993
-0.05207 -0.58642 -1.52802
-0.27311 -0.94168 -1.86236
-0.69082 -0.84195 -1.20783
0.19861 -1.91984 -2.74255
-0.0823 -0.48907 -1.38895
0.68548 -0.80889 -1.16447
0.47533 -0.90117 -1.64345
-0.20109 -1.43299 -2.36013
0.90694 -1.52289 -1.67373
-0.82891 -2.1216 -2.39542
-0.91391 -1.24879 -1.28616
-0.69296 -1.8144 -2.31016
-0.29294 -1.61208 -2.47084
-0.81828 -2.08252 -2.37734
0.4492 -0.89877 -1.66972
-0.93064 -3.10568 -2.99306
0.76605 -1.6948 -2.1052
-0.0394 -1.48373 -2.43489
0.63904 -2.03025 -2.54706
0.78409 -1.10048 -1.39382
-0.68433 -1.46418 -1.99587
0.42791 -1.63231 -2.40766
-0.51172 -2.05589 -2.67883
0.10103 -0.4741 -1.3622
-0.72481 -2.75357 -2.98545
-0.93197 -1.51821 -1.61201
0.76234 -0.99698 -1.28967
-0.34794 -0.52927 -1.27782
-0.84205 -1.11232 -1.27006
-0.51498 -0.68285 -1.2925
-0.18887 -0.3453 -1.11288
0.25724 -1.78535 -2.62235
-0.4603 -1.5866 -2.34497
0.89854 -2.04819 -2.22784
-0.37369 -2.28172 -2.92717
0.27174 -0.65929 -1.5303
0.3057 -0.97539 -1.87824
0.10366 -1.59967 -2.52105
0.17143 -1.35962 -2.30671
0.49109 -2.28063 -2.85619
-0.37466 -1.41213 -2.25545
0.96787 -3.11541 -2.95204
0.89421 -1.23671 -1.32226
0.68757 -1.63351 -2.15477
-0.02754 -0.34723 -1.17724
-0.16609 -2.13178 -2.90117
-0.17357 -1.36987 -2.31494
-0.81042 -1.14774 -1.40136
0.61066 -1.07134 -1.67144
0.53561 -0.72411 -1.32247
0.52603 -0.75276 -1.37994
0.49278 -1.21287 -1.96981
0.94738 -1.71634 -1.80976
0.23199 -0.33234 -1.0555
-0.50988 -1.92121 -2.57777
-0.81236 -1.26818 -1.55982
0.4068 -0.42394 -1.01678
-0.94323 -2.34438 -2.41222
-0.69397 -1.01976 -1.4672
-0.04641 -1.40943 -2.37257
-0.55404 -2.10251 -2.67996
0.65518 -2.57833 -2.93194
0.49551 -0.61529 -1.21616
-0.30234 -0.60338 -1.43104
-0.75712 -2.03067 -2.41449
-0.42015 -0.78143 -1.55551
0.52477 -0.7874 -1.4311
-0.62553 -1.16278 -1.7567
-0.08256 -1.28396 -2.26022
0.69619 -1.97858 -2.4445
-0.29021 -2.19174 -2.90346
0.07917 -1.21602 -2.19978
0.98988 -1.36615 -1.24305
5e-05 -1.068 -2.06688
-0.38386 -0.66635 -1.44084
-0.91239 -2.88266 -2.86371
0.03208 -2.20779 -2.97103
0.2617 -2.08261 -2.83839
-0.21561 -1.94061 -2.75254
-0.32836 -1.40219 -2.27541
0.61243 -0.74333 -1.21369
0.16168 -2.18765 -2.94041
-0.80009 -1.70174 -2.06067
-0.54994 -2.15717 -2.72377
-0.15071 -1.83788 -2.69456
0.64258 -2.44051 -2.84788
0.26865 -1.43198 -2.33221
0.7133 -1.52282 -2.01397
-0.89128 -1.88282 -2.08657
0.0232 -1.24175 -2.22819
-0.23955 -1.04266 -1.98522
-0.35599 -1.37977 -2.23879
