ply
format ascii 1.0
comment Created by Open3D
element vertex 250
property double x
property double y
property double z
end_header
-0.3908 -0.262722 1.30091
0.907025 -1.21771 2.62533
1.4468 -1.06612 1.72764
0.574735 -0.538282 0.426085
1.03372 -0.637269 0.784029
0.891414 -0.39914 0.507763
0.508756 -0.386191 0.282168
2.19224 -1.04733 2.81404
-0.750914 0.27451 1.11941
-0.227331 1.80449 -0.0293883
0.354921 -0.296964 0.180465
-0.825271 0.499938 0.749763
2.59295 -1.0746 3.73582
-0.447621 -0.101401 0.719813
0.900839 -0.695632 0.738132
0.536146 -1.05329 1.8229
-0.304076 0.60988 -0.146726
0.517226 -0.951977 1.16769
-0.458199 -0.172922 1.22351
0.256994 -0.651488 0.603246
0.501383 -1.02902 2.31861
0.0892134 -0.27849 0.182572
-0.30261 1.61765 -0.0886818
0.205585 0.637271 -0.116814
0.35749 -0.853671 1.02539
-0.436888 -0.18105 1.03324
-0.964674 1.71946 0.235179
0.235531 0.204124 -0.0619386
3.20585 -0.951135 5.09375
0.169132 0.277133 -0.0948197
-1.30124 1.63459 1.11854
-0.255096 2.04631 0.0472205
-0.64735 0.789226 0.0364164
0.24206 0.690853 -0.101509
-0.54085 -0.0508054 1.10899
-0.479476 0.543085 -0.0253174
0.376033 -0.791072 0.816362
2.16009 -1.30213 5.04277
2.45031 -1.27454 5.37819
1.03885 -1.12952 1.57434
3.04063 -1.14042 5.88282
-1.03501 1.35276 0.423997
0.655002 -1.02778 1.31619
1.20972 -1.19355 1.85757
-0.257485 0.571903 -0.15276
2.45993 -1.24642 4.09345
0.804335 -0.823083 0.838916
2.34818 -1.31223 4.38851
2.23977 -1.25477 5.49637
-0.737276 0.326026 0.771873
-0.537924 0.408614 0.119159
1.05865 -1.16694 3.76707
2.122 -1.08151 6.3129
2.28689 -1.31287 4.1201
1.34737 -0.889986 1.3413
2.27436 -1.11438 3.12843
0.309599 0.517472 -0.0730541
0.242439 0.266356 -0.0727606
-0.680878 0.199801 0.87993
0.223655 -0.401244 0.266097
3.34557 -0.945425 5.58774
2.14625 -1.34436 4.34975
2.28084 -1.30222 3.97691
2.44336 -1.1074 3.47564
0.265314 -0.697903 0.693376
2.56461 -1.27108 5.22872
-0.15041 -0.42598 0.70842
0.138076 -0.786825 1.43186
-0.848669 0.824171 0.345857
2.17862 -1.13837 6.11781
2.15618 -1.31273 3.70982
-0.171761 0.00288299 0.0706119
1.57798 -1.20325 2.21266
-0.710482 0.470458 0.385928
0.637488 -0.27135 0.27342
0.115132 -0.0156785 -0.00361041
1.59945 -1.3453 3.78595
2.5944 -1.25072 5.55446
-0.855519 1.55696 0.115466
0.193166 -0.835017 1.90725
-0.208027 1.21776 -0.162792
0.284572 -0.563964 0.444796
-0.826053 0.471537 0.836208
0.0702844 -0.387544 0.312854
-0.0967594 -0.345193 0.413335
0.0144133 0.0940896 -0.0498892
1.13047 -0.807191 1.0325
0.184012 -0.831034 1.7076
-0.743977 1.67196 0.0347357
0.943818 -0.53064 0.630206
1.87319 -1.22668 2.70793
2.37601 -1.25865 3.9232
0.616206 -0.612321 0.511588
-0.507577 0.232428 0.239211
1.41088 -1.3013 2.49153
0.77953 -0.142661 0.312064
0.296091 -0.372507 0.23246
-0.163025 -0.134723 0.194148
-0.649053 1.65806 -0.0174799
0.184745 -0.831658 1.73507
-0.703503 0.579041 0.250742
1.39633 -1.33061 2.7981
1.06245 -1.19324 1.82278
-0.394683 -0.100121 0.529521
-0.21334 -0.468879 1.3918
0.674937 -0.796682 0.759753
0.230566 -0.864607 1.67085
1.56255 -0.850061 1.54336
-0.580683 1.83984 -0.00324155
2.20074 -1.06564 2.86828
0.80087 -1.00769 1.19369
0.890453 -1.19328 1.96646
0.116317 -0.763156 2.06878
1.85947 -1.26343 2.82415
1.30102 -1.32322 2.92685
-0.822023 0.479848 0.787155
2.57318 -1.11855 3.82188
-1.0638 1.71986 0.376302
1.65662 -0.942739 1.78361
1.27902 -1.17614 4.31954
0.973647 -1.204 3.19588
-0.685345 1.15222 -0.0160631
1.51883 -1.19839 2.12912
2.1035 -1.2815 5.1723
-0.617938 1.0619 -0.0574721
2.02084 -1.25813 5.2452
-1.0836 1.63924 0.425669
-1.11437 1.07776 1.01377
-0.636191 1.59476 -0.033056
0.99741 -1.24905 2.6723
-0.81732 0.719354 0.368774
0.278252 -0.858351 1.23747
-1.04895 1.07916 0.682331
2.77126 -1.1292 4.41917
2.19403 -1.33098 4.67705
-1.04055 0.910651 0.943253
0.361098 -0.684265 0.603977
0.241569 -0.725581 0.788565
1.15765 -1.2768 3.19382
2.52633 -1.23521 5.77263
-0.447137 0.494974 -0.0304583
1.61884 -1.13897 2.09008
0.158656 -0.801131 2.03395
2.91393 -1.04897 4.52493
1.02423 -1.0627 1.38148
1.61522 -1.25643 2.44468
0.259061 -0.458989 0.320515
0.872075 -1.16771 1.79544
-0.163738 1.10256 -0.174125
3.08397 -1.08522 5.33245
2.41046 -1.18546 6.09185
1.95571 -1.13194 2.57608
-0.187754 0.799525 -0.188363
-0.0157059 0.232771 -0.101072
1.54924 -1.35201 3.11807
0.272475 0.591303 -0.0903381
0.0719099 -0.28417 0.194703
1.0457 -0.519608 0.706696
-0.719173 0.689774 0.190443
0.729393 -1.12498 1.74574
-0.384023 1.30379 -0.144986
-0.463025 0.329379 0.0841854
-0.855282 0.621309 0.621681
1.28272 -1.22124 2.00289
-0.517765 0.932687 -0.105533
-0.666967 1.01038 -0.00953081
0.738371 -1.14902 1.99005
2.08173 -1.17655 2.91904
-0.487825 0.376055 0.0792311
1.36351 -1.33274 2.94196
2.96857 -1.16418 5.75678
1.76405 -1.34918 3.22863
1.53606 -1.3411 3.67911
-0.492449 -0.124068 1.17795
0.489915 -0.771369 0.717795
-0.227007 -0.399632 0.895429
0.453992 -0.964155 1.33728
0.708062 -0.714007 0.657224
0.381768 -0.968004 1.87264
-1.13486 1.19978 0.889551
0.735458 -0.862823 0.879837
0.739776 -1.0846 1.48184
1.38455 -1.20242 2.00826
-0.0871185 -0.241515 0.249713
2.3681 -1.30149 5.05592
2.22105 -1.31247 3.89239
-0.438497 -0.0480654 0.537848
-1.08014 1.15457 0.709625
-0.857991 1.15281 0.178575
2.34842 -1.10076 3.24836
-1.17057 1.61926 0.630965
-1.08775 0.989258 1.06095
-0.507148 0.0199654 0.599324
2.98943 -1.10215 5.04288
2.61463 -1.19725 4.27542
-0.893665 1.27417 0.195447
0.779743 -1.17275 2.22871
-0.398988 0.65684 -0.117851
-0.18995 0.922912 -0.18826
0.231403 0.330344 -0.0869153
-1.41318 1.75023 2.38228
-0.833679 0.396598 1.6585
-1.02981 1.65793 5.02929
-1.58125 3.02635 5.24184
-1.61167 4.45624 7.95775
-1.6633 4.22301 7.25292
-1.29336 1.40159 2.00009
-1.45379 2.51871 4.83246
-1.12005 1.69597 4.67414
-0.953771 0.747689 2.6684
-1.07485 0.874628 1.55566
-1.08127 1.17819 3.3968
-1.18227 1.1233 1.64748
-1.20442 1.17735 2.01254
-1.04633 1.71442 5.08781
-1.17223 1.74763 4.52704
-1.3603 1.60557 1.76758
-1.27442 2.65492 6.12318
-1.63518 2.736 4.01327
-1.43677 2.53753 4.98608
-1.39925 3.56045 7.34564
-1.20773 1.18474 2.00141
-1.65694 2.89161 4.29347
-1.59213 2.40586 3.22322
-1.35893 3.73999 7.86595
-1.58655 4.43159 8.04126
-1.29918 1.47844 2.6365
-1.01486 1.8959 5.65614
-1.61694 3.94051 6.96975
-0.763468 0.272863 1.52406
-1.2821 2.70759 6.19772
-0.821036 0.37188 1.52346
-0.836556 0.404649 1.72657
-1.65381 4.19902 7.26043
-1.56378 3.42526 6.23309
-1.10542 2.38274 6.32068
-1.67013 3.0041 4.50471
-1.6289 2.59713 3.5686
-1.63789 2.55565 3.20961
-0.952142 0.623259 1.82041
-1.36546 1.78834 3.31164
-1.22058 3.33452 7.71467
-1.73336 3.69783 5.745
-1.51651 4.44775 8.4116
-1.09748 1.25902 3.55857
-1.66442 3.75788 6.32922
-0.848352 0.459922 2.10235
-1.41529 3.64399 7.42832
-1.56924 4.06651 7.46313
-1.41765 2.05836 3.79714
