ply
format ascii 1.0
comment Created by Open3D
element vertex 250
property double x
property double y
property double z
end_header
-0.512653 0.313196 1.24627
-1.39473 2.17113 1.59335
-1.14651 2.14031 0.564949
-0.216187 0.865892 0.0714819
-0.600085 1.31401 0.051527
-0.498282 0.974771 -0.115295
-0.183804 0.673059 -0.0283351
-2.20833 2.8701 0.841082
-0.553723 -0.356189 1.20782
-0.965991 -1.49852 -0.36056
-0.100898 0.48577 -0.0238969
-0.414309 -0.670164 0.934015
-2.97721 3.38184 1.23848
-0.204429 0.000667413 0.828846
-0.474137 1.26517 0.121674
-0.800226 1.60683 1.22375
-0.133247 -0.68064 -0.0701365
-0.424688 1.34213 0.74539
-0.485481 0.184222 1.21127
-0.118355 0.806962 0.434961
-1.12282 1.70179 1.59041
0.0080328 0.312116 0.146175
-0.78008 -1.41988 -0.302752
-0.402289 -0.385482 -0.389349
-0.318041 1.13348 0.722518
-0.366016 0.151694 1.06501
-0.750463 -1.80819 0.331219
-0.190399 -0.0276981 -0.252901
-4.21901 4.02661 1.76488
-0.182632 -0.131428 -0.25253
-1.12248 -1.70863 1.19869
-1.1493 -1.67592 -0.353687
-0.204222 -0.972776 0.235089
-0.4613 -0.399512 -0.416854
-0.446594 0.0117633 1.15125
-0.0920699 -0.703554 0.148373
-0.227747 1.04117 0.545662
-3.49583 3.64489 2.50699
-3.86427 3.89013 2.5471
-0.821626 1.90015 0.740215
-4.54473 4.28238 2.48199
-0.620341 -1.52452 0.60991
-0.538925 1.52232 0.780901
-1.04612 2.12794 0.846181
-0.127681 -0.62567 -0.0945636
-3.04635 3.52719 1.62476
-0.418941 1.32978 0.290471
-3.1483 3.58894 1.92421
-3.85717 3.78021 2.76285
-0.36401 -0.480638 0.939223
-0.0785763 -0.598882 0.325104
-2.24056 2.53352 2.2879
-4.44133 3.80013 3.37028
-2.94455 3.47981 1.77463
-0.954986 1.84365 0.309061
-2.41078 3.05503 1.02788
-0.406117 -0.221013 -0.393939
-0.224048 -0.0731314 -0.281906
-0.384198 -0.32269 1.01294
-0.0338983 0.507926 0.150625
-4.60903 4.24033 2.02136
-3.01128 3.48068 2.03741
-2.85467 3.42942 1.67445
-2.71907 3.24575 1.16111
-0.153025 0.871185 0.505818
-3.82096 3.91607 2.36581
-0.136943 0.420402 0.714458
-0.523633 1.06091 1.13519
-0.33544 -1.03676 0.575959
-4.30545 3.82416 3.21073
-2.61686 3.28979 1.56987
0.0306437 -0.0867218 0.161358
-1.44057 2.45358 0.859316
-0.2113 -0.677226 0.609732
-0.306246 0.662257 -0.149695
-0.0408063 0.0802704 -0.0735242
-2.39245 2.9988 1.99622
-4.05967 4.00692 2.57117
-0.624076 -1.65283 0.219232
-0.830294 1.25895 1.44839
-0.533546 -1.08293 -0.308735
-0.0802743 0.715088 0.28122
-0.453282 -0.625944 1.00334
-0.00260515 0.417736 0.280174
-0.0174527 0.312343 0.448892
-0.0307848 -0.0753679 -0.0701534
-0.704075 1.56708 0.209997
-0.698081 1.19641 1.31212
-0.691732 -1.6936 0.0581593
-0.522858 1.13816 -0.0273658
-1.88493 2.78334 1.02301
-2.88938 3.43965 1.5625
-0.246315 0.969589 0.124885
-0.0645381 -0.415941 0.437843
-1.48719 2.50172 1.1922
-0.474091 0.661927 -0.249986
-0.0623793 0.52099 0.0717427
0.0289991 0.0551844 0.280241
-0.692621 -1.64001 -0.0370132
-0.71599 1.20475 1.33124
-0.191711 -0.791032 0.480199
-1.66313 2.59787 1.42642
-0.95626 2.02941 0.917706
-0.105085 -0.0198339 0.659359
-0.528724 0.599516 1.2504
-0.324011 1.21046 0.311884
-0.675091 1.23974 1.2648
-1.20945 1.99826 0.300561
-0.842893 -1.73123 -0.120801
-2.23659 2.90365 0.878843
-0.537706 1.56214 0.59355
-0.971481 1.96451 1.13168
-0.944057 1.20238 1.59337
-1.9324 2.83407 1.1241
-1.70813 2.56965 1.57773
-0.428095 -0.643018 0.963769
-2.99787 3.42616 1.32414
-0.797588 -1.83012 0.495654
-1.35346 2.18956 0.434065
-2.69666 2.82292 2.53707
-1.80619 2.35545 1.94956
-0.371657 -1.28215 0.124576
-1.36189 2.39162 0.837574
-3.56704 3.63032 2.62996
-0.320907 -1.18494 0.0756996
-3.59098 3.58262 2.72918
-0.77213 -1.76826 0.565315
-0.803378 -1.20657 1.1532
-0.650121 -1.58899 -0.0393014
-1.44782 2.2619 1.57601
-0.301479 -0.933022 0.600047
-0.417547 1.14656 0.925516
-0.617602 -1.25783 0.875721
-3.47219 3.71532 1.61997
-3.25502 3.58806 2.23402
-0.690194 -1.05577 1.10033
-0.146637 0.894575 0.376339
-0.187651 0.90337 0.596128
-1.84502 2.52055 1.8476
-4.18044 4.01325 2.7657
-0.0744559 -0.649344 0.13663
-1.41796 2.39686 0.728555
-0.91774 1.24699 1.55136
-3.65492 3.76988 1.57984
-0.729277 1.78903 0.595311
-1.57707 2.57871 1.01345
-0.0507808 0.587329 0.1816
-0.866785 1.88797 1.01584
-0.476856 -0.972863 -0.314509
-4.23831 4.1182 2.04957
-4.36604 3.99238 3.05366
-1.89369 2.72641 0.850235
-0.273679 -0.763934 -0.226886
-0.0672819 -0.211408 -0.124196
-1.92914 2.7928 1.55857
-0.422417 -0.30347 -0.401887
0.0114454 0.309215 0.167594
-0.626056 1.21207 -0.0428214
-0.211989 -0.899856 0.417834
-0.794889 1.75635 1.06234
-0.516652 -1.24886 -0.204449
-0.0421426 -0.503714 0.272885
-0.390171 -0.813965 0.83021
-1.15771 2.2321 0.90875
-0.25731 -1.04057 0.0112402
-0.298719 -1.16292 0.15557
-0.94408 1.84592 1.23574
-2.14842 2.92874 1.02249
-0.0557411 -0.55503 0.272952
-1.74081 2.61859 1.55016
-4.4151 4.2226 2.44637
-2.10126 2.95025 1.49565
-2.29621 2.92848 1.96095
-0.469553 0.114583 1.18822
-0.227303 1.06845 0.396236
-0.240001 0.405015 0.889603
-0.499226 1.35899 0.909916
-0.32207 1.1407 0.195373
-0.813628 1.46315 1.33669
-0.786508 -1.34407 1.04573
-0.390204 1.32909 0.375155
-0.651598 1.66093 0.858025
-1.21912 2.2809 0.840926
0.0224568 0.196128 0.29884
-3.5999 3.77351 2.38022
-2.76594 3.37815 1.65652
-0.121916 -0.083067 0.679784
-0.666687 -1.32583 0.894994
-0.420246 -1.33413 0.374834
-2.5312 3.12197 1.06062
-0.85443 -1.75021 0.772704
-0.792951 -1.11137 1.19312
-0.171757 -0.158889 0.749693
-3.99571 3.99548 1.91116
-3.26561 3.63293 1.63906
-0.488208 -1.44211 0.37723
-1.10459 1.95327 1.38389
-0.137068 -0.765331 -0.000421497
-0.347212 -0.857772 -0.258767
-0.248376 -0.131613 -0.30202
-1.96668 -1.52096 2.13412
-0.941754 -0.351832 1.61004
-3.81545 -0.504078 3.78037
-4.52816 -1.8057 3.92062
-7.15152 -2.16156 5.474
-6.52671 -2.20852 5.07246
-1.56135 -1.29059 1.87994
-4.0126 -1.45881 3.68524
-3.56516 -0.683169 3.5779
-1.75851 -0.414354 2.3076
-1.05285 -0.883742 1.56552
-2.43591 -0.617079 2.78946
-1.21381 -1.11024 1.63334
-1.4748 -1.06535 1.89132
-3.88023 -0.540583 3.81725
-3.47639 -0.793217 3.49399
-1.50197 -1.54689 1.70406
-5.02 -1.10345 4.44388
-3.52567 -1.95294 3.16568
-4.13209 -1.42109 3.77766
-6.30809 -1.52715 5.14481
-1.47048 -1.07591 1.88361
-3.79268 -2.00696 3.33593
-2.82996 -1.89314 2.66825
-6.77479 -1.49666 5.4378
-7.20268 -2.10532 5.52331
-2.02083 -1.17953 2.31296
-4.37543 -0.503907 4.14946
-6.1924 -2.04529 4.91838
-0.811338 -0.253035 1.50259
-5.09697 -1.12742 4.48735
-0.844394 -0.362204 1.51298
-0.989767 -0.341187 1.65788
-6.52147 -2.18277 5.07805
-5.42448 -1.82611 4.50218
-5.06199 -0.743871 4.54678
-3.99255 -2.04212 3.46347
-3.15423 -1.96532 2.88473
-2.89056 -2.03678 2.64798
-1.13018 -0.549513 1.74059
-2.61863 -1.26926 2.74979
-6.49448 -1.15 5.35017
-5.19261 -2.26496 4.19408
-7.48639 -1.97495 5.73505
-2.58297 -0.643707 2.89256
-5.64203 -2.1103 4.5459
-1.26322 -0.288076 1.91634
-6.40518 -1.57711 5.19114
-6.61256 -1.9775 5.202
-3.07491 -1.37189 3.05412
