ply
format ascii 1.0
comment Created by Open3D
element vertex 400
property double x
property double y
property double z
end_header
1.71146 1.62495 0.720561
2.80367 1.85558 -0.0114977
2.7523 2.08287 0.347335
2.01434 2.61244 0.718428
2.95763 2.10489 0.0651985
1.18728 0.521878 0.401229
2.88076 2.02378 0.105577
2.06729 1.05006 0.068166
2.35192 1.29309 -0.318094
1.60923 1.10524 0.605955
1.477 0.587114 0.204808
1.84709 1.62978 0.693856
3.44845 2.58754 -0.666251
2.38546 1.96296 0.571304
2.98285 2.13446 0.0555113
2.9745 2.25402 0.208466
1.95333 2.53678 0.725131
1.34527 1.86827 0.741523
2.71494 1.82444 0.144925
3.07189 2.11922 -0.691512
1.67418 1.61818 0.725188
1.71092 0.703415 -0.181777
2.41642 1.82443 0.495151
1.94751 0.90844 -0.093684
2.02936 1.07458 0.222363
2.04717 1.59727 0.61643
2.90141 1.90367 -0.319552
2.65082 1.73302 0.132944
1.98654 0.997895 -0.611025
2.33385 1.28682 -0.0884691
1.98083 1.45622 0.594058
2.34532 3.1133 0.661765
2.01777 0.972522 -0.0976901
1.97991 2.06023 0.72223
1.23045 2.06083 0.716461
1.40984 0.79808 0.51954
2.51343 1.48209 -0.552091
2.52062 1.49217 -0.08089
1.74652 0.754422 0.0551227
1.11287 0.540927 0.456314
1.80354 0.786352 -0.0460288
2.71558 1.98756 0.318418
2.84378 2.0195 0.16833
1.72015 1.73318 0.732326
0.85477 1.37417 0.683192
1.59397 0.763159 0.354778
2.22772 1.49362 0.448756
2.76827 2.14489 0.370822
1.64671 1.23855 0.645622
1.46542 0.520676 -0.0298772
2.59963 1.56029 -0.455048
2.15191 1.47824 0.50033
2.00342 1.30343 0.499357
1.82397 1.80898 0.725412
2.4887 2.48678 0.635288
2.58643 2.40967 0.586367
2.31519 2.47329 0.681669
1.02439 0.413921 0.373924
1.6085 1.60032 0.731036
1.50905 0.96197 0.575316
1.11679 1.27693 0.710399
2.25442 2.86569 0.687326
1.79439 1.20584 0.571727
1.877 1.71136 0.701668
1.39813 0.882438 0.575199
2.28464 2.32617 0.679097
1.7356 0.737582 0.0156955
1.16466 1.48933 0.727026
1.91293 0.878211 -0.0839768
1.22211 1.5271 0.732495
2.11175 1.45167 0.513679
1.13694 0.425895 0.316112
2.67934 1.65028 -0.2232
2.63359 1.61473 -0.597329
1.19853 0.756116 0.569673
2.4145 2.29658 0.636023
1.25859 0.37489 -0.0913301
1.48978 0.537068 -0.24728
2.15459 1.1302 0.0441237
2.44979 1.39779 -0.396832
1.26912 0.638551 0.466951
2.29808 1.29772 0.0955656
1.64248 1.81621 0.745454
1.63061 0.751557 0.293884
0.934555 0.335625 0.326973
1.85145 0.877406 0.160703
3.09492 2.23752 -0.0407384
2.84778 1.83711 -0.353496
1.41654 0.534657 -0.535247
2.54498 1.9458 0.457994
1.75967 0.951513 0.409509
3.25393 2.33551 -0.634203
2.68282 1.67136 -0.62275
1.26256 1.23263 0.706341
2.91813 2.01696 0.00926838
2.45258 1.45179 -0.70265
1.4104 1.59572 0.741326
2.43822 3.47144 0.618543
1.32527 0.937859 0.621428
1.37306 0.944962 0.61255
1.10535 0.540154 0.458709
1.97765 1.08874 0.325492
1.24015 1.37433 0.723904
1.34252 0.450122 0.0691806
0.973616 1.20351 0.692513
1.19633 2.0371 0.713207
1.97309 1.0789 0.318485
2.31423 1.27792 -0.520376
0.916785 1.90919 0.670019
2.55876 1.51676 -0.455199
2.33298 1.28211 -0.114546
0.86235 1.1714 0.676101
1.40756 0.675081 0.41654
2.40332 1.64356 0.392694
1.40413 2.09462 0.735474
0.664011 1.31221 0.641645
2.61768 1.57641 -0.40764
1.2351 0.664525 0.50247
1.83274 0.896155 0.240148
2.27495 1.55512 0.450334
2.8265 1.8195 -0.259139
2.42829 3.27716 0.640316
1.52281 1.40514 0.713447
1.38886 1.49164 0.73411
1.74513 1.2707 0.623121
1.78541 0.848114 0.229154
2.35325 1.29452 -0.32001
1.13694 0.405492 0.284219
2.23761 2.84165 0.690245
1.4298 0.965018 0.604989
1.86931 0.862235 0.0595739
2.72134 1.7055 -0.179963
1.23843 1.46887 0.730759
0.666724 1.73217 0.621051
2.01879 0.972525 -0.108944
1.27419 1.59941 0.737783
1.44558 0.534904 -0.448142
1.26492 0.431936 0.180629
1.83145 2.34714 0.737858
0.886202 1.28149 0.6862
0.875673 0.586357 0.538332
1.83728 0.831005 -0.422397
1.40598 2.04302 0.73888
1.29562 0.477305 0.240091
0.766355 1.34708 0.665338
2.97594 1.99076 -0.538746
2.58747 2.20455 0.534838
3.26534 2.35057 -0.646869
2.13326 2.97776 0.685148
1.36467 0.686495 0.456021
1.27987 1.12696 0.685324
1.88513 1.86353 0.721007
1.55481 1.78119 0.747695
1.82559 0.825889 -0.448036
2.34988 1.33843 -0.647698
2.3456 2.9452 0.673479
2.60188 1.89513 0.37486
0.778401 0.697119 0.582685
1.76465 0.768862 -0.407417
2.31307 1.43217 0.29615
2.07482 1.99043 0.695857
1.84709 0.91032 -0.713407
1.71309 0.770935 0.197219
2.12778 1.48421 0.521117
1.44561 1.80058 0.747937
3.18308 2.31018 -0.153753
2.44098 1.88314 0.505691
1.23847 0.361333 -0.112887
1.35299 2.25082 0.71611
2.58448 3.12529 0.630205
2.51279 1.95463 0.487247
1.34529 1.37036 0.722657
2.63243 2.14393 0.483859
1.89216 0.892659 -0.504675
2.6624 2.31354 0.524137
2.83461 2.31057 0.399711
0.869467 0.658023 0.570016
1.30255 0.603011 0.414292
1.60805 0.622901 -0.204235
1.60215 0.644391 0.0884432
3.1047 2.19584 -0.168502
2.51668 1.99477 0.502498
2.69837 1.86932 0.230764
2.54069 2.14269 0.542485
1.18135 1.98184 0.715426
1.71284 0.739435 0.108095
2.49721 1.71029 0.344297
0.80512 1.15736 0.666151
1.51104 2.30899 0.72856
2.95692 1.97018 -0.334772
2.58184 2.61872 0.617922
2.95641 2.02742 -0.0814484
1.31841 0.414282 -0.0853436
1.36517 0.558118 0.303076
1.97115 1.80799 0.694954
2.35228 3.41208 0.629576
2.41577 1.36286 -0.396627
2.8449 2.03294 0.18212
2.78596 1.765 -0.342981
0.705392 1.68445 0.636257
1.90279 1.03342 0.349456
1.04492 0.523654 0.467442
1.36055 0.992821 0.634507
3.04859 2.07741 -0.533668
0.920916 1.36855 0.694479
1.68293 0.686769 -0.281512
2.02253 2.0651 0.715115
2.48395 3.07827 0.648621
1.45599 2.37151 0.716552
2.31722 1.54611 0.403478
0.979749 0.371631 0.347895
2.21841 1.53865 0.486542
2.58364 3.21559 0.626313
2.69291 1.8901 0.260725
1.66135 0.663676 -0.130435
1.5662 2.30334 0.733562
2.2102 1.51553 0.478488
1.93754 0.921387 0.0475994
1.25029 0.630446 0.469482
2.96643 2.26758 0.231305
2.18762 1.13054 -0.306173
1.29721 0.399017 -0.13185
2.06666 2.1944 0.716052
2.85427 1.87321 -0.151949
1.47771 1.92042 0.748195
1.64655 2.63989 0.705736
2.29643 1.23583 -0.261153
1.98155 2.47367 0.726855
1.35994 1.31205 0.71388
1.74547 2.25691 0.742686
1.53304 0.564977 -0.171866
1.99055 2.78441 0.705746
2.43966 1.38366 -0.330809
3.02859 2.1939 0.0456806
0.960676 0.340664 0.318885
1.94689 1.48338 0.620455
1.63897 0.646565 -0.109643
1.32826 1.60023 0.740297
1.75741 1.96808 0.743921
0.847889 1.70876 0.670838
2.20164 3.1851 0.661073
1.23049 1.87808 0.729229
1.95683 1.6412 0.664621
1.30456 1.83811 0.738947
2.29143 1.25869 -0.00599686
1.39768 2.28919 0.718061
1.42645 0.867508 0.556227
2.07348 2.20935 0.715684
1.81235 1.01157 0.420983
1.53646 0.570589 -0.0578046
2.48711 2.50335 0.637543
1.80301 2.70837 0.709004
1.67558 0.847716 0.376129
1.62937 2.32881 0.735526
2.09708 3.09072 0.672852
1.64524 1.00348 0.534704
1.90479 1.09869 0.418522
2.13672 2.44444 0.712592
3.08999 2.187 -0.136795
1.5419 1.34271 0.698766
2.23637 1.83489 0.606347
1.77882 0.783355 0.061533
2.8109 1.79355 -0.35907
1.41607 0.926129 0.591199
2.47187 1.47345 0.0456336
0.93144 1.92433 0.671929
2.45922 2.10048 0.574487
0.886445 1.15017 0.677648
1.84586 0.822975 -0.0453958
1.43929 1.73538 0.746938
1.64256 0.81312 0.367837
0.96586 1.45318 0.702708
2.05179 3.01773 0.681208
0.579417 1.64782 0.602097
2.46817 1.81969 0.451715
2.2755 2.00712 0.634662
0.791959 0.504641 0.502596
1.5852 1.31883 0.685155
1.49717 0.647792 0.2953
1.31247 1.20216 0.698231
1.87498 0.846036 -0.0682161
1.61429 0.688938 -0.578574
2.66957 1.71316 0.0514269
0.984367 0.345553 0.31101
1.92086 1.81904 0.708505
1.73583 1.04377 0.507354
1.72023 2.25431 0.742772
1.33597 0.94197 0.6206
1.48819 1.1325 0.6536
3.1631 2.21856 -0.497972
2.0421 1.12948 0.291283
2.23439 1.2285 0.0933418
2.24912 1.76212 0.574944
2.69229 2.07722 0.403071
2.64789 1.66257 -0.00668784
1.25505 0.382349 0.0121068
2.5944 1.5849 -0.65736
1.97223 2.5926 0.721174
1.80411 1.76706 0.723937
0.920725 0.779715 0.611611
2.93752 1.96329 -0.2169
2.62129 1.78656 0.255503
0.955439 0.688191 0.577557
1.46648 1.47477 0.728885
0.711072 1.10556 0.645414
1.78403 1.54168 0.691269
1.33609 1.10607 0.674071
3.16747 2.2239 -0.538719
1.36409 0.750349 0.507619
1.59097 1.21307 0.653458
0.808838 1.24094 0.671424
2.72137 1.94102 0.270917
1.21602 0.662004 0.508135
1.45514 0.518223 -0.306918
1.77241 0.772209 0.0350309
2.12381 1.66931 0.605762
2.10511 1.09151 -0.565883
1.94086 2.57616 0.723038
0.823732 1.71122 0.664917
1.89108 2.23348 0.737877
2.19861 1.88431 0.63652
1.92502 2.53484 0.726021
1.78142 0.787073 0.0678426
2.54423 3.55451 0.601752
2.42812 1.37188 -0.336479
2.2759 1.64272 0.50344
2.79089 1.78642 -0.193465
1.74291 0.751394 -0.407765
1.57584 1.88421 0.749739
2.50807 1.5319 0.0850969
2.33174 2.40298 0.673311
1.28266 0.553644 0.372611
2.58909 3.14993 0.628458
1.13229 1.99793 0.705902
1.62798 0.658673 -0.392711
0.994227 0.812863 0.620306
0.825935 1.55645 0.674289
0.945729 1.02962 0.668971
0.906036 0.552144 0.517341
2.62839 1.77931 0.236604
2.00376 1.92781 0.704666
2.6508 1.62523 -0.545539
2.6458 2.56309 0.586964
1.53861 0.650976 0.243356
1.89887 0.954759 0.235262
2.43795 1.68277 0.387391
2.25373 1.4126 0.352326
3.01745 2.11937 -0.0594731
1.94462 1.72296 0.686585
3.4599 2.60755 -0.766072
1.75684 0.802134 -0.589527
2.42222 1.36606 -0.225555
1.04192 0.482552 0.434479
2.70545 2.3275 0.502138
2.08975 1.59506 0.595268
0.959008 1.59009 0.699863
1.88889 0.853893 -0.131752
1.50265 0.543933 -0.0795535
1.55111 0.581593 -0.0583694
2.10535 1.07733 0.0300219
2.26977 1.25633 -0.623189
1.06559 0.322249 0.197538
2.22668 2.2723 0.68882
1.11093 1.71707 0.720245
1.13336 0.307359 0.00876896
1.93067 2.82593 0.700884
1.05469 1.43227 0.714431
2.20832 1.57368 0.514387
2.31837 2.4641 0.68049
3.20775 2.30252 -0.286477
1.37592 0.45553 -0.0499435
1.15866 0.875758 0.627617
1.97972 2.46544 0.727275
1.23207 1.10487 0.684131
1.59922 0.619283 -0.0492184
1.35696 1.56252 0.739277
2.07597 1.46821 0.546509
2.72436 1.69872 -0.259321
2.65413 2.44107 0.561069
2.0953 1.3205 0.435898
1.75602 0.853182 -0.761501
1.92062 1.21426 0.499405
1.13549 0.971701 0.658675
2.41029 3.33608 0.635682
2.8753 2.30352 0.358936
2.85856 2.06244 0.19284
2.52583 2.16732 0.558424
1.98335 1.69425 0.668796
1.45102 0.505998 -0.197873
2.91101 2.21705 0.262055
1.60806 2.15435 0.745214
2.36582 2.51512 0.672166
2.49375 2.03869 0.534908
3.10951 2.17888 -0.250688
2.3347 1.42949 0.260151
2.29869 1.2381 -0.258804
1.61109 2.3583 0.732105
2.09533 1.37461 0.476815
1.72741 1.30047 0.640667
1.93499 1.68357 0.681233
