ply
format ascii 1.0
comment Created by Open3D
element vertex 400
property double x
property double y
property double z
end_header
1.73596 -0.712386 0.262106
3.53669 -0.0937978 -0.599082
1.58663 -0.623125 -0.266235
2.13017 0.625873 -0.697633
2.48644 -0.720784 0.596584
2.01303 -0.734666 0.280626
1.38452 0.217586 -0.667486
2.0729 -0.682561 -0.197669
3.57588 -0.179593 -0.551447
4.22019 0.617478 -0.615588
1.39065 -0.664737 0.274117
1.83084 -0.364373 -0.596107
2.69152 0.360698 -0.746008
3.20109 -0.184985 -0.613435
2.68742 -0.190504 -0.668226
1.44948 -0.610582 0.645042
1.47133 -0.682945 0.154905
3.56732 0.629771 -0.686961
0.908151 -0.288202 -0.454698
2.86463 0.604459 -0.722399
2.13782 -0.621211 -0.338919
2.38568 -0.548128 -0.437692
2.75794 -0.146776 -0.678774
1.69495 -0.366804 -0.583136
0.995557 -0.308271 -0.473239
2.28883 -0.700072 -0.145998
2.14132 0.652712 -0.693012
3.42522 -0.659095 0.0343648
2.25324 0.0912405 -0.74224
3.41619 -0.694986 0.220886
2.06455 -0.690552 0.635612
2.51408 -0.0899594 -0.709951
1.66678 0.346712 -0.697332
3.02526 -0.113255 -0.664855
1.73979 0.157034 -0.715904
1.77247 -0.134049 -0.685521
3.70265 -0.303885 -0.441275
3.28047 -0.704483 0.181083
1.26209 -0.591903 -0.210787
1.50876 0.212731 -0.686921
2.38132 0.139687 -0.746757
2.92659 -0.737201 0.422241
3.3529 0.339491 -0.710661
2.51957 -0.314359 -0.622531
3.21606 -0.221145 -0.593465
1.225 0.207509 -0.638699
2.95924 -0.727569 0.145369
2.12716 -0.1102 -0.70878
3.87562 -0.657514 0.440694
2.03529 -0.214025 -0.675935
4.0458 0.74618 -0.63316
1.51503 0.125312 -0.689092
2.80598 0.470612 -0.737452
4.06903 0.412564 -0.628284
3.4713 0.583725 -0.697525
2.32993 -0.658636 -0.258484
2.2585 -0.743785 0.330805
2.19197 -0.683797 0.712427
1.42115 -0.337403 -0.562927
1.49023 -0.109756 -0.660054
3.31627 0.719012 -0.693632
2.6963 -0.74595 0.35995
1.73499 0.126932 -0.715062
1.97745 -0.681574 0.641664
2.98578 -0.734715 0.426185
3.31132 0.439534 -0.715284
3.38637 -0.706884 0.324814
1.83116 -0.654674 -0.245216
2.709 0.0382468 -0.727847
3.08885 -0.715297 0.127787
2.98736 -0.710206 0.0446162
1.30161 0.173685 -0.654605
1.69645 -0.703203 0.0044833
4.13714 0.694975 -0.625235
3.17424 -0.0953614 -0.653269
2.3319 -0.742354 0.383544
1.32713 -0.653594 0.0139435
1.16844 -0.627117 0.204427
2.72808 -0.567612 -0.373638
2.96151 -0.737318 0.295128
3.17717 -0.639138 -0.132552
3.6324 -0.670761 0.236951
3.21301 -0.536162 -0.317878
2.58805 -0.678867 -0.179763
3.43235 -0.0706777 -0.625332
1.20586 -0.36663 -0.49688
1.69798 -0.677447 -0.139933
2.96955 -0.490507 -0.429313
1.40301 -0.598061 -0.261959
2.02771 -0.727396 0.384416
3.60445 -0.502198 -0.252222
2.62108 -0.270558 -0.638182
1.71268 0.288793 -0.708043
2.90556 0.0766639 -0.722084
3.23957 -0.631577 -0.129843
1.40489 -0.621989 -0.200681
3.10247 -0.310417 -0.559673
1.70241 -0.693698 0.410648
3.31794 -0.699953 0.666643
3.01865 -0.359575 -0.539095
3.06399 -0.598038 -0.255232
2.94487 -0.542203 -0.370517
2.15779 0.356067 -0.737757
1.74463 -0.712942 0.0602223
1.15978 -0.617304 -0.0138163
2.77009 -0.648618 -0.221342
3.2265 -0.171619 -0.615781
2.57912 -0.748083 0.198803
2.63479 -0.71951 -0.0263195
2.27599 0.392475 -0.739745
1.1479 -0.344076 -0.496854
3.1039 -0.145586 -0.643574
3.22051 0.508175 -0.718825
1.90036 0.215783 -0.729293
2.9106 -0.73688 0.21787
2.09536 -0.740583 0.252393
2.79188 -0.0954066 -0.692473
3.0426 0.430939 -0.731969
1.98197 0.702182 -0.668332
3.05119 -0.718392 0.602992
1.5884 -0.0528957 -0.683564
1.30792 -0.626161 0.453661
2.53292 0.0484949 -0.736125
4.17365 -0.621731 0.581001
3.71334 -0.603584 0.00130371
1.47278 0.565084 -0.633334
1.94163 -0.194511 -0.679049
1.64735 -0.638481 0.659201
3.62393 -0.523764 -0.211166
1.41602 -0.614986 0.602766
3.74716 -0.581209 -0.0425913
3.69248 -0.665822 0.259992
1.72395 -0.689585 -0.0978353
1.33262 0.0199324 -0.655142
1.25236 -0.608777 -0.152523
1.98947 -0.417293 -0.568727
1.33855 -0.436903 -0.472867
2.94224 -0.11988 -0.67138
1.00849 -0.455666 -0.340054
3.33146 0.645814 -0.701464
2.61019 0.700681 -0.705811
0.940289 -0.495588 -0.235642
1.2355 0.316327 -0.632087
2.9441 -0.737191 0.260621
3.31993 -0.302474 -0.527036
2.90085 0.66823 -0.71299
3.23237 0.263373 -0.717073
1.9804 0.622083 -0.685993
3.10284 -0.241821 -0.599659
3.12297 -0.728769 0.363329
1.57433 -0.588448 0.802148
1.12095 -0.52896 -0.27798
0.939787 -0.340871 -0.429429
2.29304 -0.716845 -0.0807454
1.53412 0.0819431 -0.690373
3.89844 0.699193 -0.652003
2.05038 0.642603 -0.687903
1.16058 -0.622659 0.250449
1.92324 0.659004 -0.672394
1.07344 -0.585723 -0.080877
1.31875 -0.488016 -0.414294
2.29346 0.457512 -0.733652
1.96557 0.655095 -0.677505
2.96315 -0.736927 0.283117
2.10063 -0.373351 -0.600629
2.0023 -0.70446 0.53514
1.71843 0.508846 -0.679956
4.17327 -0.621119 0.552339
1.63866 -0.652891 -0.203439
2.2609 0.526362 -0.722982
1.22151 -0.618052 -0.0883582
2.02497 -0.718376 0.457076
1.41119 -0.334825 -0.562655
1.2753 -0.568978 -0.272162
2.52146 -0.743167 0.107667
2.04694 -0.71467 -0.0734799
2.4466 -0.684448 -0.183222
3.21355 -0.511832 -0.351418
1.60583 -0.278811 -0.619919
2.49778 -0.0560738 -0.718576
2.02938 -0.636008 -0.308052
2.1983 -0.0504256 -0.722714
1.88979 -0.115478 -0.698232
2.8855 -0.429671 -0.503379
2.71952 -0.723474 0.0160744
2.95136 -0.302386 -0.586614
4.07101 0.513722 -0.634322
3.76369 0.676797 -0.666677
1.04278 -0.301442 -0.492968
3.83823 0.705132 -0.657562
1.56266 -0.691955 0.0464346
0.973764 -0.468943 -0.303267
1.26721 0.330455 -0.636725
2.98186 -0.736527 0.310387
3.34069 -0.686477 0.108467
2.96649 -0.689816 -0.0517938
2.73034 -0.729977 0.552687
2.05613 -0.569115 -0.418925
3.45812 0.366841 -0.701881
0.977441 -0.36864 -0.42115
1.11007 -0.533482 -0.263268
2.49752 -0.638723 -0.286047
3.03807 -0.700623 0.0198626
2.34179 0.121372 -0.745442
2.89683 -0.706571 -0.00869902
3.18693 -0.701554 0.700314
3.58551 -0.685852 0.324052
2.06205 0.0941435 -0.736764
1.62239 -0.45523 -0.50897
2.53996 -0.732467 0.522917
1.91456 0.326619 -0.724339
3.56185 -0.681237 0.248467
3.12078 -0.0938156 -0.660434
3.27559 0.623146 -0.706766
1.21459 0.00163729 -0.630827
2.28438 -0.711803 0.601903
2.61422 0.0963853 -0.739655
4.06685 -0.636045 0.560875
3.5797 -0.371021 -0.414579
1.21197 -0.548283 -0.285267
3.3143 -0.575611 -0.224519
2.59077 -0.416541 -0.549759
2.16151 0.712489 -0.681529
2.5304 -0.738903 0.0695034
2.49707 -0.233587 -0.662843
1.75676 -0.328999 -0.610611
2.30282 -0.721798 0.547218
2.57785 -0.725679 0.577589
2.76991 -0.0507929 -0.706097
2.05745 0.00193482 -0.727545
2.62977 -0.678685 -0.173175
2.56399 -0.70087 -0.11564
2.23075 0.643188 -0.701008
1.98865 -0.710146 0.493646
2.51632 -0.697514 -0.134416
3.02204 -0.71862 0.60869
3.84813 -0.662893 0.501373
1.22512 -0.612278 -0.117642
1.54475 0.0217848 -0.687585
1.76331 -0.258089 -0.644481
2.35639 -0.632021 -0.311999
3.14214 0.0528039 -0.697394
4.10081 -0.625138 0.432298
2.12338 -0.729871 0.00296066
3.59157 -0.216288 -0.527542
2.2124 -0.674982 -0.222688
1.85293 -0.435099 -0.548661
2.47848 0.0369261 -0.735786
1.35434 -0.659186 0.266106
2.82047 -0.673368 -0.147322
1.00937 -0.528345 -0.211575
3.81205 -0.660971 0.692841
1.67994 -0.10137 -0.68462
2.42325 -0.370599 -0.594681
3.43194 -0.682077 0.144857
2.13193 0.355075 -0.736515
3.15068 -0.72591 0.44042
2.70141 0.644155 -0.717025
3.52118 0.568311 -0.694511
1.58137 -0.636554 -0.231056
1.69478 -0.666192 0.564712
3.2064 -0.53049 -0.32772
1.41301 -0.64872 0.43256
1.9806 -0.239736 -0.664594
3.32439 0.206439 -0.703099
3.60088 -0.663329 0.163759
2.35834 -0.737166 0.0366355
3.50979 -0.581322 -0.145008
2.71016 -0.72245 0.00784994
3.07752 -0.718098 0.597588
1.44255 0.337491 -0.666911
1.35211 -0.441953 -0.471397
2.31549 -0.257371 -0.659489
3.88917 -0.633934 0.240064
2.54131 0.528688 -0.731758
3.93283 -0.652689 0.514589
0.904163 -0.259356 -0.470484
3.80992 -0.66587 0.60893
3.55671 0.195999 -0.674689
1.39579 -0.0506 -0.65693
2.45922 -0.543586 -0.437634
1.84954 -0.719369 0.319059
3.30584 -0.707447 0.229427
2.13037 -0.704172 -0.128828
3.33662 -0.0922306 -0.631979
1.24314 -0.643928 0.135388
1.17624 -0.541147 -0.282233
1.3128 -0.381705 -0.512195
3.17301 -0.679129 -0.0110407
3.75694 0.0461743 -0.610374
3.68133 -0.664844 0.241624
3.83429 0.111241 -0.615311
2.60557 -0.740688 0.452018
1.89348 -0.492296 -0.500894
3.55398 -0.186235 -0.552205
1.85222 -0.701671 0.468181
3.08571 -0.157906 -0.640944
3.70444 -0.603522 -0.00352788
1.45343 0.063449 -0.678009
1.25006 -0.639582 0.269432
3.03619 -0.269725 -0.593975
1.41644 -0.565727 -0.331123
2.90033 0.254914 -0.739264
1.01825 -0.571494 -0.0802956
3.08402 0.0826575 -0.708637
2.34129 -0.459228 -0.532372
1.40078 -0.628085 0.531825
1.41868 -0.463425 -0.465745
2.59693 0.0421566 -0.733257
1.46817 -0.671156 -0.0294844
3.14297 0.396273 -0.727363
2.77332 -0.728044 0.566824
2.34789 -0.697608 -0.151452
1.22638 0.0939094 -0.639869
2.07554 -0.738137 0.107167
1.93382 -0.670665 -0.218045
3.55744 -0.683628 0.678868
2.40994 0.451273 -0.738123
2.57716 0.587342 -0.724242
4.01149 -0.639915 0.698455
1.84012 -0.638592 0.758552
1.48207 -0.673166 0.336866
3.04449 0.0390222 -0.704062
1.0972 -0.0638923 -0.594958
1.53683 -0.0575634 -0.676367
2.00557 -0.659637 -0.254323
3.47894 0.202318 -0.685328
3.80201 -0.00955764 -0.583332
3.4566 0.665118 -0.691948
1.83452 -0.555501 -0.424629
2.16443 -0.72246 -0.0490399
3.78826 -0.648893 0.236843
2.40808 0.385096 -0.744096
3.59082 -0.667555 0.179855
2.01131 0.486875 -0.713015
3.50603 -0.611178 -0.0765916
2.25228 -0.494586 -0.503284
3.05339 -0.347352 -0.542428
2.91504 -0.375452 -0.542838
4.26547 0.761638 -0.606118
1.91217 0.133544 -0.730074
1.55423 0.272112 -0.689752
1.64837 -0.706014 0.173684
2.28762 -0.738664 0.408674
1.9059 -0.726411 0.0684614
1.79589 0.0110183 -0.712988
2.27486 0.0317892 -0.736369
2.57941 -0.659851 -0.229519
2.68127 -0.461747 -0.501783
2.30653 -0.717955 -0.0754352
2.38574 -0.621841 -0.328589
3.78072 0.439045 -0.669345
2.45401 -0.721194 -0.0497257
1.08889 -0.576392 -0.135228
2.52743 -0.749836 0.250466
1.24191 -0.60488 -0.15861
1.85702 0.572497 -0.683777
2.10125 -0.694941 0.628451
2.92823 0.253124 -0.737744
1.23684 -0.277669 -0.557881
1.37963 -0.0651064 -0.651864
1.62189 0.176866 -0.702846
1.96235 -0.657644 -0.255356
2.67853 0.516531 -0.734271
1.98081 0.56702 -0.69689
1.66889 -0.553266 -0.407234
2.61508 0.520724 -0.733584
1.96359 -0.703009 0.524259
2.53992 0.371402 -0.746492
2.6285 -0.535663 -0.429597
0.929654 -0.223136 -0.497974
1.73233 -0.692523 0.443203
2.85725 -0.6137 -0.27494
2.74304 -0.723325 0.603335
1.53991 -0.598832 0.746792
3.73265 -0.0701775 -0.572732
2.58911 -0.50812 -0.46575
2.90916 -0.739188 0.387968
2.10241 -0.076226 -0.715804
1.87408 -0.725913 0.251803
2.9286 -0.202369 -0.640861
1.62491 -0.703021 0.187071
1.10066 -0.549171 -0.223139
3.49958 -0.189676 -0.560864
2.08973 -0.676347 -0.216473
2.95827 0.411573 -0.736443
3.05739 -0.248056 -0.602784
1.40202 -0.671435 0.191985
2.95663 0.202819 -0.733149
1.54988 -0.65179 -0.17339
2.35025 -0.736746 0.448266
3.47642 0.291084 -0.695444
2.14584 0.156319 -0.742979
3.43752 -0.393251 -0.428959
1.05568 -0.598712 0.0395223
1.98427 -0.0040665 -0.723534
1.82944 -0.701659 -0.0807206
3.00214 -0.610015 -0.248415
3.31335 0.362577 -0.714827
2.15827 0.364071 -0.737121
