ply
format ascii 1.0
comment Created by Open3D
element vertex 200
property double x
property double y
property double z
end_header
1.76999 -2.32381 -1.2705
1.88449 -3.32172 -1.74457
1.47701 -7.13448 -3.54743
4.79225 -6.65472 -0.747104
2.0368 -3.21271 -1.59023
0.279604 -1.08902 -1.28336
3.74783 -7.71756 -2.45591
2.43213 -7.75412 -3.31956
-0.0852687 -7.40019 -4.16353
1.45974 -3.29069 -1.97012
-1.34883 -0.586005 -0.886177
4.10335 -4.41342 0.552186
-0.73192 -1.54053 -1.78619
1.42828 -2.7593 -1.72079
4.8707 -11.2921 -3.01483
4.24584 -5.19842 -0.511775
0.455923 -1.48295 -1.469
1.50976 -7.47437 -3.65732
-0.437341 -3.62154 -2.78294
-0.192742 -0.882238 -1.2751
1.11565 -7.69248 -3.89245
0.2596 -0.924419 -1.17612
1.39548 -0.701057 0.635234
-0.552958 -3.16805 -2.60167
1.19757 -0.460679 -0.101376
-0.780686 -0.159778 -0.228161
2.70437 -2.54974 -0.578065
4.37056 -9.49855 -2.70511
-0.657308 -4.77145 -3.30403
0.545681 -0.36832 0.584923
4.8418 -6.68151 -0.677037
1.52824 -1.13807 -0.603122
4.08853 -4.72194 -0.358423
2.70052 -2.65883 -0.67314
2.53242 -1.78488 0.0504905
-0.253157 -0.155986 -0.587152
-0.13335 -0.156513 0.282627
2.03241 -1.2928 0.733125
3.41247 -3.15882 0.700278
-0.163238 -0.100608 0.196815
3.43472 -3.34973 0.885083
-1.00073 -0.258042 -0.397738
-1.1136 -1.91984 -2.02815
2.44446 -1.70365 -0.0227044
1.80081 -0.930216 0.511254
2.45885 -3.31656 -1.33836
-0.759134 -0.550205 -1.05621
3.31423 -8.2694 -2.99158
-0.229398 -3.61204 -2.73454
0.191649 -0.0573788 0.202511
-0.974637 -1.47447 -1.75823
5.19295 -11.6442 -2.87449
1.30162 -0.465376 0.185382
2.48357 -2.13865 -0.490566
2.80674 -6.43426 -2.58113
0.973219 -3.20724 -2.16112
3.25839 -2.81523 0.49968
-0.295995 -8.1868 -4.48584
-0.74695 -3.30553 -2.69487
0.797406 -3.44539 -2.34304
3.18671 -3.22112 1.09622
0.984253 -2.75245 -1.93688
2.69072 -2.61723 1.15514
3.74229 -7.95406 -2.56054
4.67195 -8.98107 -2.21255
-0.412847 -0.0649977 -0.0229274
-1.42065 -0.577182 -0.354162
0.950719 -0.321557 0.417413
0.0535928 -1.97945 -1.88238
1.73909 -1.14264 -0.394059
-0.888006 -3.50565 -2.80356
1.54239 -2.26549 -1.38434
3.84093 -3.86249 0.293951
4.66089 -6.25655 -0.66122
2.17166 -8.25039 -3.63526
-1.75909 -0.977122 -0.326004
0.777107 -0.664204 -0.729794
4.73345 -6.37544 -0.62472
4.6153 -6.46202 -0.897579
3.5129 -3.35265 0.00260269
4.185 -8.11099 -2.26675
2.90922 -3.75574 -1.20518
1.52902 -5.63199 -2.95241
3.05482 -2.70722 0.868086
0.388237 -3.81779 -2.6532
-0.365476 -0.0274976 -0.14343
1.97377 -7.28529 -3.37801
2.28108 -1.41686 0.178228
3.5312 -4.63599 -1.10836
1.79541 -1.04935 0.701282
4.26061 -5.56641 -0.790838
-0.221264 -0.635915 -1.09097
3.84453 -9.63154 -3.15816
0.207677 -0.864107 -1.15043
1.95767 -1.04704 0.18438
5.05626 -11.6849 -3.0125
2.76668 -2.47081 1.01289
2.51659 -4.93233 -2.11475
3.63695 -3.48033 0.491473
1.93254 -1.11514 0.626747
0.788692 -2.9807 -2.13087
3.84134 -9.87434 -3.25303
2.23196 -1.75988 0.96283
-1.37363 -0.534203 -0.352755
0.851966 -3.31102 -2.25994
-0.199797 -0.142931 -0.560539
0.251478 -0.290026 -0.620766
1.45436 -0.673384 -0.11917
4.25273 -8.15081 -2.22471
0.917468 -1.7632 -1.43557
-1.08661 -0.43122 -0.823307
0.336736 -7.84214 -4.20403
-1.16767 -0.460075 -0.816535
-0.23767 -2.84045 -2.3867
1.95455 -3.07343 -1.57058
2.03539 -1.17905 0.0290313
0.775382 -1.42624 -1.29765
4.92939 -10.1085 -2.47008
1.81438 -1.89141 -0.959009
2.58827 -1.96839 0.78499
1.1651 -2.89441 -1.92355
-0.554232 -0.265408 -0.746254
0.0978692 -0.0408494 -0.283804
2.09509 -6.12541 -2.87005
2.81052 -6.71169 -2.69335
2.50234 -8.05464 -3.39382
5.05449 -11.739 -3.03561
4.28493 -6.6275 -1.43522
0.258822 -1.86577 -1.75863
0.740097 -3.85033 -2.54463
2.48794 -6.78366 -2.91565
4.88785 -9.08237 -2.04339
-0.163719 -1.17098 -1.46607
-0.160339 -0.275394 -0.731404
4.16212 -6.47202 -1.48548
1.90649 -1.00449 0.440514
-0.675719 -3.62434 -2.82649
-0.564027 -0.224251 -0.685906
0.761548 -4.63823 -2.86875
-0.343504 -0.0418478 -0.0328675
-0.569345 -0.2623 0.179475
2.77616 -5.61545 -2.24916
3.50722 -3.2341 0.406021
2.34001 -1.94292 1.00805
4.14053 -4.49784 0.571206
0.623357 -3.26933 -2.32907
3.64934 -3.99811 -0.478477
0.269463 -0.674243 -0.981666
-1.09463 -0.930815 -1.36378
-1.40901 -0.596655 -0.288133
-1.1056 -0.745822 -1.19693
1.31559 -6.19897 -3.26595
-0.278723 -7.2289 -4.14901
5.1177 -12.2939 -3.20003
-0.41061 -5.40698 -3.50675
4.55269 -5.37188 0.208876
1.04415 -6.85049 -3.61646
1.5361 -0.683237 0.448019
0.329259 -0.984811 -1.19365
3.87236 -4.34812 -0.411755
1.01801 -0.483843 -0.356124
0.162876 -5.63259 -3.45286
3.1896 -2.80549 0.733742
0.346426 -1.50267 -1.52124
1.8614 -1.55809 -0.66442
2.22531 -2.19837 -0.822216
-0.228954 -6.80869 -3.98769
-1.18214 -1.71445 -1.90579
-1.08436 -1.34037 -1.66904
2.41174 -2.64589 -0.963373
0.657228 -2.52819 -1.96204
0.499167 -3.26363 -2.37078
0.102387 -4.75453 -3.12697
-0.138519 -2.30991 -2.10437
0.579992 -1.12005 -1.18537
0.265999 -0.125035 0.323596
-0.85 -0.211241 -0.530703
3.2003 -4.70325 -1.47746
2.49957 -2.40291 -0.697956
4.1218 -7.84338 -2.20179
3.72775 -4.01699 0.994376
3.07008 -3.85304 -1.10846
-0.270731 -0.0633836 0.0781918
0.268997 -3.02059 -2.33479
1.76801 -4.55825 -2.3896
2.79962 -2.92857 -0.767703
3.96078 -7.71765 -2.2837
3.21186 -3.20481 -0.453024
0.9868 -0.331524 0.406737
-0.608518 -4.90825 -3.35011
3.56074 -3.36476 0.57982
3.10333 -2.58018 0.563887
2.49483 -1.66589 0.350103
-0.533177 -0.0676815 -0.294798
1.78023 -6.81326 -3.29312
2.35121 -2.02993 1.05346
1.0096 -5.27117 -3.02956
-0.445636 -1.08235 -1.46065
-1.17308 -1.02562 -1.43011
-1.30346 -0.485327 -0.317063
