ply
format ascii 1.0
comment Created by Open3D
element vertex 400
property double x
property double y
property double z
end_header
1.00237 -0.68907 -1.45265
2.15438 0.35729 -2.84726
0.67724 -0.25236 -1.5666
1.47038 0.93586 -1.54214
1.69608 -0.93152 -1.82028
1.19641 -0.71792 -1.65045
0.75405 0.62584 -1.20395
1.02565 -0.34287 -1.90588
2.16301 0.26294 -2.89405
2.98507 0.87191 -2.98318
0.78803 -0.66387 -1.17865
0.81436 0.16386 -1.77484
1.71054 0.78256 -2.09585
1.8643 0.30296 -2.66272
1.47093 0.3378 -2.32966
1.04217 -0.88786 -1.00771
0.77637 -0.59245 -1.30441
2.49388 0.93107 -2.55107
0.27071 0.11773 -1.01361
1.96663 0.93823 -2.08457
1.0316 -0.19961 -1.99173
1.19402 -0.07809 -2.17984
1.53738 0.37618 -2.36293
0.72354 0.15297 -1.67348
0.31321 0.11665 -1.09472
1.19541 -0.39179 -2.04148
1.49399 0.95157 -1.53429
2.10963 -0.49035 -2.73436
1.26778 0.58936 -1.91878
2.17856 -0.64762 -2.65266
1.43239 -0.93774 -1.48733
1.37777 0.4384 -2.17768
1.00328 0.73825 -1.3539
1.75013 0.39004 -2.52824
0.95078 0.61726 -1.50965
0.84354 0.38995 -1.66311
2.24559 0.09715 -2.99075
2.05794 -0.62619 -2.58134
0.49109 -0.26949 -1.29378
0.82976 0.63615 -1.30395
1.38031 0.62681 -1.98738
1.91193 -0.81985 -2.22689
2.18527 0.74257 -2.55644
1.31316 0.21791 -2.25005
1.86679 0.26327 -2.6814
0.65061 0.59836 -1.0818
1.8014 -0.61726 -2.3836
1.09464 0.42326 -1.91362
2.63207 -0.77655 -2.84889
0.99419 0.32662 -1.88415
2.91732 0.97534 -2.8043
0.7894 0.57587 -1.35318
1.85071 0.85423 -2.11755
2.76938 0.73599 -2.9851
2.39768 0.90598 -2.51148
1.18895 -0.28295 -2.10607
1.39051 -0.75985 -1.80349
1.56427 -0.98728 -1.53564
0.55474 0.15947 -1.45507
0.66885 0.38912 -1.43866
2.35765 0.99889 -2.33227
1.71357 -0.78199 -2.09957
0.93276 0.59538 -1.52089
1.37831 -0.93567 -1.41822
1.957 -0.82088 -2.26553
2.20358 0.81658 -2.47933
2.20349 -0.72952 -2.58556
0.84488 -0.28953 -1.74477
1.57075 0.54171 -2.26035
1.89039 -0.59615 -2.4779
1.77959 -0.53374 -2.44518
0.67992 0.58569 -1.16084
0.85021 -0.50041 -1.54893
2.96027 0.93353 -2.89053
1.87021 0.3945 -2.61884
1.4695 -0.79613 -1.82831
0.6186 -0.47202 -1.25825
0.61487 -0.58799 -1.03756
1.45842 -0.13716 -2.39967
1.87301 -0.73005 -2.3152
1.86075 -0.35821 -2.63244
2.35159 -0.64185 -2.7854
1.84492 -0.15435 -2.69896
1.40071 -0.35292 -2.25934
2.07903 0.3922 -2.77504
0.42092 0.0921 -1.28443
0.79196 -0.38008 -1.60934
1.63988 -0.04327 -2.5597
0.56207 -0.23766 -1.42209
1.26232 -0.78617 -1.6053
2.17152 -0.17676 -2.92594
1.39901 0.25995 -2.30775
1.00142 0.70487 -1.42067
1.73183 0.5648 -2.37725
1.91001 -0.35478 -2.67143
0.58207 -0.29791 -1.40474
1.75873 0.17625 -2.62882
1.06226 -0.78089 -1.34531
2.32948 -0.96633 -2.36279
1.68517 0.12694 -2.58384
1.73993 -0.2424 -2.5932
1.62598 -0.1214 -2.5387
1.33494 0.77345 -1.71663
0.90728 -0.54671 -1.56
0.50453 -0.42673 -1.13565
1.52377 -0.30213 -2.39373
1.88778 0.31407 -2.67518
1.54907 -0.66955 -2.09835
1.49016 -0.49016 -2.23599
1.43573 0.8006 -1.783
0.39122 0.10803 -1.23215
1.80021 0.35213 -2.58937
2.17192 0.86762 -2.38257
1.087 0.66827 -1.60051
1.7986 -0.67511 -2.31761
1.23755 -0.70214 -1.72574
1.58022 0.42219 -2.3681
2.00093 0.8223 -2.30196
1.41839 0.9691 -1.38454
2.09982 -0.93436 -2.21522
0.75494 0.44595 -1.4914
0.83859 -0.76355 -1.01109
1.44723 0.55481 -2.13486
2.93085 -0.85046 -2.97158
2.32459 -0.42772 -2.92687
1.00729 0.84741 -1.07554
0.93616 0.34262 -1.80972
1.17521 -0.9176 -1.15449
2.19504 -0.22104 -2.92997
0.99517 -0.86108 -1.00739
2.33774 -0.38086 -2.96154
2.40806 -0.65465 -2.81389
0.82531 -0.41843 -1.61273
0.6247 0.47735 -1.25991
0.5049 -0.32262 -1.2662
0.91376 0.10708 -1.89978
0.49161 0.02543 -1.40138
1.68485 0.38997 -2.47611
0.31525 -0.08175 -1.11097
2.32787 0.95267 -2.38352
1.84312 0.99454 -1.84825
0.29927 -0.18381 -1.0305
0.71575 0.67063 -1.03151
1.84351 -0.70556 -2.32008
1.93279 0.15879 -2.7623
2.02883 0.97667 -2.07359
2.05878 0.69328 -2.51248
1.3684 0.92495 -1.43231
1.7733 0.25303 -2.61478
2.02555 -0.77223 -2.39099
1.22007 -0.9833 -1.00637
0.38916 -0.17747 -1.1961
0.27938 0.06262 -1.04968
1.22263 -0.44979 -2.02022
0.78057 0.54611 -1.389
2.78021 0.95544 -2.73302
1.42719 0.94081 -1.47249
0.63455 -0.61738 -1.00676
1.35324 0.94144 -1.36663
0.42574 -0.35698 -1.09234
0.48134 -0.05213 -1.38365
1.48365 0.84228 -1.75979
1.37866 0.94229 -1.40107
1.86836 -0.72128 -2.32217
0.99838 0.16071 -1.97236
1.33118 -0.87653 -1.5005
1.12956 0.84061 -1.30067
2.91656 -0.82976 -2.98534
0.73054 -0.31781 -1.58687
1.50039 0.88342 -1.69701
0.51053 -0.37455 -1.21694
1.30122 -0.83117 -1.56252
0.54912 0.1611 -1.4466
0.4812 -0.20988 -1.32234
1.46519 -0.60163 -2.10069
1.05333 -0.45339 -1.84148
1.29617 -0.35442 -2.16384
1.8407 -0.11343 -2.70395
0.68613 0.2412 -1.58486
1.37887 0.46846 -2.15352
0.96296 -0.2319 -1.90702
1.16786 0.47538 -1.941
0.92943 0.41207 -1.74314
1.57383 0.05212 -2.50688
1.56929 -0.52294 -2.27669
1.64243 0.20098 -2.53143
2.81834 0.81179 -2.93894
2.66639 0.94998 -2.65627
0.34015 0.13543 -1.13456
2.73782 0.96357 -2.69025
0.78221 -0.52212 -1.42773
0.30245 -0.11715 -1.07466
0.74292 0.6839 -1.04919
1.89542 -0.74028 -2.32156
2.07322 -0.56211 -2.65123
1.72682 -0.45115 -2.46843
1.842 -0.90698 -2.01929
0.95988 -0.1062 -1.94792
2.27774 0.7557 -2.61278
0.29626 0.03713 -1.08605
0.38656 -0.19107 -1.18331
1.30363 -0.24938 -2.2284
1.80786 -0.50946 -2.48862
1.34386 0.61293 -1.96793
1.69073 -0.49347 -2.406
2.25288 -0.99127 -2.25412
2.35444 -0.71411 -2.71624
1.13678 0.58754 -1.7794
0.6651 0.038 -1.6293
1.69125 -0.88769 -1.9008
1.15494 0.74314 -1.55266
2.30222 -0.6574 -2.73499
1.8296 0.40066 -2.58385
2.27438 0.94039 -2.358
0.54425 0.44722 -1.17344
1.56035 -0.92893 -1.67025
1.5269 0.59117 -2.17017
2.83811 -0.84635 -2.91328
2.13843 0.0308 -2.92403
0.44022 -0.18598 -1.27377
1.9435 -0.24826 -2.74363
1.3488 0.0942 -2.3151
1.5439 0.98572 -1.51294
1.45456 -0.57163 -2.12396
1.31748 0.30353 -2.21391
0.77241 0.19913 -1.71202
1.54105 -0.89733 -1.71563
1.74877 -0.92155 -1.89686
1.58018 0.46337 -2.33707
1.09203 0.51582 -1.81764
1.4336 -0.35745 -2.28546
1.40476 -0.41382 -2.22127
1.54847 0.95049 -1.60629
1.29794 -0.85121 -1.51444
1.36334 -0.39817 -2.19527
2.08194 -0.93855 -2.19187
2.64028 -0.82326 -2.8018
0.50133 -0.34976 -1.23125
0.7594 0.5016 -1.4252
0.79556 0.27322 -1.69813
1.19421 -0.22629 -2.13823
1.89953 0.53047 -2.54412
2.80329 -0.74772 -2.99613
1.138 -0.51819 -1.86491
2.16771 0.22009 -2.91154
1.11557 -0.31982 -2.01324
0.81834 0.0803 -1.8021
1.40312 0.54639 -2.10198
0.76112 -0.65428 -1.1542
1.58403 -0.37197 -2.40472
0.34377 -0.22399 -1.08369
2.71146 -0.95729 -2.67959
0.7949 0.41242 -1.58089
1.23086 0.15845 -2.19614
2.15814 -0.58473 -2.69536
1.31678 0.77187 -1.69822
2.08512 -0.82472 -2.37061
1.87375 0.9625 -1.94662
2.42675 0.89295 -2.55295
0.68439 -0.28673 -1.552
1.14765 -0.87038 -1.24913
1.83816 -0.14338 -2.69637
0.89107 -0.76458 -1.10723
0.94833 0.30042 -1.85266
2.10237 0.64314 -2.59903
2.29642 -0.58484 -2.79599
1.31733 -0.54716 -2.01786
2.11863 -0.30852 -2.84496
1.55907 -0.5164 -2.27367
2.11588 -0.93033 -2.23639
0.85533 0.71022 -1.18475
0.49941 0.02082 -1.41276
1.17887 0.28434 -2.09573
2.55312 -0.61801 -2.94699
1.69544 0.89127 -1.89851
2.71188 -0.82539 -2.84998
0.27442 0.14929 -1.00426
2.66555 -0.90142 -2.72249
2.27563 0.61567 -2.75432
0.63321 0.42874 -1.34074
1.24832 -0.07492 -2.22954
1.10767 -0.73428 -1.50798
2.09857 -0.66247 -2.57659
1.0899 -0.40683 -1.9229
1.99724 0.38166 -2.72145
0.62476 -0.55106 -1.1333
0.42004 -0.18308 -1.24342
0.48134 0.09227 -1.37524
1.89857 -0.47241 -2.58874
2.37446 0.46425 -2.93866
2.39148 -0.64097 -2.8147
2.45922 0.51375 -2.96329
1.69808 -0.84337 -1.98675
0.8423 0.00608 -1.83549
2.14382 0.25878 -2.88226
1.19297 -0.82721 -1.42646
1.7825 0.34156 -2.58135
2.31591 -0.42426 -2.92296
0.72045 0.52429 -1.33501
0.69885 -0.64277 -1.069
1.71506 0.22928 -2.57876
0.55315 -0.16589 -1.45
1.80867 0.70299 -2.29302
0.39412 -0.34733 -1.04591
1.86774 0.55953 -2.49372
1.15974 0.05172 -2.15134
0.94237 -0.82018 -1.03863
0.53857 0.00164 -1.46774
1.49076 0.5483 -2.18186
0.68783 -0.45373 -1.38847
2.05687 0.79453 -2.38796
1.88042 -0.91561 -2.04164
1.23568 -0.38619 -2.08474
0.5942 0.51886 -1.14016
1.15214 -0.59772 -1.78311
0.92306 -0.32005 -1.81177
2.51311 -0.96343 -2.51787
1.56066 0.84103 -1.84751
1.75388 0.92743 -1.89078
2.86582 -0.94637 -2.80728
1.36114 -0.98793 -1.24118
0.87983 -0.7142 -1.21613
1.82026 0.52544 -2.4853
0.44641 0.37552 -1.10526
0.71974 0.43756 -1.45367
0.96117 -0.2866 -1.87513
2.21848 0.62766 -2.70149
2.39198 0.40572 -2.98487
2.43077 0.95959 -2.4576
0.80714 -0.09254 -1.78727
1.14473 -0.47618 -1.91623
2.47268 -0.62631 -2.88473
1.52327 0.79846 -1.88227
2.29524 -0.59921 -2.78294
1.30914 0.84845 -1.53528
2.13525 -0.37801 -2.82302
1.09367 0.00615 -2.09154
1.71418 0.13794 -2.60396
1.6021 0.11836 -2.52039
3.0939 0.96715 -2.93838
1.05384 0.61067 -1.65037
0.89019 0.68014 -1.30783
0.89941 -0.62204 -1.43174
1.4526 -0.81129 -1.78259
1.0187 -0.56206 -1.67665
0.9189 0.51195 -1.62087
1.25628 0.54317 -1.96086
1.37923 -0.30429 -2.2686
1.41418 0.02831 -2.37771
1.23427 -0.45433 -2.02766
1.21176 -0.20736 -2.16219
2.55822 0.78375 -2.78852
1.34979 -0.4748 -2.12071
0.41415 -0.31195 -1.12577
1.53748 -0.70732 -2.03685
0.49642 -0.31556 -1.25991
1.25747 0.88832 -1.36875
1.45256 -0.93578 -1.51905
1.82826 0.70065 -2.31288
0.4568 0.19814 -1.29235
0.61706 0.4149 -1.33403
0.88386 0.62205 -1.40984
0.93109 -0.28446 -1.84409
1.78514 0.88445 -2.00288
1.33571 0.89372 -1.46558
0.69983 -0.10326 -1.66033
1.74271 0.88693 -1.95557
1.29909 -0.86781 -1.47784
1.60845 0.79047 -1.98354
1.376 -0.075 -2.34126
0.29681 0.19434 -1.01792
1.10028 -0.80308 -1.3496
1.57606 -0.23954 -2.4647
1.87963 -0.93809 -1.99962
1.16286 -0.9515 -1.0149
2.31793 0.35536 -2.96084
1.34384 -0.02996 -2.31771
1.88148 -0.79702 -2.2327
1.09061 0.45225 -1.88264
1.08812 -0.69135 -1.56223
1.64922 0.31006 -2.49245
0.89101 -0.62939 -1.40696
0.39213 -0.23054 -1.16444
2.09931 0.26247 -2.84985
1.03125 -0.32518 -1.92407
1.92938 0.81177 -2.25425
1.73648 0.25083 -2.58732
0.75165 -0.61053 -1.2311
1.82549 0.66183 -2.35582
0.68334 -0.33828 -1.50852
1.51764 -0.83793 -1.80612
2.25602 0.69758 -2.66038
1.22401 0.6359 -1.81067
2.01959 0.02525 -2.8418
0.46688 -0.4513 -1.02607
1.03929 0.50874 -1.76689
0.90242 -0.43907 -1.6848
1.69362 -0.25569 -2.55205
2.16677 0.76184 -2.51902
1.3396 0.77866 -1.71265
