ply
format ascii 1.0
comment Created by Open3D
element vertex 400
property double x
property double y
property double z
end_header
-0.440902 -1.79676 -1.51255
-1.19729 -2.62672 -2.56514
-0.479362 -1.91627 -1.04581
-2.39826 -2.65062 -1.16361
-0.436462 -1.79275 -1.50066
-1.56597 -1.03913 -0.178007
-0.364867 -1.39913 -0.328182
-0.952826 -2.22268 -0.808548
-0.910973 -2.25968 -0.894525
-1.66349 -2.58208 -1.00257
-1.29428 -2.88217 -2.08698
-1.45827 -2.76374 -1.26788
-1.32383 -2.90837 -1.90824
-0.184357 -1.0927 -0.239964
-0.277546 -1.53796 -1.30458
-0.381682 -1.31083 -0.240006
-1.13255 -1.42839 -0.201617
-0.415114 -1.54018 -0.423628
-1.33375 -2.91139 -1.85558
-1.4139 -2.91801 -2.61266
-0.834365 -2.34202 -1.88416
-0.999997 -1.50445 -0.224966
-1.27789 -2.69283 -1.28589
-0.221911 -1.21527 -1.5529
-0.268397 -1.46934 -1.39936
-0.759496 -2.30103 -1.43835
-1.35354 -2.91674 -1.78736
-0.27411 -1.53888 -1.28325
-1.48308 -2.03881 -0.57265
-0.593065 -1.76405 -0.511818
-2.3369 -2.81726 -1.27164
-1.46392 -2.78642 -1.30009
-0.363368 -1.28544 -0.232864
-2.28876 -2.35777 -0.947926
-0.462356 -1.6065 -0.450208
-1.29143 -2.6685 -1.22895
-0.917436 -2.28892 -2.31397
-1.71589 -2.65766 -1.0733
-1.12639 -2.5305 -1.13765
-0.629396 -1.87309 -0.611266
-2.09973 -2.52428 -1.00324
-0.196116 -1.45213 -0.884584
-1.88817 -1.77658 -0.530712
-0.440683 -1.86626 -1.21827
-1.72188 -1.81758 -0.500667
-0.964741 -1.02815 -0.0286308
-0.739337 -2.26827 -1.30994
-0.562843 -1.93557 -1.73766
-2.40762 -2.82892 -1.29582
-0.955817 -2.5154 -1.86251
-0.410624 -1.1874 -0.139746
-0.779147 -2.16924 -2.07867
-0.0284893 -1.07028 -0.647123
-0.208688 -1.47625 -0.94019
-1.34787 -2.93364 -2.15094
-1.37778 -2.52736 -0.987991
-1.8426 -2.64819 -1.06471
-1.0153 -2.35681 -0.951419
-0.503955 -1.95365 -1.34152
-0.165343 -1.37949 -0.999602
-2.38252 -2.82543 -1.28761
-1.15255 -2.65974 -1.38766
-1.42331 -2.92836 -1.64246
-0.464032 -1.05819 -0.0519441
-0.259183 -1.2821 -0.325043
-1.69037 -1.25327 -0.277165
-0.218772 -1.07834 -0.192821
-0.505603 -1.69359 -0.508473
-1.31287 -2.90273 -2.0408
-1.16359 -2.6705 -1.39601
-2.43373 -2.93159 -1.38398
-0.53115 -1.5059 -0.306347
-1.35822 -2.79874 -1.41329
-1.70222 -2.39425 -0.844597
-0.248329 -1.55039 -0.932582
-0.569249 -1.6277 -0.390139
-1.13272 -2.46939 -1.03059
-0.754624 -2.25566 -1.76236
-2.21027 -2.56406 -1.05609
-0.766369 -1.01337 -0.00577706
-0.174507 -1.17802 -1.42907
-0.023278 -1.02604 -0.531758
-0.533823 -1.79774 -0.613288
-0.021687 -1.02384 -0.921763
-1.703 -1.76423 -0.470898
-0.245472 -1.31893 -0.382905
-1.99149 -2.4487 -0.928085
-1.89048 -2.2015 -0.747242
-1.40137 -2.60026 -1.0678
-0.711208 -1.85462 -0.528492
-0.263772 -1.57167 -1.0757
-1.42452 -2.24053 -0.710656
-0.312096 -1.34246 -1.71321
-0.736112 -1.49146 -0.230856
-1.26528 -2.60166 -1.13906
-0.966268 -2.30367 -0.912076
-0.28396 -1.41469 -0.441079
-0.764771 -1.79464 -0.445852
-0.184449 -1.17228 -1.46998
-1.41377 -2.9281 -1.66058
-2.25099 -2.24796 -0.874804
-1.66297 -1.58379 -0.382771
-0.764411 -2.1866 -1.99256
-1.49484 -1.62699 -0.35682
-1.21579 -2.74698 -1.51566
-1.62067 -2.22795 -0.71468
-1.36259 -2.03217 -0.556712
-0.171092 -1.35459 -1.13598
-1.47401 -2.76515 -1.26127
-2.89359 -2.99051 -1.5482
-0.611188 -2.08668 -1.5454
-1.27631 -2.85373 -2.17853
-0.94263 -1.92197 -0.501183
-0.362901 -1.57803 -1.60044
-0.175723 -1.31057 -0.511047
-0.25057 -1.43687 -0.537642
-0.824663 -2.30176 -1.10345
-0.546997 -2.02231 -1.20654
-1.11128 -2.28302 -0.800014
-1.22829 -2.44642 -0.944617
-0.135941 -1.22297 -0.473373
-1.42924 -2.97274 -1.78433
-0.13061 -1.29963 -0.995458
-0.604711 -1.92937 -1.9027
-1.05103 -2.51272 -1.1961
-1.24721 -2.82764 -1.78153
-1.1324 -2.02132 -0.551077
-0.578611 -1.98256 -1.69959
-1.26351 -1.97562 -0.513833
-0.685964 -2.11234 -0.935672
-1.21953 -2.81023 -1.90085
-1.02197 -1.27074 -0.121849
-0.891577 -2.45684 -1.65976
-1.32178 -2.29643 -0.763279
-0.847814 -2.05326 -0.666073
-0.671716 -2.04871 -1.92772
-1.83883 -1.78907 -0.52094
-1.03217 -2.31732 -0.882278
-1.67229 -1.66025 -0.416811
-0.317116 -1.2108 -0.20941
-1.89057 -2.653 -1.07185
-0.116666 -1.20036 -1.15473
-1.33015 -2.91509 -2.15291
-1.37643 -2.90738 -2.49184
-0.227731 -1.37645 -1.37846
-1.86216 -1.98526 -0.620847
-1.11707 -2.51043 -1.11114
-2.44592 -2.89268 -1.35461
-1.47044 -2.57302 -1.01615
-0.318354 -1.64331 -1.24949
-1.64687 -2.05327 -0.607518
-0.885969 -2.45074 -1.5398
-0.478704 -1.86826 -0.85596
-1.06152 -2.64532 -1.82837
-0.0443497 -1.03359 -0.449338
-0.920292 -2.06938 -0.646685
-1.4758 -2.76858 -1.26548
-1.27935 -2.26597 -0.74097
-1.64935 -1.23593 -0.258525
-1.58232 -2.24861 -0.725025
-1.28212 -1.8378 -0.427934
-1.11577 -2.19816 -0.709355
-1.3674 -2.8802 -2.54336
-1.67147 -2.90759 -1.37828
-0.358673 -1.65672 -1.44278
-2.38941 -2.49721 -1.06176
-1.22769 -2.7651 -1.54812
-0.954297 -1.5165 -0.22988
-1.92961 -1.75475 -0.534771
-0.794852 -2.34424 -1.48059
-1.11959 -2.68856 -2.05583
-1.71307 -2.93212 -1.39712
-1.174 -1.42044 -0.204283
-1.7696 -2.62254 -1.03924
-1.78892 -1.91305 -0.564724
-1.49235 -2.6098 -1.05251
-1.63979 -1.64242 -0.400293
-0.882066 -2.44503 -1.51324
-1.27864 -2.4703 -0.953583
-0.333641 -1.20925 -0.196632
-0.365362 -1.7446 -1.18016
-0.977207 -2.4994 -2.05909
-0.613953 -2.11482 -1.33841
-1.71382 -2.6948 -1.1108
-0.541566 -1.77786 -1.92052
-0.444572 -1.87478 -1.14447
-0.301977 -1.64554 -0.994348
-0.949659 -1.75116 -0.371174
-1.59845 -2.50576 -0.933812
-0.0760988 -1.19434 -0.738417
-1.50137 -2.99217 -1.68888
-0.57427 -1.97081 -0.854482
-0.179945 -1.39977 -0.71596
-0.150819 -1.02236 -0.222336
-2.25515 -2.19339 -0.847298
-0.629778 -1.68955 -0.412767
-0.210159 -1.46386 -0.765691
-0.407513 -1.81704 -1.15716
-1.13706 -2.19109 -0.697144
-0.579304 -1.93645 -1.79983
-0.37628 -1.71332 -0.77267
-0.146689 -1.35035 -0.797496
-2.31659 -2.37144 -0.964458
-1.95507 -2.19279 -0.758068
-0.372624 -1.59184 -1.61541
-2.03434 -2.0104 -0.683991
-0.903824 -2.13704 -0.731771
-0.942248 -1.47479 -0.207974
-0.570077 -1.88691 -1.85356
-0.643107 -2.00535 -1.90545
-1.55941 -2.41409 -0.85345
-2.15483 -2.94209 -1.35634
-0.993916 -1.52809 -0.236888
-0.663401 -1.7583 -0.459146
-1.06222 -2.0884 -0.618803
-0.719764 -2.25134 -1.3878
-1.5278 -1.88153 -0.488144
-1.33142 -2.73862 -1.32035
-0.326789 -1.66176 -1.24266
-0.704936 -2.19511 -1.70289
-0.0398172 -1.10621 -0.71922
-1.24867 -1.70962 -0.352535
-1.15355 -1.82456 -0.41213
-2.96064 -2.98282 -1.56409
-0.642357 -1.49678 -0.255527
-0.73723 -2.18954 -1.87813
-1.19459 -1.53214 -0.256984
-0.977328 -1.50426 -0.22399
-1.3438 -1.89066 -0.465488
-0.145883 -1.13875 -1.36701
-1.25767 -1.19264 -0.135559
-1.05391 -2.4915 -2.37511
-0.885418 -2.41129 -1.90427
-1.26508 -1.52252 -0.263631
-0.70944 -1.59836 -0.307846
-0.382029 -1.49334 -0.406862
-0.427807 -1.84822 -1.08955
-0.686141 -1.23442 -0.0975595
-0.753069 -2.29233 -1.51119
-0.502696 -1.81396 -1.73576
-1.49936 -2.00576 -0.554407
-0.799186 -2.25853 -1.04807
-2.45551 -2.68059 -1.19985
-1.18358 -1.97286 -0.511705
-1.15697 -1.83414 -0.418268
-0.554195 -1.41939 -0.231655
-0.734599 -1.80836 -0.470792
-1.9717 -2.95509 -1.37094
-0.357648 -1.52793 -1.65154
-1.02587 -2.46556 -1.13122
-0.560707 -1.93083 -0.796782
-1.35385 -2.93357 -2.22336
-2.2028 -2.34686 -0.915767
-1.45689 -2.00422 -0.547753
-1.10486 -2.4757 -1.06331
-1.61059 -2.52805 -0.953915
-0.0744796 -1.15402 -0.569992
-1.02683 -2.6082 -1.67948
-0.474433 -1.91931 -1.18372
-1.42095 -2.52598 -0.975341
-0.533894 -1.3221 -0.175122
-0.850628 -1.49807 -0.222138
-0.918072 -2.48862 -1.6342
-1.61893 -1.25279 -0.253774
-0.787667 -2.25455 -1.92651
-1.42802 -2.86716 -1.48033
-1.2047 -2.75977 -2.22686
-0.988542 -1.11119 -0.0589939
-0.829493 -2.37623 -1.68802
-0.312577 -1.38607 -1.67046
-1.43937 -2.91199 -1.57089
-0.817826 -2.10336 -0.749618
-0.589593 -1.82638 -2.00365
-0.164805 -1.15166 -1.42234
-1.17109 -2.65889 -2.40499
-0.857388 -2.31501 -1.06908
-0.384397 -1.14648 -0.127124
-0.351128 -1.72117 -0.948944
-1.1156 -2.51687 -1.12407
-0.732103 -1.25284 -0.102835
-1.11586 -2.70412 -1.81958
-0.637301 -1.52353 -0.275772
-0.448673 -1.77093 -1.60407
-1.06876 -1.3932 -0.17824
-0.0621052 -1.11197 -0.529573
-0.366522 -1.75047 -1.00587
-1.74156 -2.19722 -0.71316
-0.625287 -2.12758 -1.405
-0.0938048 -1.19055 -0.562956
-1.04195 -1.97155 -0.522849
-0.766079 -1.80114 -0.451049
-0.458071 -1.26787 -0.169246
-0.876063 -2.20827 -0.848556
-1.38613 -2.60176 -1.0754
-0.276288 -1.02525 -0.113979
-1.84993 -2.07019 -0.662432
-1.47178 -2.50141 -0.940219
-1.39057 -2.54059 -0.999573
-1.04032 -2.61576 -1.60125
-0.888451 -2.39002 -1.19954
-0.326895 -1.53497 -0.537486
-0.781296 -2.1124 -0.796513
-1.38932 -2.9025 -2.56262
-1.15995 -2.74519 -1.9802
-0.668817 -2.02673 -1.95721
-2.34385 -2.386 -0.981436
-0.322094 -1.58531 -1.42214
-0.840736 -1.78591 -0.415043
-1.52621 -1.69433 -0.39446
-1.01735 -2.1453 -0.68699
-0.475805 -1.8811 -1.45949
-1.60211 -1.80305 -0.463692
-0.492959 -1.92061 -1.4235
-1.87368 -1.71631 -0.500709
-0.965858 -2.49266 -2.02677
-0.616845 -2.01403 -0.858604
-2.08166 -2.23722 -0.817663
-1.24402 -2.80897 -2.22219
-1.93008 -2.20049 -0.756222
-1.14604 -1.19775 -0.114127
-0.721044 -2.23563 -1.22718
-1.76336 -1.93905 -0.571109
-1.21591 -2.79857 -2.075
-0.562822 -1.79721 -1.96052
-0.862762 -2.41106 -1.75332
-1.41278 -2.99216 -2.25931
-0.466627 -1.90445 -1.25344
-1.81862 -1.86227 -0.548404
-0.620288 -1.13875 -0.0600899
-1.30464 -2.35074 -0.817133
-0.171488 -1.22397 -0.392812
-0.110881 -1.27053 -0.898712
-0.330226 -1.66989 -1.23675
-1.15435 -2.454 -0.99316
-1.5189 -2.8116 -1.30756
-0.730738 -2.25502 -1.59371
-1.7954 -1.66121 -0.453524
-1.40943 -2.85456 -1.47449
-0.842157 -1.95276 -0.561676
-0.728843 -1.22807 -0.0915562
-1.42428 -1.76929 -0.409966
-0.69901 -2.12001 -0.926656
-1.94876 -2.26605 -0.79995
-0.449133 -1.81858 -0.81458
-1.11518 -2.57132 -1.23206
-0.404182 -1.7656 -0.820555
-2.04315 -2.01413 -0.688574
-0.788304 -1.95377 -0.589296
-0.660381 -2.13735 -1.07817
-1.01886 -1.89322 -0.465163
-0.475628 -1.05754 -0.0486772
-1.62077 -2.21712 -0.707248
-1.01186 -2.33711 -0.924669
-0.544861 -2.01954 -1.20912
-2.25201 -2.45879 -0.997784
-1.23709 -1.04321 -0.085468
-2.3622 -2.50029 -1.05546
-2.07867 -2.22261 -0.80857
-0.548482 -1.84305 -1.84967
-2.78714 -2.87202 -1.43051
-0.0625295 -1.16307 -0.792037
-0.690143 -2.20477 -1.25054
-1.61193 -1.16605 -0.226338
-0.698211 -1.73518 -0.420729
-1.12473 -1.38997 -0.184053
-0.932037 -2.48552 -1.42165
-1.55732 -1.44705 -0.300301
-1.18493 -1.23083 -0.133056
-0.385529 -1.19128 -0.154093
-1.23981 -1.38898 -0.202763
-0.823051 -1.24212 -0.0961029
-0.405547 -1.80326 -1.25826
-1.55712 -1.00107 -0.165859
-1.57963 -2.29679 -0.760225
-0.629672 -2.09491 -1.63116
-0.241724 -1.30457 -1.52567
-1.34366 -2.88076 -2.43943
-0.738432 -1.28167 -0.116149
-1.0844 -1.11274 -0.074522
-0.474575 -1.90592 -1.02033
-0.148662 -1.17396 -1.3368
-1.2217 -2.81253 -1.91048
-1.32982 -1.03748 -0.107388
-0.865287 -2.36542 -1.95944
-1.55938 -2.2423 -0.718378
-0.325948 -1.54062 -1.51799
-1.18121 -2.34179 -0.84
-0.518097 -1.3718 -0.213037
-1.93131 -2.02248 -0.659179
-0.554018 -2.0112 -1.47215
-0.370107 -1.62295 -1.55662
-0.636983 -1.19931 -0.0861185
-1.51886 -1.67631 -0.384503
-0.195098 -1.14003 -0.26817
-0.36754 -1.63141 -1.53161
-0.673682 -2.1911 -1.31008
-0.954347 -1.02244 -0.0254205
-0.0866135 -1.00868 -0.307641
-0.249715 -1.39184 -0.469286
-1.69042 -2.92064 -1.38949
