ply
format ascii 1.0
comment Created by Open3D
element vertex 200
property double x
property double y
property double z
end_header
0.391609 2.89475 -1.2705
1.01627 3.68135 -1.74457
4.00043 6.08925 -3.54743
1.31696 8.09423 -0.747104
0.831499 3.71196 -1.59023
0.572345 0.967764 -1.28336
2.80702 8.10726 -2.45591
3.76321 7.20276 -3.31956
5.29302 5.17243 -4.16353
1.29467 3.35907 -1.97012
1.36813 -0.539396 -0.886177
0.219253 6.02227 0.552186
1.60686 0.571773 -1.78619
0.941169 2.96106 -1.72079
4.54064 11.4288 -3.01483
0.673571 6.6781 -0.511775
0.726219 1.37099 -1.469
4.21762 6.35274 -3.65732
2.87006 2.25157 -2.78294
0.760126 0.487548 -1.2751
4.65052 6.22829 -3.89245
0.470098 0.837228 -1.17612
-0.491033 1.48248 0.635234
2.63115 1.84915 -2.60167
-0.521063 1.17256 -0.101376
0.665009 -0.439048 -0.228161
-0.109341 3.71521 -0.578065
3.62604 9.80694 -2.70511
3.83871 2.90913 -3.30403
-0.125413 0.646296 0.584923
1.30087 8.14821 -0.677037
-0.275891 1.88537 -0.603122
0.447889 6.22994 -0.358423
-0.0294741 3.78963 -0.67314
-0.528594 3.05279 0.0504905
0.289307 -0.0687104 -0.587152
0.204964 0.016379 0.282627
-0.522985 2.35128 0.733125
-0.179359 4.6466 0.700278
0.186567 -0.0442865 0.196815
-0.0600956 4.79733 0.885083
0.890088 -0.525163 -0.397738
2.14497 0.570092 -2.02815
-0.523833 2.93316 -0.0227044
-0.615605 1.93113 0.511254
0.60649 4.08383 -1.33836
0.925843 -0.147735 -1.05621
3.50384 8.19086 -2.99158
2.7163 2.39189 -2.73454
-0.0949437 0.17609 0.202511
1.73178 0.353435 -1.75823
4.56176 11.9057 -2.87449
-0.591316 1.24946 0.185382
-0.243895 3.2684 -0.490566
2.56505 6.53437 -2.58113
1.57969 2.95603 -2.16112
-0.313362 4.29469 0.49968
5.99824 5.57964 -4.48584
2.86553 1.80919 -2.69487
1.87241 3.00011 -2.34304
0.0243359 4.53102 1.09622
1.2503 2.64224 -1.93688
-0.0519696 3.75329 1.15514
2.97817 8.27057 -2.56054
3.04701 9.65415 -2.21255
0.337887 -0.245967 -0.0229274
1.41268 -0.596424 -0.354162
-0.444885 0.899635 0.417413
1.36178 1.43757 -1.88238
-0.421759 2.03769 -0.394059
3.10678 1.85095 -2.80356
0.511309 2.69258 -1.38434
0.015243 5.44714 0.293951
1.1283 7.71979 -0.66122
4.29832 7.3695 -3.63526
1.93479 -0.552935 -0.326004
-0.0798339 1.01916 -0.729794
1.16107 7.85517 -0.62472
1.30583 7.83285 -0.897579
-0.113315 4.85468 0.00260269
2.77609 8.69458 -2.26675
0.59858 4.71284 -1.20518
2.90124 5.0636 -2.95241
-0.245785 4.07438 0.868086
2.42506 2.97411 -2.6532
0.277874 -0.238987 -0.14343
3.75581 6.54714 -3.37801
-0.611102 2.61484 0.178228
0.781206 5.77508 -1.10836
-0.527546 2.01155 0.701282
0.923341 6.94875 -0.790838
0.606117 0.293203 -1.09097
4.09204 9.52902 -3.15816
0.464166 0.757866 -1.15043
-0.643913 2.12465 0.18438
4.68716 11.8378 -3.0125
-0.209214 3.70347 1.01289
1.70819 5.26718 -2.11475
-0.110743 5.03268 0.491473
-0.577994 2.15503 0.626747
1.54999 2.66536 -2.13087
4.26598 9.69845 -3.25303
-0.33381 2.82266 0.96283
1.34904 -0.593563 -0.352755
1.73881 2.94368 -2.25994
0.242346 -0.0402104 -0.560539
0.0272579 0.382901 -0.620766
-0.552237 1.50455 -0.11917
2.75635 8.77063 -2.22471
0.598023 1.89552 -1.43557
1.07327 -0.463432 -0.823307
5.30712 5.78334 -4.20403
1.15099 -0.500345 -0.816535
2.17656 1.84044 -2.3867
0.791169 3.55532 -1.57058
-0.605526 2.27295 0.0290313
0.460223 1.55678 -1.29765
3.66221 10.6334 -2.47008
0.0544665 2.62039 -0.959009
-0.438316 3.22205 0.78499
1.22281 2.87051 -1.92355
0.579573 -0.204229 -0.746254
-0.0403191 0.0980888 -0.283804
2.84987 5.81277 -2.87005
2.75854 6.73322 -2.69335
3.92607 7.46491 -3.39382
4.72664 11.8748 -3.03561
1.65645 7.71625 -1.43522
1.13628 1.50231 -1.75863
2.19927 3.24592 -2.54463
3.03753 6.55601 -2.91565
2.96597 9.87844 -2.04339
0.943774 0.712241 -1.46607
0.308109 0.0813558 -0.731404
1.63334 7.51947 -1.48548
-0.637811 2.05838 0.440514
3.0406 2.08499 -2.82649
0.557397 -0.240258 -0.685906
2.74123 3.81822 -2.86875
0.272485 -0.213303 -0.0328675
0.588062 -0.217114 0.179475
2.00769 5.93376 -2.24916
-0.193119 4.76683 0.406021
-0.280786 3.02849 1.00805
0.252654 6.10825 0.571206
1.87099 2.75255 -2.32907
0.246624 5.40756 -0.478477
0.286222 0.667301 -0.981666
1.43221 -0.115837 -1.36378
1.41822 -0.574425 -0.288133
1.30915 -0.254399 -1.19693
3.45307 5.31359 -3.26595
5.30869 4.91452 -4.14901
5.07432 12.3119 -3.20003
4.11366 3.53297 -3.50675
0.579252 7.01773 0.208876
4.1057 5.58235 -3.61646
-0.603064 1.56931 0.448019
0.463545 0.929188 -1.19365
0.336413 5.81275 -0.411755
-0.377713 1.06197 -0.356124
3.86767 4.09801 -3.45286
-0.271606 4.23917 0.733742
0.817586 1.30751 -1.52124
-0.214468 2.41794 -0.66442
-0.0190502 3.12801 -0.822216
4.97636 4.65257 -3.98769
2.0482 0.376401 -1.90579
1.71454 0.181025 -1.66904
0.165563 3.57628 -0.963373
1.32297 2.25243 -1.96204
1.95477 2.6607 -2.37078
3.28956 3.43436 -3.12697
1.7313 1.53541 -2.10437
0.381881 1.20211 -1.18537
-0.0996769 0.276503 0.323596
0.750411 -0.451671 -0.530703
1.06275 5.58865 -1.47746
-0.0683466 3.46658 -0.697956
2.63156 8.46066 -2.20179
0.204523 5.47636 0.994376
0.553636 4.89538 -1.10846
0.236255 -0.146617 0.0781918
1.94567 2.32609 -2.33479
1.973 4.47334 -2.3896
0.0911858 4.05044 -0.767703
2.65651 8.2579 -2.2837
-0.00498477 4.53727 -0.453024
-0.46335 0.932195 0.406737
3.90094 3.04037 -3.35011
-0.138577 4.89707 0.57982
-0.36992 4.01885 0.563887
-0.586152 2.94208 0.350103
0.424871 -0.329155 -0.294798
3.5589 6.07652 -3.29312
-0.22718 3.09793 1.05346
3.01339 4.44117 -3.02956
1.08045 0.450226 -1.46065
1.55472 -0.104271 -1.43011
1.26487 -0.578509 -0.317063
