ply
format ascii 1.0
comment Created by Open3D
element vertex 250
property double x
property double y
property double z
end_header
0.828292 -0.0668736 1.10615
2.81636 -0.665577 0.907185
2.41211 -0.625635 -0.0701399
0.777265 -0.405999 -0.180667
1.34937 -0.402464 -0.326528
1.00421 -0.228467 -0.388743
0.597055 -0.287147 -0.220608
3.70059 -0.356651 -0.0088506
0.370124 0.398478 1.26354
-0.499168 1.74649 0.0965346
0.40896 -0.230178 -0.162769
-0.00465336 0.549693 1.09132
4.66322 -0.190535 0.229346
0.311492 -0.0135147 0.794713
1.24509 -0.478939 -0.246235
1.93865 -0.674005 0.712183
-0.411247 0.547399 0.131055
1.39815 -0.689087 0.328046
0.710758 0.00219044 1.10979
0.746295 -0.513568 0.183518
2.29916 -0.567727 1.03816
0.248042 -0.234262 0.0494444
-0.555172 1.54652 0.12762
-0.0879973 0.62274 -0.257831
1.17321 -0.630706 0.365744
0.576927 -0.036762 0.978279
-0.718615 1.64598 0.846629
0.054309 0.209662 -0.23253
6.064 0.2167 0.556217
-0.0248047 0.270003 -0.202193
-0.216432 1.68631 1.65099
-0.501741 1.99465 0.155935
-0.507999 0.725793 0.508358
-0.064347 0.68106 -0.279628
0.549107 0.0952768 1.10198
-0.40915 0.487864 0.346503
1.00978 -0.603714 0.222501
5.4644 -0.225404 1.37135
5.89407 -0.11587 1.34161
2.06048 -0.748929 0.164604
6.61505 0.152867 1.17106
-0.544601 1.31267 1.03018
1.61053 -0.726186 0.310745
2.39534 -0.748439 0.201818
-0.380892 0.513048 0.0917107
4.89438 -0.308828 0.557506
1.2898 -0.594849 -0.103828
5.06958 -0.332064 0.827035
5.85629 -0.0939904 1.5799
0.0980261 0.390308 1.04101
-0.306319 0.375826 0.485231
3.78639 -0.406135 1.47365
6.38878 0.206731 2.1601
4.82406 -0.384155 0.713868
2.01862 -0.527797 -0.230641
4.00714 -0.361298 0.117974
0.0309258 0.521551 -0.309829
0.0382877 0.269457 -0.246867
0.239708 0.289846 1.06598
0.416695 -0.328913 -0.00267873
6.53113 0.319295 0.742867
4.92457 -0.387435 0.965654
4.70696 -0.398885 0.63187
4.3773 -0.280262 0.19268
0.830192 -0.542881 0.233008
5.84549 -0.128516 1.16024
0.541751 -0.308756 0.563132
1.34568 -0.513708 0.783356
-0.394221 0.7963 0.854172
6.28152 0.122127 1.99937
4.42638 -0.465816 0.570343
-0.0484048 0.000401824 0.179313
2.89407 -0.665489 0.123188
-0.213612 0.467824 0.781387
0.645664 -0.165013 -0.332669
0.0690734 -0.00622566 -0.0932974
4.15848 -0.531967 1.06091
6.11307 -0.0498727 1.33237
-0.715825 1.47516 0.693452
1.75783 -0.474406 1.02819
-0.480852 1.14935 0.0223598
0.622955 -0.452634 0.0626807
0.0675275 0.536651 1.14516
0.35869 -0.320444 0.147189
0.328922 -0.275761 0.339312
-0.0479469 0.084965 -0.045073
1.63275 -0.518185 -0.247332
1.59617 -0.505678 0.914826
-0.733574 1.58358 0.551632
1.15569 -0.331966 -0.351713
3.46079 -0.57805 0.187859
4.71391 -0.3573 0.52204
0.882614 -0.460402 -0.159351
-0.161477 0.226188 0.54004
3.02961 -0.727853 0.428217
0.736526 -0.0199937 -0.427239
0.428458 -0.300353 -0.0817362
0.0789383 -0.112612 0.252009
-0.714772 1.56901 0.445028
1.61811 -0.501493 0.930849
-0.335144 0.551682 0.690218
3.26508 -0.705026 0.625932
2.28003 -0.766643 0.298105
0.194805 -0.0405502 0.63765
1.04416 -0.238449 1.0273
1.14572 -0.593576 -0.0495232
1.60176 -0.541002 0.85681
2.29721 -0.435514 -0.28155
-0.697026 1.75567 0.392439
3.75136 -0.364555 0.0177985
1.59871 -0.715176 0.119888
2.28892 -0.756539 0.521818
1.82401 -0.382581 1.18422
3.54997 -0.595256 0.270292
3.30686 -0.683694 0.779275
0.0301875 0.536696 1.11204
4.72666 -0.220516 0.298664
-0.668172 1.66227 1.01074
2.55803 -0.477075 -0.208042
4.35014 -0.30124 1.63191
3.29783 -0.548155 1.19797
-0.640034 1.06975 0.49351
2.79271 -0.680133 0.119701
5.52747 -0.187644 1.49383
-0.614888 0.979712 0.418174
5.53032 -0.159169 1.6028
-0.626402 1.58998 1.05929
-0.0811382 1.13767 1.45953
-0.707264 1.5053 0.427726
2.91295 -0.680562 0.864709
-0.337851 0.700049 0.846915
1.29175 -0.605487 0.557033
-0.300258 1.0875 1.20733
5.31224 -0.111215 0.501796
5.20546 -0.31385 1.12465
-0.0603406 0.967804 1.36436
0.81537 -0.536762 0.102258
0.895297 -0.555658 0.310396
3.42011 -0.604317 1.05287
6.23923 -0.00284404 1.51767
-0.384721 0.442511 0.319425
2.81099 -0.620055 0.0142847
1.82941 -0.422252 1.13089
5.46486 -0.00213209 0.449026
1.88899 -0.717833 0.0573713
3.10701 -0.674527 0.235539
0.491142 -0.373197 0.00410334
2.13996 -0.762479 0.432289
-0.44144 1.0381 -0.0154913
6.20213 0.115891 0.802317
6.40898 0.0911357 1.80079
3.38969 -0.500784 0.0390465
-0.409772 0.73622 0.00625971
-0.131969 0.209684 -0.0571089
3.60976 -0.657905 0.698048
-0.0186742 0.587874 -0.293426
0.248197 -0.239216 0.070758
1.27415 -0.299302 -0.3871
-0.412343 0.648631 0.662207
2.00779 -0.74123 0.514353
-0.588576 1.22189 0.170097
-0.273766 0.298405 0.407402
-0.145212 0.644184 1.03342
2.55739 -0.744372 0.232418
-0.567969 0.853132 0.314165
-0.597206 0.933246 0.488065
2.20789 -0.721968 0.655543
3.74053 -0.474764 0.147318
-0.301271 0.341251 0.422436
3.35783 -0.685124 0.738976
6.47826 0.101705 1.15325
3.82389 -0.617823 0.593587
4.03656 -0.551648 1.04676
0.645581 0.0393751 1.10777
0.997517 -0.591687 0.0715788
0.636508 -0.257184 0.736034
1.49462 -0.677188 0.48122
1.07015 -0.527294 -0.140848
1.86887 -0.594854 0.862003
-0.213113 1.23428 1.39635
1.28791 -0.63265 -0.0228015
1.80095 -0.746198 0.345307
2.61899 -0.716326 0.153854
0.187772 -0.20139 0.229041
5.59905 -0.204828 1.21358
4.6073 -0.42859 0.628863
0.165242 0.00824781 0.675646
-0.311903 1.16355 1.24586
-0.591983 1.0892 0.748469
4.14228 -0.320979 0.130871
-0.51488 1.59835 1.2532
-0.0117929 1.06122 1.47007
0.159175 0.0797711 0.764909
5.9233 0.0413475 0.703474
5.11939 -0.216078 0.542302
-0.623086 1.20817 0.782574
2.42293 -0.700614 0.767518
-0.454445 0.590394 0.222338
-0.434269 0.857139 0.00350409
0.00859836 0.328876 -0.248989
0.678545 2.00804 2.49859
0.717227 0.60415 1.65031
2.98611 2.40614 3.79429
2.56346 3.73884 4.31112
4.38995 5.60749 5.92163
3.85432 5.25277 5.54598
0.518477 1.61022 2.1854
2.41678 3.18095 3.98131
2.64844 2.37461 3.6504
1.36533 1.11251 2.34249
0.402662 1.03506 1.76263
1.77488 1.64967 2.86774
0.362948 1.28579 1.8944
0.623694 1.39986 2.13038
3.01112 2.47026 3.84067
2.49295 2.39553 3.60126
0.258942 1.76464 2.09083
3.50328 3.55227 4.61243
1.62949 3.23762 3.62331
2.543 3.22733 4.05978
4.2095 4.64097 5.41616
0.611655 1.40492 2.12602
1.80525 3.43676 3.804
1.10246 2.78116 3.12441
4.60484 4.91024 5.69143
4.47465 5.59983 5.95294
0.995937 1.79481 2.5713
3.43819 2.74896 4.15191
3.7149 4.93068 5.3486
0.677927 0.46552 1.51782
3.54678 3.61615 4.66159
0.624329 0.557697 1.55965
0.766979 0.623535 1.69339
3.87037 5.23133 5.54384
3.27038 4.30261 4.88072
3.80952 3.33355 4.6071
1.9406 3.58243 3.93784
1.31327 3.02525 3.35507
1.03623 2.92192 3.1471
0.72962 0.844422 1.83399
1.42342 2.20964 3.0201
4.64634 4.49801 5.50495
2.7375 4.47159 4.71111
4.80184 5.68545 6.12007
1.87588 1.7555 2.97529
3.22226 4.63705 5.00659
1.04203 0.741527 1.92754
4.2485 4.73583 5.47574
4.10378 5.1434 5.60373
1.71922 2.55384 3.34469
