ply
format ascii 1.0
comment Created by Open3D
element vertex 250
property double x
property double y
property double z
end_header
-1.19198 0.36226 0.601718
-1.98823 2.2685 0.314184
-1.12403 2.20566 -0.293591
-0.16551 0.876879 -0.0728456
-0.417131 1.34329 -0.333104
-0.247702 0.996242 -0.397367
-0.0849788 0.680796 -0.129968
-2.06469 2.99309 -0.774636
-1.23098 -0.304821 0.532983
-0.560123 -1.4546 -0.937616
-0.0352795 0.48969 -0.0753884
-0.961397 -0.630567 0.413832
-2.87723 3.55035 -0.975212
-0.700995 0.026728 0.486487
-0.371689 1.28951 -0.198151
-1.32724 1.66807 0.419311
-0.0876255 -0.674283 -0.153653
-0.743179 1.37575 0.303795
-1.15499 0.231439 0.59098
-0.335563 0.820027 0.263325
-1.80636 1.7861 0.482826
-0.0749246 0.314042 0.120882
-0.455221 -1.38432 -0.769845
-0.0631111 -0.372086 -0.565327
-0.658726 1.1616 0.353182
-0.970493 0.190163 0.559648
-0.871753 -1.76149 -0.282175
0.0232913 -0.0228883 -0.316088
-4.12237 4.2667 -1.38917
0.0236398 -0.126852 -0.312648
-1.71875 -1.62685 0.124358
-0.710808 -1.62238 -1.05703
-0.357261 -0.956615 0.0227801
-0.0898047 -0.38365 -0.625238
-1.09487 0.056131 0.56839
-0.202426 -0.695077 0.0370176
-0.478853 1.0615 0.278482
-4.0909 3.86326 -0.361715
-4.38087 4.12745 -0.570563
-1.0088 1.95284 0.0480918
-4.82744 4.55214 -1.06182
-0.944333 -1.47948 0.0182734
-0.843101 1.5621 0.258327
-1.23544 2.19361 -0.0165251
-0.0645423 -0.620137 -0.167247
-3.17706 3.70632 -0.728442
-0.438722 1.35447 -0.0338299
-3.44826 3.77881 -0.570085
-4.52374 4.02143 -0.406144
-0.91765 -0.443748 0.454601
-0.303906 -0.587873 0.180479
-3.06235 2.68615 0.282758
-5.36162 4.08229 -0.336421
-3.20234 3.65673 -0.549639
-0.826409 1.89493 -0.364522
-2.33044 3.19149 -0.764874
-0.0546642 -0.20775 -0.56817
0.0149943 -0.0671142 -0.360953
-0.973554 -0.28361 0.499549
-0.0993992 0.511763 0.100222
-4.57314 4.50462 -1.45061
-3.42599 3.66596 -0.396655
-3.07136 3.59999 -0.566311
-2.6397 3.39999 -0.865153
-0.40513 0.88725 0.294767
-4.22728 4.14772 -0.677405
-0.553724 0.440281 0.453302
-1.08912 1.10733 0.525375
-0.684076 -1.00741 0.190458
-5.15321 4.09641 -0.365784
-2.83123 3.4466 -0.490168
-0.0881105 -0.0850678 0.139629
-1.523 2.53888 -0.261271
-0.595385 -0.654007 0.304707
-0.0969376 0.673862 -0.302148
0.0221058 0.0808086 -0.0805952
-2.95977 3.15285 -0.0275733
-4.53718 4.25437 -0.679478
-0.695285 -1.61485 -0.279646
-1.51578 1.32647 0.561293
-0.249764 -1.06038 -0.604921
-0.210033 0.723444 0.171449
-1.03418 -0.583131 0.440897
-0.166167 0.422594 0.216358
-0.294136 0.321311 0.331074
0.0195458 -0.0750444 -0.0744031
-0.587011 1.60425 -0.278189
-1.32986 1.25478 0.54531
-0.641486 -1.65523 -0.445958
-0.316011 1.1623 -0.34456
-1.94726 2.89364 -0.426017
-3.02281 3.60982 -0.67302
-0.218151 0.982957 -0.0507395
-0.35873 -0.403758 0.277797
-1.77557 2.59563 -0.0415179
-0.156286 0.680071 -0.488344
-0.0679074 0.52474 0.0224786
-0.160801 0.058978 0.230404
-0.576529 -1.60348 -0.516905
-1.35549 1.26438 0.547968
-0.500807 -0.7711 0.218343
-2.05729 2.70496 0.0196563
-1.22043 2.09206 0.0946548
-0.515605 -0.00196877 0.424664
-1.19232 0.649052 0.599636
-0.387825 1.23095 0.0427234
-1.27919 1.29599 0.52585
-1.00348 2.06195 -0.536194
-0.638209 -1.6886 -0.680837
-2.10913 3.02873 -0.764367
-0.716315 1.59824 0.119378
-1.37656 2.0321 0.243837
-1.69964 1.27847 0.59373
-2.04708 2.94861 -0.380621
-2.19243 2.68192 0.102845
-0.990023 -0.6022 0.427549
-2.9471 3.59727 -0.923779
-1.01685 -1.7779 -0.190423
-1.18993 2.26276 -0.527643
-3.55394 3.00283 0.17359
-2.52246 2.48004 0.31281
-0.425098 -1.25922 -0.176694
-1.45286 2.47264 -0.226742
-4.22624 3.85463 -0.316843
-0.349901 -1.16563 -0.177947
-4.31217 3.8101 -0.259163
-1.04074 -1.71608 -0.120168
-1.42455 -1.14245 0.310775
-0.540636 -1.55472 -0.489552
-2.01193 2.36148 0.267801
-0.669359 -0.905079 0.232952
-0.866769 1.18353 0.439889
-1.10461 -1.20826 0.224518
-3.4832 3.91552 -1.01
-3.73302 3.78919 -0.408308
-1.29728 -0.99857 0.348828
-0.313565 0.907821 0.202327
-0.48914 0.92285 0.340219
-2.4758 2.64491 0.213806
-4.75588 4.27046 -0.613307
-0.178749 -0.642056 0.0408881
-1.42248 2.47861 -0.345477
-1.64992 1.32089 0.580472
-3.5907 3.97842 -1.15988
-0.849461 1.83447 -0.00164294
-1.72079 2.67364 -0.233544
-0.12852 0.59249 0.113802
-1.22545 1.94819 0.224719
-0.197972 -0.953439 -0.569675
-4.32043 4.36454 -1.18667
-5.08625 4.26444 -0.520443
-1.84245 2.83395 -0.56248
-0.0933008 -0.753371 -0.365649
0.0211103 -0.210079 -0.141655
-2.33397 2.91551 -0.0534018
-0.0657607 -0.289419 -0.586477
-0.0866777 0.311381 0.139147
-0.379322 1.24101 -0.422976
-0.48023 -0.879932 0.156092
-1.209 1.81403 0.30463
-0.314419 -1.22494 -0.518695
-0.237318 -0.49567 0.167215
-0.881933 -0.77735 0.349201
-1.3551 2.30442 -0.0413968
-0.252411 -1.0259 -0.181496
-0.384991 -1.14324 -0.102955
-1.43081 1.91427 0.337738
-2.13683 3.05208 -0.597857
-0.250125 -0.546226 0.157298
-2.19621 2.73191 0.061492
-4.70987 4.48524 -1.00397
-2.41329 3.08019 -0.211396
-2.86795 3.07712 0.00826967
-1.13133 0.160661 0.582894
-0.378352 1.08588 0.167226
-0.747443 0.433436 0.51623
-0.906905 1.39946 0.378228
-0.31285 1.15898 -0.044704
-1.41918 1.52742 0.492423
-1.34778 -1.28264 0.238709
-0.473237 1.35394 0.0486701
-0.971459 1.70764 0.244313
-1.35377 2.35495 -0.13194
-0.170902 0.2004 0.24271
-4.07851 3.99452 -0.523149
-2.99566 3.54398 -0.522062
-0.54489 -0.0638745 0.427651
-1.15751 -1.27332 0.205225
-0.629546 -1.30391 -0.0221148
-2.43886 3.26502 -0.818662
-1.23855 -1.68996 -0.0186974
-1.43834 -1.04714 0.349416
-0.632236 -0.135748 0.445687
-4.05349 4.22716 -1.13241
-3.34533 3.82321 -0.860671
-0.687439 -1.40827 -0.0673065
-1.64351 2.03236 0.344777
-0.140841 -0.757332 -0.105505
-0.131989 -0.843979 -0.439963
0.00713886 -0.124669 -0.393237
-2.95971 -1.37917 0.271344
-1.78716 -0.273287 0.578183
-5.38088 -0.239382 0.303044
-6.07261 -1.50058 -0.0877572
-9.08128 -1.69433 -0.663958
-8.35045 -1.78032 -0.55291
-2.47666 -1.17436 0.353086
-5.51361 -1.18462 0.0831838
-5.06866 -0.434664 0.313269
-2.8629 -0.281337 0.560152
-1.86766 -0.799682 0.461222
-3.69875 -0.440507 0.469817
-2.04438 -1.01646 0.401346
-2.40805 -0.953594 0.423134
-5.45559 -0.271872 0.287185
-4.95228 -0.550616 0.306933
-2.32882 -1.43663 0.255563
-6.7514 -0.764638 -0.00712999
-4.83047 -1.71243 0.00605424
-5.66225 -1.13918 0.0742122
-8.20035 -1.10955 -0.34114
-2.40025 -0.964497 0.420006
-5.14562 -1.74969 -0.0438328
-3.9778 -1.69719 0.0940892
-8.74188 -1.05005 -0.429381
-9.14935 -1.63466 -0.659734
-3.1013 -1.0321 0.376171
-6.04407 -0.204006 0.209631
-7.99012 -1.63707 -0.444332
-1.61352 -0.183241 0.585702
-6.83897 -0.783874 -0.0258746
-1.65063 -0.29039 0.569562
-1.85419 -0.25933 0.582517
-8.34894 -1.75475 -0.544761
-7.12909 -1.46478 -0.244583
-6.83277 -0.401507 0.0491217
-5.38132 -1.77231 -0.0809893
-4.3673 -1.74883 0.0406847
-4.01699 -1.83796 0.0360933
-2.02447 -0.458713 0.54775
-3.84212 -1.0833 0.306845
-8.45666 -0.719665 -0.303172
-6.7739 -1.92053 -0.330715
-9.49516 -1.48617 -0.68603
-3.87834 -0.457733 0.449404
-7.33514 -1.73679 -0.361042
-2.2271 -0.187615 0.596577
-8.30618 -1.15367 -0.37153
-8.48874 -1.54284 -0.508125
-4.39005 -1.15703 0.23146
