ply
format ascii 1.0
comment Created by Open3D
element vertex 250
property double x
property double y
property double z
end_header
-0.719308 -1.15394 0.255191
0.255076 -2.98639 0.462861
1.00923 -2.25321 0.345061
0.501176 -0.737841 -0.0776476
0.837685 -1.16909 0.144552
0.747652 -0.789156 0.173219
0.456957 -0.526717 -0.0368059
1.36876 -3.28136 1.08665
-1.09485 -0.658572 0.509786
-0.521437 1.0066 1.42252
0.328677 -0.36816 -0.056154
-1.09039 -0.219311 0.50607
1.46471 -4.13544 1.6085
-0.622111 -0.574776 0.106717
0.737835 -1.13785 0.0339921
0.12615 -2.16558 0.119189
-0.346641 0.494404 0.348353
0.29216 -1.56256 -0.101584
-0.774342 -1.03059 0.274019
0.169517 -0.888806 -0.18888
-0.0631152 -2.56046 0.355338
0.0763223 -0.313463 -0.121509
-0.540671 0.97181 1.21635
0.115895 0.39395 0.541662
0.169252 -1.36435 -0.13373
-0.694454 -0.879806 0.186817
-1.2773 0.871327 1.24568
0.203327 0.116757 0.214486
1.59834 -5.31219 2.5208
0.138491 0.194009 0.239958
-1.84879 0.14913 1.47512
-0.613567 1.0738 1.6508
-0.755557 0.495671 0.476142
0.135853 0.402724 0.604593
-0.837915 -0.856718 0.298158
-0.53623 0.389116 0.294153
0.23986 -1.1605 -0.171331
0.698007 -5.26864 1.88289
0.861347 -5.58528 2.14851
0.686094 -2.08651 0.0965916
1.23447 -6.04039 2.6727
-1.33655 0.534712 1.00434
0.388665 -1.75034 -0.0545847
0.77003 -2.38639 0.225188
-0.294529 0.471405 0.328234
1.26058 -4.50015 1.58768
0.63905 -1.27149 -0.0559855
1.07692 -4.76105 1.63326
0.624643 -5.63649 2.15427
-0.984272 -0.344054 0.39811
-0.611634 0.208644 0.229995
0.0366942 -3.93942 1.07377
0.232823 -6.20671 2.63587
1.10229 -4.5266 1.49118
1.00407 -1.82134 0.28487
1.36065 -3.59319 1.19967
0.220799 0.276566 0.493685
0.202151 0.157059 0.263598
-0.942538 -0.510062 0.359515
0.197967 -0.470935 -0.144414
1.57602 -5.74606 2.79435
0.90569 -4.7099 1.52661
1.13881 -4.40048 1.43275
1.41064 -3.90908 1.41619
0.157749 -0.989719 -0.183856
1.01359 -5.47888 2.11824
-0.283512 -0.787076 -0.0779344
-0.172727 -1.63001 0.0403635
-1.04515 0.291145 0.584823
0.355792 -6.08356 2.51666
1.10625 -4.16111 1.26355
-0.182836 -0.0271619 -0.0181525
1.00686 -2.75267 0.492681
-0.865942 0.0487057 0.350467
0.559788 -0.482143 0.0946325
0.111528 -0.0254556 0.0206815
0.567993 -4.14356 1.09991
0.937654 -5.74534 2.29329
-1.10978 0.867168 1.08893
-0.258959 -2.0616 0.234397
-0.358983 0.808233 0.877848
0.228625 -0.715743 -0.179785
-1.11271 -0.306139 0.521642
0.0377594 -0.475782 -0.158787
-0.156807 -0.508098 -0.128897
0.0122474 0.0882136 0.0601489
0.881657 -1.4822 0.146087
-0.206804 -1.89129 0.143641
-1.00091 0.974925 1.18231
0.782155 -0.969219 0.135568
1.13467 -3.23023 0.790338
1.23664 -4.34968 1.47383
0.526696 -0.855154 -0.0875942
-0.589147 0.0111343 0.147176
0.782099 -3.00714 0.486932
0.658046 -0.472236 0.263384
0.270983 -0.440623 -0.113526
-0.188425 -0.203632 -0.0738316
-0.893638 0.994519 1.17604
-0.214461 -1.91467 0.155906
-0.836962 0.216977 0.381434
0.679344 -3.27572 0.598134
0.642971 -2.33125 0.164243
-0.514299 -0.424631 0.0370852
-0.545013 -1.36868 0.179285
0.537755 -1.16884 -0.109943
-0.146054 -1.88635 0.113146
1.13609 -2.00703 0.476743
-0.866114 1.06549 1.35529
1.36325 -3.33768 1.09878
0.559201 -1.66331 -0.0489373
0.43795 -2.42088 0.17698
-0.393164 -2.14534 0.344561
1.09256 -3.34398 0.808572
0.54932 -3.36252 0.63383
-1.09532 -0.261575 0.507395
1.42749 -4.22672 1.60508
-1.41347 0.771228 1.28004
1.16647 -2.27248 0.538158
0.0744332 -4.44409 1.38642
0.139449 -3.46712 0.755594
-0.838892 0.73566 0.743393
0.976386 -2.67 0.440363
0.601619 -5.356 1.94191
-0.747213 0.711192 0.669828
0.497782 -5.39006 1.96931
-1.43297 0.691437 1.22923
-1.54372 -0.087052 1.02002
-0.865669 0.972208 1.12006
0.330663 -3.05788 0.48598
-1.00442 0.211778 0.51747
0.0307441 -1.52982 -0.0650642
-1.38084 0.17875 0.889812
1.43085 -4.76563 1.93016
0.84733 -4.98448 1.70208
-1.42357 -0.128444 0.871043
0.27241 -0.924868 -0.183875
0.111141 -1.07942 -0.170746
0.324966 -3.53582 0.750502
0.804169 -5.90731 2.38502
-0.495934 0.362593 0.261601
1.07144 -2.62402 0.502863
-0.336171 -2.14356 0.309975
1.51759 -4.83714 2.08934
0.719979 -1.8881 0.0596948
0.979667 -2.98062 0.56582
0.224507 -0.552731 -0.156837
0.468869 -2.26157 0.114488
-0.293787 0.749746 0.790151
1.43457 -5.55991 2.48052
0.588856 -6.12732 2.53681
1.2357 -3.08528 0.834513
-0.258477 0.60766 0.523365
-0.0246039 0.208632 0.143221
0.727678 -3.58086 0.77357
0.178396 0.336073 0.535978
0.0574115 -0.323503 -0.126026
0.851947 -1.04524 0.211079
-0.852574 0.327867 0.44146
0.343212 -2.17266 0.0835412
-0.544183 0.869291 0.903642
-0.516881 0.183271 0.170925
-1.10044 -0.0437744 0.539578
0.79846 -2.53499 0.290962
-0.615996 0.666194 0.570839
-0.798729 0.652925 0.633666
0.280692 -2.39067 0.177909
1.2559 -3.41697 0.992815
-0.546771 0.216141 0.199983
0.60478 -3.39111 0.652013
1.21005 -5.93491 2.57309
0.894026 -3.70949 0.892547
0.540843 -4.04104 1.03507
-0.800963 -0.961042 0.283431
0.373196 -1.08802 -0.164914
-0.417303 -0.91589 0.00597447
0.183009 -1.69931 -0.0536756
0.585703 -1.04596 -0.077627
-0.0485283 -2.13536 0.165611
-1.54617 0.0839249 1.05877
0.56906 -1.31425 -0.0916314
0.426988 -1.93317 -0.000204041
0.888713 -2.54758 0.340445
-0.115726 -0.319126 -0.114203
0.888355 -5.31592 1.95343
1.1107 -4.32476 1.36717
-0.567001 -0.396686 0.0708555
-1.43169 0.200836 0.955624
-1.0603 0.603952 0.779744
1.39061 -3.69922 1.28863
-1.57392 0.524999 1.27965
-1.51775 -0.17731 0.975922
-0.662089 -0.400379 0.134613
1.43822 -5.31044 2.30495
1.3406 -4.6536 1.75948
-1.12023 0.659512 0.87776
0.250141 -2.60952 0.27993
-0.452546 0.511543 0.371545
-0.2823 0.672375 0.625706
0.184913 0.20422 0.307132
-2.36257 -0.825396 2.11486
-1.35958 -1.03014 0.832632
-2.80209 -3.15011 3.36572
-3.62418 -2.51597 4.43523
-4.73999 -4.03062 6.86061
-4.53036 -3.55509 6.32791
-2.07155 -0.709566 1.68606
-3.28963 -2.4618 3.86367
-2.78391 -2.81798 3.20737
-1.84439 -1.66848 1.55032
-1.63768 -0.652273 1.11036
-2.26352 -2.02914 2.20331
-1.81018 -0.580155 1.32681
-1.95271 -0.852692 1.53198
-2.84549 -3.16655 3.43453
-2.79656 -2.65906 3.16719
-2.09855 -0.397252 1.72941
-3.54295 -3.49942 4.62251
-3.24553 -1.63276 3.61475
-3.32429 -2.58316 3.95483
-4.19525 -4.02487 5.8986
-1.95368 -0.838961 1.53204
-3.37949 -1.78153 3.86599
-2.90409 -1.15338 2.99135
-4.34923 -4.37246 6.29867
-4.73784 -4.1176 6.88594
-2.2863 -1.19952 2.03932
-3.02286 -3.55164 3.85545
-4.35013 -3.47443 5.97698
-1.23078 -0.994907 0.689516
-3.58234 -3.53277 4.69818
-1.30187 -0.932574 0.754165
-1.38463 -1.08223 0.869582
-4.51956 -3.57555 6.31424
-3.98305 -3.13801 5.22661
-3.39773 -3.8361 4.53763
-3.47662 -1.89677 4.05237
-3.07841 -1.33528 3.29753
-2.96908 -1.05576 3.09605
-1.56009 -1.02606 1.05936
-2.61055 -1.58948 2.58616
-4.1019 -4.48226 5.9337
-4.03949 -2.55852 5.17881
-4.78911 -4.43057 7.09026
-2.34267 -2.1191 2.33974
-4.16532 -3.02686 5.51718
-1.52099 -1.3649 1.08385
-4.2504 -4.04743 6.00117
-4.4795 -3.82878 6.32233
-2.85626 -1.84449 3.01736
