ply
format ascii 1.0
comment Created by Open3D
element vertex 250
property double x
property double y
property double z
end_header
0.960902 0.253276 -0.962612
2.75946 -0.802937 -0.968769
2.1677 -1.21567 -0.194399
0.779103 -0.401562 0.182656
1.16657 -0.84376 0.128676
0.785856 -0.755619 0.152399
0.561403 -0.373217 0.182019
2.9883 -2.07626 -0.76212
0.379001 0.419909 -1.25393
-1.40235 -0.433994 -1.07414
0.4016 -0.247948 0.154802
-0.0399513 0.464477 -1.12952
3.67447 -2.57758 -1.29956
0.456823 0.337347 -0.637407
1.15625 -0.693411 0.150079
2.0535 -0.396729 -0.587869
-0.603357 0.0836058 -0.338992
1.55328 -0.314566 -0.160133
0.832053 0.295024 -0.978501
0.919347 -0.0957847 0.00379117
2.34794 -0.449943 -0.985349
0.340801 -0.0103225 0.0509572
-1.31525 -0.288478 -0.950327
-0.511623 -0.399984 -0.200698
1.35954 -0.180858 -0.164059
0.719603 0.307689 -0.823847
-1.3033 0.234421 -1.47949
-0.148733 -0.280524 0.0127594
4.56772 -3.39564 -2.17578
-0.236278 -0.240538 -0.0267037
-0.733346 0.438366 -2.21049
-1.53798 -0.507069 -1.27756
-0.681493 0.306941 -0.696147
-0.534983 -0.455156 -0.229785
0.65252 0.344939 -0.99005
-0.507551 0.250302 -0.453012
1.18192 -0.188141 -0.0361825
4.60543 -2.29915 -2.30109
4.85352 -2.62797 -2.46789
2.04192 -0.793737 -0.184693
5.18591 -3.29738 -2.71795
-0.921953 0.401664 -1.43862
1.73028 -0.437092 -0.181133
2.30284 -0.971753 -0.301939
-0.570504 0.0552835 -0.296946
4.00804 -2.44865 -1.51688
1.29827 -0.57438 0.113005
4.2264 -2.36769 -1.73969
4.87647 -2.45951 -2.64045
0.119644 0.442498 -1.01761
-0.325267 0.33008 -0.505742
3.48368 -1.13693 -1.8013
5.25133 -2.53931 -3.39127
4.04308 -2.26962 -1.5592
1.7701 -1.12776 -0.0383454
3.25534 -2.1763 -0.931715
-0.375429 -0.459476 -0.130006
-0.200718 -0.307553 -0.0118306
0.293296 0.41922 -1.00798
0.510313 -0.102899 0.10401
4.90665 -3.60254 -2.50119
4.18857 -2.1643 -1.7623
3.94195 -2.24578 -1.45991
3.50427 -2.38795 -1.13764
1.01335 -0.100691 -0.0347557
4.77564 -2.71135 -2.31824
0.745046 0.182043 -0.343086
1.53128 -0.0656163 -0.582458
-0.545138 0.431954 -1.01752
5.17846 -2.54091 -3.19332
3.75527 -2.08604 -1.29675
0.0119756 0.146173 -0.113958
2.60555 -1.36205 -0.435485
-0.231123 0.425547 -0.800342
0.493823 -0.53159 0.168317
0.0303165 -0.0997931 0.0513472
3.72701 -1.57362 -1.52793
4.97544 -2.79636 -2.56373
-1.23956 0.210754 -1.26034
1.88292 -0.172393 -0.892781
-1.04828 -0.220549 -0.636543
0.757367 -0.128137 0.0828049
0.0366276 0.462052 -1.17861
0.502252 0.0261443 0.00820122
0.504945 0.149196 -0.148786
-0.0994378 -0.0393449 -0.0106603
1.47039 -0.910165 0.0715911
1.74988 -0.134584 -0.748449
-1.35669 0.0792559 -1.22608
0.971956 -0.775546 0.152837
2.99531 -1.70181 -0.69169
3.89235 -2.34073 -1.4113
0.896717 -0.426352 0.174616
-0.11149 0.346866 -0.485935
2.82738 -1.21608 -0.647108
0.448851 -0.7145 0.115863
0.480505 -0.174701 0.138071
0.195364 0.168465 -0.12599
-1.36263 0.00492743 -1.14627
1.76815 -0.139275 -0.768452
-0.397556 0.401006 -0.757773
3.04371 -1.23947 -0.865546
2.2534 -0.830934 -0.326929
0.343125 0.317525 -0.47711
1.20502 0.149905 -0.853183
1.20415 -0.45253 0.11276
1.75969 -0.159714 -0.685863
1.90958 -1.37135 -0.138022
-1.47622 -0.125463 -1.23583
3.03836 -2.08588 -0.789538
1.66312 -0.559673 -0.05017
2.3145 -0.694771 -0.494125
1.91937 -0.152379 -1.08101
3.09489 -1.69393 -0.762872
3.10366 -1.17426 -0.999216
-0.000368235 0.462928 -1.14511
3.75891 -2.55688 -1.34615
-1.23089 0.303739 -1.61982
2.15017 -1.46175 -0.233427
3.88601 -1.42175 -2.13428
3.12838 -0.957234 -1.38138
-0.992136 0.219704 -0.874623
2.53742 -1.29646 -0.396025
4.66309 -2.27446 -2.42944
-0.939317 0.19647 -0.769334
4.67752 -2.21801 -2.52586
-1.1428 0.343293 -1.61823
-0.352556 0.482414 -1.75331
-1.32323 0.0182149 -1.09445
2.82946 -0.882133 -0.955081
-0.446732 0.437188 -0.964766
1.48499 -0.138971 -0.347874
-0.554855 0.472845 -1.4829
4.18709 -2.82757 -1.71965
4.39784 -2.2636 -1.9988
-0.260184 0.48534 -1.58067
0.963163 -0.179958 0.0577122
1.09083 -0.0835884 -0.0987472
3.21472 -1.10016 -1.27518
5.09182 -2.77294 -2.75962
-0.469184 0.238599 -0.410847
2.48634 -1.40382 -0.365679
1.93292 -0.172345 -1.01884
4.22144 -3.00402 -1.7949
1.86552 -0.774501 -0.0827783
2.80111 -1.41304 -0.566647
0.594711 -0.123159 0.107999
2.18214 -0.660638 -0.386629
-0.961823 -0.218212 -0.547767
4.79875 -3.27215 -2.32132
5.23902 -2.7334 -3.06715
2.85508 -1.79144 -0.6177
-0.749983 -0.0851221 -0.374501
-0.240986 -0.0535061 -0.0608904
3.29329 -1.42193 -1.04059
-0.448219 -0.44914 -0.171511
0.349675 0.0057721 0.0390805
1.03151 -0.885092 0.124466
-0.521549 0.384985 -0.78041
2.0924 -0.536971 -0.422775
-1.13288 -0.0921768 -0.759248
-0.275186 0.294978 -0.408938
-0.218066 0.468298 -1.11228
2.43021 -1.05143 -0.370086
-0.855875 0.158065 -0.625792
-0.879099 0.252697 -0.793184
2.26905 -0.574306 -0.58934
3.13181 -1.94435 -0.806195
-0.317605 0.301815 -0.440117
3.13184 -1.23069 -0.983577
5.10938 -3.20307 -2.63492
3.40143 -1.63773 -1.05086
3.64362 -1.50029 -1.47208
0.760181 0.316043 -0.983727
1.12462 -0.28483 0.0659979
0.831774 0.214231 -0.524679
1.6599 -0.278161 -0.302319
1.08275 -0.496877 0.154485
1.99393 -0.292919 -0.726632
-0.526937 0.476641 -1.73604
1.3416 -0.503029 0.0809163
1.89452 -0.520294 -0.244025
2.43822 -1.15275 -0.349522
0.324357 0.128355 -0.0812027
4.65131 -2.49289 -2.23941
3.88432 -2.17401 -1.41141
0.301782 0.337884 -0.527856
-0.599068 0.470277 -1.55668
-0.898841 0.348375 -1.08061
3.33585 -2.26787 -1.00374
-1.01173 0.398836 -1.791
-0.251546 0.4824 -1.72958
0.278218 0.367166 -0.636058
4.60788 -3.13436 -2.12728
4.1167 -2.63678 -1.6276
-0.984747 0.335043 -1.17403
2.44774 -0.640704 -0.740658
-0.637003 0.149658 -0.419939
-0.842083 -0.127411 -0.444919
-0.259421 -0.318181 -0.0411135
-0.026936 0.304858 -3.2622
0.619853 0.369069 -1.7557
1.81407 -0.4234 -5.06289
0.832588 -0.439857 -6.18461
1.51043 -1.3443 -9.0384
1.22115 -1.10428 -8.39611
0.00836852 0.378711 -2.73754
0.970048 -0.31177 -5.54724
1.54092 -0.299189 -4.84917
0.986411 0.197719 -2.75263
0.154246 0.435332 -2.03151
1.1115 0.0481275 -3.58577
0.00878672 0.430774 -2.27774
0.199358 0.37542 -2.58967
1.80668 -0.437507 -5.14435
1.39837 -0.247003 -4.78602
-0.305076 0.402986 -2.70132
1.73159 -0.724966 -6.53009
0.248497 -0.0963777 -5.11809
1.05795 -0.357892 -5.66718
1.82165 -1.1238 -8.00074
0.186097 0.377527 -2.58664
0.309024 -0.175446 -5.42351
-0.00627251 0.10444 -4.3245
2.03013 -1.30567 -8.47828
1.58705 -1.37147 -9.07846
0.359479 0.258263 -3.2602
2.04299 -0.619332 -5.66206
1.25757 -1.00184 -8.00839
0.638199 0.369609 -1.56082
1.73896 -0.748307 -6.61836
0.553685 0.387146 -1.63611
0.657124 0.358323 -1.81229
1.24555 -1.10557 -8.38493
1.17664 -0.752116 -7.14696
2.09184 -0.813299 -6.4663
0.358829 -0.236294 -5.64993
0.0669227 0.0163165 -4.7041
-0.134766 0.0948891 -4.41457
0.533836 0.371758 -2.04591
0.551162 0.103827 -3.96422
2.25959 -1.2641 -8.08834
0.629101 -0.618546 -6.99322
1.82599 -1.4989 -9.34111
1.15248 0.00905746 -3.75829
0.972759 -0.793719 -7.44142
0.85556 0.291345 -2.12937
1.80978 -1.15178 -8.1154
1.48988 -1.16712 -8.43299
0.653103 -0.0199938 -4.49865
