ply
format ascii 1.0
comment Created by Open3D
element vertex 250
property double x
property double y
property double z
end_header
0.46211 0.0905645 -1.30091
0.219685 -1.50241 -2.62533
-0.269178 -1.77691 -1.72764
-0.0257764 -0.787022 -0.426085
-0.280332 -1.18157 -0.784029
-0.348091 -0.91256 -0.507763
-0.0866663 -0.632823 -0.282168
-0.809573 -2.29072 -2.81404
0.336868 0.725084 -1.11941
-1.11522 1.43671 0.0293883
-0.0409816 -0.460952 -0.180465
0.230045 0.937064 -0.749763
-1.07364 -2.59335 -3.73582
0.388218 0.244815 -0.719813
-0.145103 -1.12887 -0.738132
0.365677 -1.1239 -1.8229
-0.216236 0.646265 0.146726
0.307415 -1.03888 -1.16769
0.44627 0.201722 -1.22351
0.278949 -0.642393 -0.603246
0.373098 -1.08216 -2.31861
0.133839 -0.260006 -0.182572
-0.929875 1.35783 0.0886818
-0.59599 0.305248 0.116814
0.350853 -0.85642 -1.02539
0.436948 0.180904 -1.03324
-0.533712 1.89797 -0.235179
-0.310883 -0.0222079 0.0619386
-1.59432 -2.93943 -5.09375
-0.315557 0.0763686 0.0948197
-0.235712 2.07594 -1.11854
-1.26658 1.62734 -0.0472205
-0.100322 1.01581 -0.0364164
-0.659669 0.317345 0.101509
0.418364 0.346514 -1.10899
-0.0449786 0.72306 0.0253174
0.293477 -0.825267 -0.816362
-0.606664 -2.44816 -5.04277
-0.831395 -2.63387 -5.37819
0.0641165 -1.53327 -1.57434
-1.34365 -2.95645 -5.88282
-0.224682 1.68841 -0.423997
0.263596 -1.18991 -1.31619
-0.0114385 -1.69937 -1.85757
-0.222327 0.586466 0.15276
-0.858082 -2.62079 -4.09345
0.0132566 -1.15076 -0.838916
-0.732525 -2.5883 -4.38851
-0.696503 -2.47102 -5.49637
0.290798 0.751868 -0.771873
0.0914358 0.669303 -0.119159
0.0765736 -1.57373 -3.76707
-0.73574 -2.26523 -6.3129
-0.688736 -2.54542 -4.1201
-0.323419 -1.58205 -1.3413
-0.820233 -2.3962 -3.12843
-0.584828 0.146989 0.0730541
-0.359773 0.0169122 0.0727606
0.340173 0.622734 -0.87993
0.125574 -0.44187 -0.266097
-1.69716 -3.03419 -5.58774
-0.567022 -2.46824 -4.34975
-0.691993 -2.53361 -3.97691
-0.944664 -2.51076 -3.47564
0.305887 -0.681097 -0.693376
-0.914662 -2.71224 -5.22872
0.407569 -0.194858 -0.70842
0.458735 -0.654004 -1.43186
0.0173232 1.18288 -0.345857
-0.735569 -2.34547 -6.11781
-0.596411 -2.45289 -3.70982
0.119415 0.123492 -0.0706119
-0.264973 -1.96663 -2.21266
0.169722 0.835051 -0.385928
-0.258899 -0.642645 -0.27342
-0.0703244 -0.0924972 0.00361041
-0.179712 -2.08225 -3.78595
-0.950124 -2.71891 -5.55446
-0.495993 1.70588 -0.115466
0.453857 -0.727035 -1.90725
-0.713992 1.00819 0.162792
0.19756 -0.600005 -0.444796
0.250681 0.917535 -0.836208
0.224337 -0.323734 -0.312854
0.312507 -0.175669 -0.413335
-0.0767231 0.0563397 0.0498892
-0.228592 -1.37013 -1.0325
0.457514 -0.717746 -1.7076
-0.656183 1.70833 -0.0347357
-0.292161 -1.0426 -0.630206
-0.457154 -2.19194 -2.70793
-0.790094 -2.5701 -3.9232
-0.00274696 -0.8687 -0.511588
0.194559 0.523262 -0.239211
-0.0774881 -1.9178 -2.49153
-0.450334 -0.652087 -0.312064
0.054034 -0.47277 -0.23246
0.21054 0.0200123 -0.194148
-0.713474 1.63137 0.0174799
0.457437 -0.718705 -1.73507
0.0880077 0.906896 -0.250742
-0.04647 -1.92823 -2.7981
0.092478 -1.59501 -1.82278
0.34988 0.208286 -0.529521
0.482402 -0.180693 -1.3918
0.0860867 -1.04059 -0.759753
0.448334 -0.774404 -1.67085
-0.503807 -1.70597 -1.54336
-0.890362 1.71157 0.00324155
-0.802632 -2.30968 -2.86828
0.14624 -1.27884 -1.19369
0.214128 -1.47342 -1.96646
0.457384 -0.621882 -2.06878
-0.421464 -2.20822 -2.82415
0.0157018 -1.85562 -2.92685
0.241955 0.920561 -0.787155
-1.02858 -2.61045 -3.82188
-0.463905 1.96834 -0.376302
-0.504793 -1.83803 -1.78361
-0.07275 -1.73606 -4.31954
0.162886 -1.53983 -3.19588
-0.330131 1.29936 0.0160631
-0.226588 -1.92136 -2.12912
-0.581244 -2.39356 -5.1723
-0.313931 1.18783 0.0574721
-0.539319 -2.31858 -5.2452
-0.392897 1.92534 -0.425669
0.0258868 1.55006 -1.01377
-0.677811 1.57752 0.033056
0.177937 -1.58849 -2.6723
0.0692725 1.08659 -0.368774
0.410192 -0.803699 -1.23747
-0.0213612 1.5048 -0.682331
-1.16111 -2.75804 -4.41917
-0.610267 -2.49256 -4.67705
0.0918534 1.37971 -0.943253
0.228514 -0.739183 -0.603977
0.342248 -0.683878 -0.788565
0.0842503 -1.72142 -3.19382
-0.912963 -2.65981 -5.77263
-0.0338257 0.666173 0.0304583
-0.339318 -1.95007 -2.09008
0.454298 -0.678672 -2.03395
-1.31872 -2.80219 -4.52493
0.0272081 -1.47568 -1.38148
-0.253702 -2.03056 -2.44468
0.14137 -0.507738 -0.320515
0.209044 -1.44234 -1.79544
-0.663848 0.895408 0.174125
-1.41333 -2.94806 -5.33245
-0.866201 -2.5427 -6.09185
-0.582496 -2.1833 -2.57608
-0.432587 0.698112 0.188363
-0.153488 0.1757 0.101072
-0.139464 -2.0515 -3.11807
-0.610783 0.225446 0.0903381
0.150091 -0.251787 -0.194703
-0.372003 -1.10684 -0.706696
0.0207883 0.996276 -0.190443
0.279719 -1.31124 -1.74574
-0.650375 1.19347 0.144986
0.0945022 0.560314 -0.0841854
0.165444 1.04411 -0.621681
-0.043472 -1.77056 -2.00289
-0.293394 1.02562 0.105533
-0.242832 1.18607 0.00953081
0.290374 -1.33459 -1.99005
-0.64006 -2.30396 -2.91904
0.0790337 0.610856 -0.0792311
-0.0217522 -1.90654 -2.94196
-1.27589 -2.9223 -5.75678
-0.293357 -2.20139 -3.22863
-0.137851 -2.03446 -3.67911
0.435943 0.260485 -1.17795
0.199018 -0.891862 -0.717795
0.443101 -0.122064 -0.895429
0.36074 -1.00278 -1.33728
0.00420429 -1.00555 -0.657224
0.414531 -0.954433 -1.87264
-0.0459082 1.65084 -0.889551
0.0900602 -1.13016 -0.879837
0.243828 -1.29003 -1.48184
-0.128786 -1.82926 -2.00826
0.232379 -0.109175 -0.249713
-0.754211 -2.59479 -5.05592
-0.642461 -2.49857 -3.89239
0.344052 0.276077 -0.537848
-0.052626 1.58018 -0.709625
-0.208466 1.42185 -0.178575
-0.882227 -2.43894 -3.24836
-0.317269 1.9727 -0.630965
0.0696412 1.46866 -1.06095
0.34449 0.372725 -0.599324
-1.33451 -2.89318 -5.04288
-1.00224 -2.69541 -4.27542
-0.269054 1.53289 -0.195447
0.277899 -1.38062 -2.22871
-0.182329 0.746583 0.117851
-0.518282 0.786913 0.18826
-0.397215 0.0699617 0.0869153
-0.238333 2.23687 -2.38228
0.309062 0.869937 -1.6585
-0.444143 1.90052 -5.02929
-1.02184 3.25806 -5.24184
-2.01141 4.29066 -7.95775
-1.80999 4.16225 -7.25292
-0.0765285 1.90562 -2.00009
-0.753014 2.80898 -4.83246
-0.407238 1.99122 -4.67414
0.145722 1.20311 -2.6684
0.141579 1.37849 -1.55566
-0.0685295 1.59768 -3.3968
0.0417007 1.63029 -1.64748
0.0191456 1.68416 -2.01254
-0.47241 1.95215 -5.08781
-0.406875 2.06465 -4.52704
-0.173428 2.09719 -1.76758
-0.976159 2.77846 -6.12318
-0.778401 3.09089 -4.01327
-0.77835 2.81025 -4.98608
-1.5282 3.50704 -7.34564
0.0162553 1.69173 -2.00141
-0.87304 3.21631 -4.29347
-0.575397 2.82701 -3.22322
-1.68366 3.60548 -7.86595
-2.01175 4.25547 -8.04126
-0.126755 1.96408 -2.6365
-0.622986 2.05822 -5.65614
-1.64301 3.92971 -6.96975
0.34691 0.732797 -1.52406
-1.00797 2.82114 -6.19772
0.317601 0.843518 -1.52346
0.305405 0.877665 -1.72657
-1.79974 4.13857 -7.26043
-1.31626 3.52779 -6.23309
-0.903198 2.4665 -6.32068
-0.943259 3.30517 -4.50471
-0.684647 2.98825 -3.5686
-0.648957 2.96528 -3.20961
0.232555 1.11398 -1.82041
-0.299022 2.23008 -3.31164
-1.49478 3.22094 -7.71467
-1.38909 3.84043 -5.745
-2.07271 4.21737 -8.4116
-0.11423 1.66629 -3.55857
-1.4803 3.83415 -6.32922
0.274662 0.925089 -2.10235
-1.57592 3.57745 -7.42832
-1.76583 3.98508 -7.46313
-0.45305 2.4579 -3.79714
