ply
format ascii 1.0
comment Created by Open3D
element vertex 250
property double x
property double y
property double z
end_header
-0.858553 0.500368 -0.962612
-1.38347 2.519 -0.968769
-0.673187 2.39241 -0.194399
-0.266961 0.834856 0.182656
-0.228265 1.42152 0.128676
-0.0213805 1.08999 0.152399
-0.133068 0.660876 0.182019
-0.644914 3.58118 -0.76212
-0.564915 -0.0289266 -1.25393
1.29849 -0.684735 -1.07414
-0.108648 0.459299 0.154802
-0.300185 -0.356684 -1.12952
-0.775621 4.42087 -1.29956
-0.561563 0.0844827 -0.637407
-0.327276 1.30791 0.150079
-1.17151 1.73257 -0.587869
0.367519 -0.485756 -0.338992
-0.875905 1.32077 -0.160133
-0.796964 0.379737 -0.978501
-0.582346 0.717806 0.00379117
-1.34209 1.97841 -0.985349
-0.233683 0.248282 0.0509572
1.13401 -0.72604 -0.950327
0.644604 -0.078941 -0.200698
-0.833453 1.08922 -0.164059
-0.726406 0.291267 -0.823847
0.755813 -1.08733 -1.47949
0.30353 0.0931905 0.0127594
-0.828789 5.63094 -2.17578
0.33716 0.00301262 -0.0267037
0.208582 -0.828525 -2.21049
1.44607 -0.728968 -1.27756
0.264849 -0.698928 -0.696147
0.700134 -0.0564463 -0.229785
-0.70531 0.217493 -0.99005
0.181903 -0.535883 -0.453012
-0.702708 0.968779 -0.0361825
-1.63079 4.88227 -2.30109
-1.57371 5.29021 -2.46789
-0.882599 2.00511 -0.184693
-1.33539 5.99859 -2.71795
0.367899 -0.935939 -1.43862
-0.914419 1.53256 -0.181133
-0.941219 2.31549 -0.301939
0.364316 -0.442498 -0.296946
-1.10266 4.56557 -1.51688
-0.511871 1.32417 0.113005
-1.31431 4.66272 -1.73969
-1.70905 5.18731 -2.64045
-0.397494 -0.228292 -1.01761
-0.00340261 -0.4634 -0.505742
-1.6594 3.26727 -1.8013
-1.91769 5.50881 -3.39127
-1.25402 4.46375 -1.5592
-0.454208 2.0491 -0.0383454
-0.762996 3.84075 -0.931715
0.590367 0.0594301 -0.130006
0.359402 0.075544 -0.0118306
-0.503825 -0.0890416 -1.00798
-0.288085 0.433606 0.10401
-0.922151 6.01691 -2.50119
-1.43138 4.49216 -1.7623
-1.19937 4.37539 -1.45991
-0.789355 4.16643 -1.13764
-0.64535 0.787748 -0.0347557
-1.45967 5.29411 -2.31824
-0.655551 0.398104 -0.343086
-1.03638 1.12918 -0.582458
0.080033 -0.690908 -1.01752
-1.86503 5.45842 -3.19332
-1.18032 4.13042 -1.29675
-0.111828 -0.0948918 -0.113958
-0.879284 2.80551 -0.435485
-0.137478 -0.464336 -0.800342
0.0267057 0.725076 0.168317
0.0491274 0.0920014 0.0513472
-1.52268 3.74812 -1.52793
-1.54084 5.49549 -2.56373
0.727473 -1.02552 -1.26034
-1.20953 1.45333 -0.892781
0.8972 -0.585296 -0.636543
-0.444933 0.626145 0.0828049
-0.352619 -0.30082 -1.17861
-0.373633 0.336659 0.00820122
-0.462548 0.251553 -0.148786
0.0981342 -0.0424921 -0.0106603
-0.396139 1.68331 0.0715911
-1.14219 1.33252 -0.748449
0.903279 -1.01536 -1.22608
-0.138883 1.23567 0.152837
-0.914638 3.32137 -0.69169
-1.09716 4.40745 -1.4113
-0.332598 0.935552 0.174616
-0.166436 -0.324107 -0.485935
-1.13936 2.85916 -0.647108
0.187842 0.822614 0.115863
-0.216236 0.4633 0.138071
-0.257266 0.0190207 -0.12599
0.960044 -0.967012 -1.14627
-1.15179 1.34875 -0.768452
-0.00243962 -0.564669 -0.757773
-1.27579 3.02867 -0.865546
-1.00583 2.18095 -0.326929
-0.46715 0.0181016 -0.47711
-0.958078 0.74608 -0.853183
-0.531473 1.17145 0.11276
-1.13136 1.35723 -0.685863
-0.380588 2.31996 -0.138022
1.13256 -0.955127 -1.23583
-0.67351 3.62338 -0.789538
-0.780254 1.57175 -0.05017
-1.14532 2.12788 -0.494125
-1.24945 1.46495 -1.08101
-0.99063 3.3862 -0.762872
-1.36429 3.02495 -0.999216
-0.327079 -0.3276 -1.14511
-0.84996 4.46594 -1.34615
0.655596 -1.08515 -1.61982
-0.486789 2.55401 -0.233427
-1.7425 3.75315 -2.13428
-1.53523 2.88896 -1.38138
0.546192 -0.8569 -0.874623
-0.877493 2.71096 -0.396025
-1.68901 4.90559 -2.42944
0.525272 -0.803123 -0.769334
-1.73914 4.87588 -2.52586
0.565334 -1.05082 -1.61823
-0.0918234 -0.590413 -1.75331
0.922788 -0.948548 -1.09445
-1.37697 2.62449 -0.955081
0.00674826 -0.625026 -0.964766
-0.951779 1.14831 -0.347874
0.0579899 -0.726694 -1.4829
-0.961325 4.96011 -1.71965
-1.50914 4.71035 -1.9988
-0.159209 -0.527165 -1.58067
-0.553809 0.808309 0.0577122
-0.712231 0.830442 -0.0987472
-1.49522 3.05108 -1.27518
-1.6397 5.56122 -2.75962
0.163048 -0.500479 -0.410847
-0.76546 2.75076 -0.365679
-1.24492 1.48865 -1.01884
-0.860844 5.10917 -1.7949
-0.771466 1.86678 -0.0827783
-0.98151 2.97985 -0.566647
-0.333438 0.50761 0.107999
-1.07586 2.01015 -0.386629
0.834411 -0.525813 -0.547767
-1.07947 5.70699 -2.32132
-1.77174 5.63735 -3.06715
-0.75211 3.28558 -0.6177
0.590509 -0.470128 -0.374501
0.208237 -0.132568 -0.0608904
-1.32325 3.33416 -1.04059
0.634529 0.000650861 -0.171511
-0.251339 0.243176 0.0390805
-0.103534 1.35524 0.124466
0.0965651 -0.641016 -0.78041
-1.09985 1.85924 -0.422775
0.866246 -0.735888 -0.759248
-0.0139946 -0.403167 -0.408938
-0.176941 -0.485332 -1.11228
-0.97494 2.46189 -0.370086
0.493426 -0.716964 -0.625792
0.442933 -0.8003 -0.793184
-1.19836 2.01056 -0.58934
-0.839657 3.58939 -0.806195
0.0111658 -0.437996 -0.440117
-1.34432 3.08478 -0.983577
-1.34797 5.87779 -2.63492
-1.24712 3.56323 -1.05086
-1.51557 3.63729 -1.47208
-0.761005 0.314053 -0.983727
-0.593822 0.996632 0.0659979
-0.739637 0.436669 -0.524679
-0.977035 1.37041 -0.302319
-0.414275 1.11697 0.154485
-1.2028 1.61705 -0.726632
0.0355648 -0.709637 -1.73604
-0.592959 1.30435 0.0809163
-0.971726 1.70753 -0.244025
-0.90896 2.5392 -0.349522
-0.320115 0.138594 -0.0812027
-1.52623 5.05171 -2.23941
-1.20937 4.28389 -1.41141
-0.452312 -0.0255278 -0.527856
0.0910693 -0.756141 -1.55668
0.389238 -0.881915 -1.08061
-0.755177 3.96243 -1.00374
0.433385 -0.997424 -1.791
-0.163238 -0.518978 -1.72958
-0.456356 -0.0628959 -0.636058
-1.04193 5.47459 -2.12728
-1.04646 4.77543 -1.6276
0.45941 -0.933233 -1.17403
-1.27777 2.18386 -0.740658
0.344605 -0.556254 -0.419939
0.685535 -0.50535 -0.444919
0.408426 0.0415492 -0.0411135
-0.196521 -0.234614 -3.2622
-0.699274 0.177331 -1.7557
-0.983353 1.58213 -5.06289
-0.277703 0.899754 -6.18461
-0.117468 2.0186 -9.0384
-0.082636 1.64432 -8.39611
-0.273706 -0.261872 -2.73754
-0.465473 0.906382 -5.54724
-0.878034 1.30115 -4.84917
-0.837307 0.55769 -2.75263
-0.416895 -0.198758 -2.03151
-0.819981 0.751918 -3.58577
-0.310816 -0.29839 -2.27774
-0.406429 -0.124494 -2.58967
-0.968155 1.58688 -5.14435
-0.814141 1.16346 -4.78602
-0.0692329 -0.500675 -2.70132
-0.711791 1.73705 -6.53009
-0.107564 0.243863 -5.11809
-0.495018 1.00115 -5.66718
-0.493455 2.08275 -8.00074
-0.398543 -0.135362 -2.58664
-0.0944539 0.342572 -5.42351
-0.0694146 -0.0782853 -4.3245
-0.512273 2.35876 -8.47828
-0.152437 2.09198 -9.07846
-0.43681 0.0715709 -3.2602
-1.00668 1.88255 -5.66206
-0.180824 1.59764 -8.00839
-0.712628 0.189922 -1.56082
-0.700497 1.75876 -6.61836
-0.665268 0.117761 -1.63611
-0.718029 0.211284 -1.81229
-0.0989809 1.66249 -8.38493
-0.300187 1.36384 -7.14696
-0.904064 2.05424 -6.4663
-0.0866453 0.420816 -5.64993
-0.058859 0.035784 -4.7041
0.0281973 -0.162391 -4.41457
-0.640352 0.114607 -2.04591
-0.463148 0.316314 -3.96422
-0.703915 2.49163 -8.08834
-0.00746377 0.882219 -6.99322
-0.231284 2.35105 -9.34111
-0.821332 0.808523 -3.75829
-0.1266 1.24909 -7.44142
-0.810984 0.39896 -2.12937
-0.465278 2.09414 -8.1154
-0.228224 1.87878 -8.43299
-0.447675 0.475951 -4.49865
