ply
format ascii 1.0
comment Created by Open3D
element vertex 400
property double x
property double y
property double z
end_header
-1.02186 -1.80359 1.33851
-1.07675 -1.73566 2.67058
-1.25459 -2.07528 2.4806
-1.89159 -2.18709 1.74271
-1.26565 -1.93383 2.80015
-0.143914 -1.01565 0.889221
-1.20132 -1.91288 2.70247
-0.47822 -1.26567 1.88423
-0.696231 -1.12684 2.3559
-0.566785 -1.52912 1.23244
-0.162688 -0.996738 1.24427
-0.996494 -1.844 1.46833
-1.712 -1.65451 3.6555
-1.19873 -2.06879 2.03794
-1.28907 -1.94448 2.83085
-1.38319 -2.10111 2.76475
-1.83344 -2.14601 1.67621
-1.34323 -1.71493 1.0511
-1.04623 -1.82083 2.51206
-1.36161 -1.34374 3.27813
-1.02403 -1.78881 1.30338
-0.272133 -0.802773 1.65427
-1.06956 -1.98331 2.08215
-0.396316 -1.03737 1.84218
-0.488579 -1.38608 1.77836
-0.926689 -1.86125 1.67307
-1.14346 -1.52942 2.91507
-0.976516 -1.75844 2.44994
-0.54794 -0.63599 2.14726
-0.66112 -1.31301 2.22475
-0.811556 -1.77657 1.60697
-2.29652 -2.41524 2.1269
-0.440672 -1.08208 1.91354
-1.37111 -2.03655 1.63056
-1.55989 -1.68919 0.993829
-0.335303 -1.28742 1.06048
-0.87101 -1.04819 2.63844
-0.809861 -1.45619 2.41045
-0.277361 -1.034 1.57367
-0.172682 -1.03342 0.800956
-0.308479 -0.981709 1.67759
-1.17679 -2.00999 2.44975
-1.19728 -1.94846 2.6389
-1.12156 -1.84467 1.35589
-1.00148 -1.3174 0.589238
-0.279976 -1.22223 1.29491
-0.806907 -1.77475 1.89583
-1.30651 -2.11813 2.49157
-0.679193 -1.61343 1.26413
-0.136362 -0.774522 1.34201
-0.910094 -1.18997 2.67495
-0.803582 -1.78027 1.80309
-0.673533 -1.66786 1.65123
-1.16916 -1.90517 1.45907
-1.66491 -2.30155 2.17077
-1.57383 -2.28519 2.26736
-1.68857 -2.25845 1.99751
-0.0853094 -0.890899 0.748026
-1.02249 -1.75931 1.24178
-0.459192 -1.42135 1.14127
-0.838928 -1.43609 0.785041
-2.07851 -2.3336 2.00027
-0.621796 -1.60969 1.42233
-1.06594 -1.88474 1.50191
-0.410818 -1.35067 1.03501
-1.55578 -2.20551 1.95117
-0.269746 -0.991146 1.58159
-1.02781 -1.52526 0.848694
-0.374607 -1.02229 1.80339
-1.0488 -1.56563 0.900525
-0.786244 -1.76666 1.75824
-0.0770974 -0.895997 0.874758
-0.942342 -1.4468 2.64024
-0.974543 -1.09766 2.78305
-0.340623 -1.22313 0.848907
-1.50131 -2.22071 2.07922
-0.0575374 -0.591077 1.17484
-0.1778 -0.60419 1.4739
-0.536619 -1.30509 1.98251
-0.783505 -1.13054 2.49414
-0.225498 -1.13833 0.943299
-0.653547 -1.45647 2.10379
-1.21852 -1.84113 1.2952
-0.268629 -1.1841 1.35494
-0.0397064 -0.790186 0.683357
-0.353373 -1.20283 1.62846
-1.37378 -1.93932 2.98973
-1.09814 -1.45929 2.87652
-0.235973 -0.324313 1.55502
-1.15902 -2.0407 2.22824
-0.410812 -1.39177 1.43656
-1.51473 -1.52995 3.43653
-1.02017 -1.11263 2.84607
-0.760673 -1.48818 0.905009
-1.19956 -1.84605 2.78152
-0.879278 -0.884288 2.65734
-1.06611 -1.67639 1.06687
-2.62241 -2.51035 2.28026
-0.475307 -1.37068 0.957822
-0.471459 -1.38672 1.00409
-0.173472 -1.03183 0.793221
-0.499958 -1.45401 1.68473
-0.899333 -1.52835 0.897846
-0.085054 -0.785254 1.17724
-0.807072 -1.33702 0.661027
-1.5462 -1.66489 0.962853
-0.492711 -1.44348 1.68289
-0.720752 -0.933162 2.42266
-1.49998 -1.46826 0.727111
-0.878679 -1.16028 2.63376
-0.660647 -1.28918 2.23636
-0.806554 -1.26412 0.569559
-0.233234 -1.16771 1.09202
-0.914728 -1.84465 2.09571
-1.54603 -1.79326 1.13752
-0.995954 -1.17925 0.438115
-0.91407 -1.24272 2.66901
-0.253661 -1.15959 0.90031
-0.364363 -1.26677 1.5755
-0.853729 -1.81306 1.94437
-1.07278 -1.5257 2.8086
-2.43575 -2.47582 2.23244
-0.859687 -1.65634 1.14885
-0.972931 -1.63437 1.03686
-0.688662 -1.64725 1.36409
-0.331825 -1.22374 1.53357
-0.697541 -1.12617 2.35821
-0.0622414 -0.863671 0.887711
-2.05928 -2.3224 1.98094
-0.477577 -1.41122 1.05924
-0.3492 -1.12088 1.69204
-0.978369 -1.51671 2.66255
-0.989235 -1.55706 0.906801
-1.40024 -1.26791 0.512229
-0.442066 -1.07295 1.92004
-1.10421 -1.61203 0.952927
-0.216195 -0.411995 1.53628
-0.0707256 -0.840366 1.05262
-1.68054 -2.05375 1.53804
-0.904479 -1.31117 0.60099
-0.263451 -1.00636 0.564138
-0.397898 -0.687048 1.90112
-1.49569 -1.78411 1.12983
-0.0977654 -0.916495 1.05574
-1.00028 -1.25498 0.518732
-1.24028 -1.39816 3.10104
-1.3848 -2.1904 2.26397
-1.52814 -1.52811 3.45481
-2.21638 -2.30438 1.91436
-0.2491 -1.18466 1.03734
-0.658288 -1.45174 0.914816
-1.20673 -1.94301 1.52146
-1.20659 -1.79421 1.21412
-0.39968 -0.65854 1.90321
-0.7884 -0.85591 2.52561
-2.13384 -2.38334 2.09667
-1.10847 -1.98308 2.31095
-0.387285 -1.02745 0.475155
-0.354386 -0.651096 1.82253
-0.749102 -1.66814 2.03599
-1.28444 -2.03997 1.71453
-0.513977 -0.462967 2.06661
-0.280714 -1.14413 1.4765
-0.812286 -1.78848 1.77297
-1.25242 -1.74935 1.12362
-1.43784 -1.90132 3.13212
-1.11807 -2.01821 2.10644
-0.0527497 -0.56009 1.16646
-1.71115 -1.7924 1.12642
-2.25283 -2.50062 2.34858
-1.17124 -2.05316 2.18742
-0.869427 -1.57436 0.987633
-1.323 -2.15228 2.31896
-0.455238 -0.657318 1.99812
-1.47195 -2.24277 2.34924
-1.44428 -2.21454 2.55801
-0.328954 -1.04848 0.553494
-0.190837 -1.09978 0.992958
-0.22408 -0.71645 1.56589
-0.203262 -0.968942 1.41767
-1.35015 -1.82431 3.05585
-1.20644 -2.07799 2.189
-1.08075 -1.89774 2.46158
-1.33616 -2.16008 2.21117
-1.49673 -1.64612 0.940864
-0.263677 -1.06008 1.51624
-0.962201 -1.86294 2.20982
-0.808881 -1.22596 0.523629
-1.72549 -1.88982 1.26362
-1.19547 -1.55843 2.9798
-1.77045 -2.36229 2.27828
-1.21328 -1.78873 2.86109
-0.0794084 -0.633378 1.22867
-0.148501 -1.02225 1.09544
-1.13588 -1.9462 1.59978
-2.58546 -2.46564 2.19269
-0.758547 -1.10644 2.45989
-1.20785 -1.96411 2.63493
-1.04304 -1.42198 2.80793
-1.34267 -1.28663 0.530643
-0.462222 -1.42641 1.60074
-0.171508 -1.00754 0.734858
-0.517177 -1.41171 0.989443
-1.30431 -1.45737 3.1732
-0.97792 -1.35587 0.639231
-0.277805 -0.700685 1.6778
-1.36617 -2.05118 1.67121
-2.23025 -2.45863 2.24668
-1.80086 -1.87004 1.23179
-0.841403 -1.79013 2.00255
-0.059805 -0.837705 0.716745
-0.846801 -1.814 1.87559
-2.34004 -2.51949 2.36303
-1.09762 -1.92601 2.44498
-0.238972 -0.814002 1.58046
-1.70557 -1.91789 1.30737
-0.827904 -1.79759 1.86922
-0.390509 -1.15664 1.76493
-0.222077 -1.12986 0.924778
-1.39483 -2.1203 2.74843
-0.579977 -1.02128 2.1859
-0.0769079 -0.580178 1.2316
-1.47875 -2.10447 1.72734
-1.10155 -1.64331 2.78657
-1.35905 -1.7942 1.16845
-2.01167 -2.01501 1.43915
-0.646962 -1.13576 2.27168
-1.76573 -2.14461 1.69019
-0.811236 -1.55899 0.99599
-1.61498 -1.99602 1.44902
-0.182652 -0.695312 1.47721
-2.06399 -2.20839 1.75393
-0.762838 -1.17874 2.45042
-1.33596 -1.97185 2.88351
-0.0391832 -0.796483 0.710435
-0.842164 -1.79037 1.56879
-0.225147 -0.817237 1.54845
-1.09111 -1.6391 0.997943
-1.33537 -1.93032 1.4163
-1.32525 -1.38736 0.638542
-2.40126 -2.36692 2.01513
-1.38311 -1.65442 0.960711
-0.984261 -1.87207 1.5783
-1.32491 -1.68658 1.01322
-0.632722 -1.35698 2.14319
-1.73642 -1.82409 1.16921
-0.392227 -1.34369 1.06648
-1.4914 -2.11101 1.73554
-0.453441 -1.44066 1.48459
-0.170465 -0.795635 1.42391
-1.68083 -2.30689 2.17072
-2.03761 -2.10643 1.5811
-0.337376 -1.2989 1.36628
-1.71387 -1.95481 1.36403
-2.33534 -2.30558 1.90617
-0.470819 -1.45932 1.28391
-0.514076 -1.5026 1.57748
-1.70105 -2.19605 1.82549
-1.34073 -1.84244 3.02615
-0.797314 -1.63692 1.16334
-1.10829 -1.99853 1.8744
-0.296039 -1.06147 1.60227
-1.06647 -1.42678 2.84145
-0.445808 -1.38345 1.04872
-0.785601 -1.53722 2.30284
-1.51053 -1.48038 0.740881
-1.31144 -2.1396 2.11944
-0.77998 -1.27115 0.586242
-0.332859 -1.01075 1.71876
-1.19174 -1.72931 1.10918
-0.313734 -1.26807 1.33717
-1.04647 -1.40459 0.685872
-2.27559 -2.27377 1.85264
-1.34411 -1.19073 0.434833
-1.05844 -1.9687 2.14735
-1.2592 -2.08364 1.91887
-0.211402 -0.917162 0.498584
-0.76562 -1.63913 1.20362
-0.202468 -1.09837 1.22513
-0.720226 -1.49646 0.947199
-0.350991 -1.01035 1.75841
-0.340545 -0.416295 1.76806
-0.964754 -1.69246 2.50379
-0.0390927 -0.801813 0.73531
-1.15704 -1.93754 1.5517
-0.490737 -1.48746 1.38081
-1.61878 -1.9839 1.42706
-0.476688 -1.37589 0.96797
-0.616159 -1.52127 1.1093
-1.40555 -1.57547 3.27376
-0.527853 -1.46445 1.76281
-0.603542 -1.40815 2.04041
-1.04006 -1.95936 1.89033
-1.25602 -2.09401 2.40068
-0.930263 -1.6203 2.50694
-0.0504133 -0.679613 1.12119
-0.964591 -1.02105 2.77524
-1.88272 -2.16523 1.7025
-1.13422 -1.88435 1.43671
-0.426521 -1.13784 0.594269
-1.17646 -1.64845 2.9033
-1.01719 -1.86294 2.3713
-0.335231 -1.10176 0.627523
-0.938144 -1.66117 1.10325
-0.785851 -1.15232 0.446136
-0.928316 -1.79095 1.4029
-0.625889 -1.46261 0.965369
-1.41553 -1.54402 3.29865
-0.302802 -1.2444 1.0204
-0.667593 -1.58827 1.2089
-0.887177 -1.25306 0.536406
-1.13774 -1.96045 2.47163
-0.25519 -1.15507 0.880815
-0.177158 -0.532738 1.47139
-0.290854 -1.03313 1.60842
-0.978045 -1.90519 1.75437
-0.601286 -0.752126 2.23961
-1.87455 -2.14837 1.67238
-1.33451 -1.37188 0.621243
-1.55685 -2.05261 1.57228
-1.16062 -2.01938 1.83432
-1.83853 -2.13335 1.65132
-0.298023 -1.06897 1.60188
-2.67786 -2.56524 2.39131
-0.755278 -1.16568 2.44168
-0.929561 -1.88072 1.93145
-1.0404 -1.55721 2.74052
-0.343153 -0.636493 1.80159
-1.29963 -1.83132 1.24613
-0.826715 -1.60207 2.32256
-1.61837 -2.24131 2.00552
-0.154665 -1.04277 0.989589
-2.27551 -2.50739 2.35699
-1.52578 -1.61958 0.906108
-0.280938 -0.573628 1.68238
-0.438598 -1.18715 0.657514
-1.18445 -1.34219 0.595771
-0.651057 -1.26071 0.623529
-0.226189 -0.993769 0.595539
-1.01124 -1.84824 2.38575
-1.24098 -1.99935 1.6403
-0.97271 -1.15236 2.77338
-1.70574 -2.35119 2.34021
-0.202762 -1.07377 1.28694
-0.404636 -1.30749 1.64298
-0.944375 -1.86575 2.13366
-0.736983 -1.68407 1.95438
-1.28282 -1.85838 2.91566
-1.06236 -1.90568 1.56887
-1.74292 -1.57955 3.71811
-0.414853 -0.500403 1.91179
-0.734944 -1.2562 2.38033
-0.137747 -0.967757 0.742761
-1.47777 -2.24716 2.39903
-0.917027 -1.8621 1.71967
-1.17964 -1.43326 0.701497
-0.364339 -0.964439 1.80319
-0.15659 -0.75495 1.40202
-0.177418 -0.804598 1.43831
-0.500387 -1.25733 1.93979
-0.726265 -0.819685 2.43295
-0.0131005 -0.736261 0.857962
-1.51729 -2.17385 1.88895
-1.26021 -1.55185 0.839575
-0.00955144 -0.602391 1.00801
-2.11941 -2.18725 1.71134
-1.00254 -1.44998 0.752769
-0.878774 -1.84191 1.85818
-1.67915 -2.2566 1.99947
-1.44378 -1.79739 3.21842
-0.0993254 -0.700195 1.2661
-0.456616 -1.28428 0.803423
-1.75825 -2.14207 1.68722
-0.649268 -1.42335 0.871379
-0.200123 -0.843823 1.48032
-1.048 -1.64192 1.01742
-0.806207 -1.78247 1.71371
-0.98274 -1.44866 2.70382
-1.59067 -2.30239 2.34239
-0.676203 -1.65996 1.76388
-0.489102 -0.366002 2.00455
-0.608882 -1.60776 1.56748
-0.549689 -1.32418 0.782165
-2.49732 -2.47837 2.22803
-1.43333 -2.19657 2.61209
-1.2311 -1.98688 2.64555
-1.36112 -2.17305 2.19412
-1.0278 -1.90102 1.60661
-0.150516 -0.620876 1.41156
-1.35582 -2.10858 2.67836
-1.55079 -1.90972 1.31546
-1.71734 -2.28394 2.0516
-1.24947 -2.10615 2.15965
-1.34475 -1.75212 3.09857
-0.746402 -1.64663 2.07206
-0.648219 -1.13937 2.27277
-1.74716 -1.95091 1.35446
-0.721989 -1.70843 1.75137
-0.719012 -1.66157 1.34455
-1.02784 -1.88686 1.55756
