ply
format ascii 1.0
comment Created by Open3D
element vertex 400
property double x
property double y
property double z
end_header
1.41285 1.04217 -0.712386
2.0772 2.92444 -0.0937978
0.933664 1.31018 -0.623125
1.01296 1.99956 0.625873
2.18003 1.33633 -0.720784
1.62186 1.225 -0.734666
0.507016 1.45098 0.217586
1.32599 1.60554 -0.682561
2.1386 2.91846 -0.179593
2.54884 3.41941 0.617478
1.17717 0.78951 -0.664737
0.873089 1.71611 -0.364373
1.37569 2.4307 0.360698
1.82975 2.69727 -0.184985
1.42779 2.3728 -0.190504
1.48105 0.568827 -0.610582
1.14992 0.930855 -0.682945
2.03672 3.00823 0.629771
0.32064 0.96368 -0.288202
1.51479 2.53641 0.604459
1.27201 1.75132 -0.621211
1.37743 1.99643 -0.548128
1.47019 2.43012 -0.146776
0.78617 1.61085 -0.366804
0.369334 1.0386 -0.308271
1.51521 1.72168 -0.700072
1.02411 2.00417 0.652712
2.44629 2.3977 -0.659095
1.06844 2.11812 0.0912405
2.5718 2.25942 -0.694986
1.90931 1.01041 -0.690552
1.27571 2.27974 -0.0899594
0.685502 1.67168 0.346712
1.66906 2.60931 -0.113255
0.723995 1.73644 0.157034
0.768588 1.73806 -0.134049
2.30614 2.9302 -0.303885
2.44769 2.19159 -0.704483
0.743386 1.04148 -0.591903
0.581129 1.55258 0.212731
1.15581 2.21188 0.139687
2.36798 1.77084 -0.737201
1.86834 2.87337 0.339491
1.34141 2.2218 -0.314359
1.85445 2.69374 -0.221145
0.414576 1.31783 0.207509
2.19529 1.98971 -0.727569
1.00295 2.00531 -0.1102
3.0521 2.42886 -0.657514
0.961212 1.91713 -0.214025
2.4131 3.30852 0.74618
0.584029 1.55855 0.125312
1.46267 2.50559 0.470612
2.43298 3.3215 0.412564
1.96136 2.9478 0.583725
1.46473 1.83029 -0.658636
1.83091 1.36309 -0.743785
2.05372 1.04619 -0.683797
0.606855 1.40295 -0.337403
0.587026 1.52048 -0.109756
1.85449 2.83543 0.719012
2.16109 1.65205 -0.74595
0.7212 1.73245 0.126932
1.85199 0.94454 -0.681574
2.41262 1.80991 -0.734715
1.83567 2.84724 0.439534
2.6242 2.16485 -0.706884
1.12143 1.46822 -0.654674
1.40088 2.43022 0.0382468
2.2745 2.09379 -0.715297
2.14393 2.08084 -0.710206
0.457504 1.38326 0.173685
1.20274 1.1964 -0.703203
2.48329 3.36751 0.694975
1.78259 2.70646 -0.0953614
1.92011 1.3777 -0.742354
0.948285 0.928565 -0.653594
0.970767 0.681663 -0.627117
1.66484 2.19325 -0.567612
2.30279 1.88542 -0.737318
2.15287 2.34032 -0.639138
2.73605 2.40094 -0.670761
2.04717 2.49671 -0.536162
1.70291 1.95714 -0.678867
1.98486 2.86921 -0.0706777
0.501328 1.20402 -0.36663
1.1017 1.2996 -0.677447
1.79622 2.40336 -0.490507
0.806847 1.17731 -0.598061
1.70563 1.16199 -0.727396
2.37038 2.72708 -0.502198
1.40212 2.30464 -0.270558
0.710383 1.71171 0.288793
1.54395 2.56513 0.0766639
2.19891 2.38253 -0.631577
0.851502 1.13531 -0.621989
1.79803 2.58952 -0.310417
1.49416 0.913413 -0.693698
2.81752 1.87475 -0.699953
1.75331 2.5157 -0.359575
1.98609 2.34704 -0.598038
1.82034 2.34434 -0.542203
1.00411 2.04746 0.356067
1.27622 1.19106 -0.712942
0.81032 0.82986 -0.617304
1.80224 2.11526 -0.648618
1.84606 2.7169 -0.171619
1.96429 1.68313 -0.748083
1.84446 1.88169 -0.71951
1.08629 2.13244 0.392475
0.460356 1.16301 -0.344076
1.73971 2.64987 -0.145586
1.76896 2.78553 0.508175
0.828067 1.85944 0.215783
2.21216 1.90405 -0.73688
1.66011 1.30318 -0.740583
1.48451 2.46381 -0.0954066
1.63386 2.66903 0.430939
0.928883 1.87405 0.702182
2.5839 1.73114 -0.718392
0.639817 1.60652 -0.0528957
1.24563 0.604053 -0.626161
1.27053 2.31156 0.0484949
3.36204 2.54039 -0.621731
2.62665 2.62481 -0.603584
0.59358 1.48925 0.565084
0.89278 1.8531 -0.194511
1.63098 0.698724 -0.638481
2.41319 2.71182 -0.523764
1.4275 0.57506 -0.614986
2.61952 2.67976 -0.581209
2.79482 2.42713 -0.665822
1.14984 1.2882 -0.689585
0.479049 1.40556 0.0199324
0.7777 0.9934 -0.608777
1.00462 1.80892 -0.417293
0.612128 1.28086 -0.436903
1.60574 2.55522 -0.11988
0.472655 0.953565 -0.455666
1.85968 2.85171 0.645814
1.3466 2.34477 0.700681
0.498261 0.831509 -0.495588
0.426677 1.32058 0.316327
2.26608 1.89751 -0.737191
1.97487 2.72022 -0.302474
1.54705 2.55537 0.66823
1.77858 2.79268 0.263373
0.915284 1.88543 0.622083
1.77002 2.61806 -0.241821
2.46518 1.95136 -0.728769
1.68042 0.546016 -0.588448
0.596069 0.989191 -0.52896
0.360878 0.968182 -0.340871
1.56433 1.67852 -0.716845
0.596618 1.57295 0.0819431
2.29558 3.21765 0.699193
0.963419 1.93626 0.642603
0.997749 0.643561 -0.622659
0.884481 1.83539 0.659004
0.701851 0.816229 -0.585723
0.639545 1.22544 -0.488016
1.10295 2.14049 0.457512
0.910797 1.86893 0.655095
2.29546 1.89507 -0.736927
1.06066 1.91008 -0.373351
1.79424 1.03744 -0.70446
0.734313 1.69592 0.508846
3.34151 2.56039 -0.621119
1.01485 1.30256 -0.652891
1.08747 2.10993 0.526362
0.801256 0.926214 -0.618052
1.75507 1.10867 -0.718376
0.600003 1.39572 -0.334825
0.709322 1.09422 -0.568978
1.85907 1.70681 -0.743167
1.39545 1.49936 -0.71467
1.60045 1.85956 -0.684448
2.02384 2.52081 -0.511832
0.697146 1.57384 -0.278811
1.25808 2.27431 -0.0560738
1.21716 1.65282 -0.636008
1.04339 2.06547 -0.0504256
0.84256 1.83001 -0.115478
1.68441 2.3963 -0.429671
1.93436 1.91162 -0.723474
1.67213 2.50173 -0.302386
2.43011 3.32717 0.513722
2.18992 3.13274 0.676797
0.388774 1.08594 -0.301442
2.24907 3.179 0.705132
1.1378 1.07214 -0.691955
0.474113 0.902997 -0.468943
0.445822 1.34629 0.330455
2.32797 1.88901 -0.736527
2.43892 2.28553 -0.686477
2.061 2.13425 -0.689816
2.32145 1.53984 -0.729977
1.15768 1.75012 -0.569115
1.94896 2.94156 0.366841
0.393357 0.988953 -0.36864
0.598776 0.971094 -0.533482
1.56375 1.96828 -0.638723
2.16228 2.1342 -0.700623
1.12879 2.183 0.121372
2.04221 2.05452 -0.706571
2.7487 1.7583 -0.701554
2.76448 2.3062 -0.685852
0.93712 1.97906 0.0941435
0.787304 1.5071 -0.45523
2.16578 1.42627 -0.732467
0.841615 1.86599 0.326619
2.6943 2.34291 -0.681237
1.73973 2.67372 -0.0938156
1.81643 2.81595 0.623146
0.412783 1.30491 0.00163729
2.04091 1.18969 -0.711803
1.32552 2.37155 0.0963853
3.27229 2.4791 -0.636045
2.23808 2.82438 -0.371021
0.655281 1.05871 -0.548283
2.18481 2.50232 -0.575611
1.44321 2.22069 -0.416541
1.04651 2.01033 0.712489
1.83841 1.74011 -0.738903
1.29699 2.2344 -0.233587
0.810448 1.67398 -0.328999
2.01528 1.2414 -0.721798
2.23123 1.4144 -0.725679
1.45934 2.45791 -0.0507929
0.940383 1.96929 0.00193482
1.73708 1.98198 -0.678685
1.73125 1.89478 -0.70087
1.08169 2.07307 0.643188
1.75525 1.05713 -0.710146
1.68426 1.87435 -0.697514
2.56731 1.7065 -0.71862
3.07556 2.36652 -0.662893
0.783104 0.949476 -0.612278
0.606104 1.5785 0.0217848
0.791128 1.70256 -0.258089
1.4456 1.88684 -0.632021
1.72869 2.71496 0.0528039
3.20539 2.59403 -0.625138
1.50355 1.49936 -0.729871
2.1666 2.91265 -0.216288
1.40694 1.72187 -0.674982
0.922258 1.69818 -0.435099
1.23227 2.27283 0.0369261
1.14583 0.769495 -0.659186
1.8902 2.09855 -0.673368
0.564124 0.863336 -0.528345
3.18544 2.20561 -0.660971
0.703796 1.67199 -0.10137
1.293 2.134 -0.370599
2.52918 2.32432 -0.682077
0.986706 2.02829 0.355075
2.53929 1.91644 -0.72591
1.40317 2.4172 0.644155
1.99876 2.98094 0.568311
0.954814 1.28158 -0.636554
1.5977 0.799079 -0.666192
2.03553 2.499 -0.53049
1.30502 0.693284 -0.64872
0.930556 1.87043 -0.239736
1.85353 2.84787 0.206439
2.662 2.43041 -0.663329
1.6935 1.64169 -0.737166
2.37926 2.58433 -0.581322
1.92192 1.91082 -0.72245
2.59869 1.75358 -0.718098
0.548462 1.49162 0.337491
0.622757 1.28941 -0.441953
1.17097 2.10363 -0.257371
2.91981 2.5803 -0.633934
1.27954 2.31441 0.528688
3.1448 2.41706 -0.652689
0.306658 0.972022 -0.259356
3.1246 2.26344 -0.66587
2.0379 2.99205 0.195999
0.522455 1.45149 -0.0506
1.42948 2.04838 -0.543586
1.53343 1.08222 -0.719369
2.49981 2.17535 -0.707447
1.41531 1.59749 -0.704172
1.91247 2.80622 -0.0922306
0.974764 0.783296 -0.643928
0.632161 1.0313 -0.541147
0.566114 1.29047 -0.381705
2.23585 2.25146 -0.679129
2.22496 3.08816 0.0461743
2.77394 2.43224 -0.664844
2.27616 3.14635 0.111241
2.16204 1.52279 -0.740688
0.984709 1.69308 -0.492296
2.12257 2.90351 -0.186235
1.64077 0.978661 -0.701671
1.72871 2.63514 -0.157906
2.61694 2.62193 -0.603522
0.548305 1.50715 0.063449
1.07444 0.693408 -0.639582
1.72691 2.56691 -0.269725
0.767436 1.23571 -0.565727
1.52811 2.57358 0.254914
0.663237 0.776793 -0.571494
1.67965 2.68181 0.0826575
1.2791 2.03198 -0.459228
1.36656 0.614443 -0.628085
0.673824 1.33249 -0.463425
1.31782 2.3548 0.0421566
1.0173 1.059 -0.671156
1.70809 2.73674 0.396273
2.36184 1.56022 -0.728044
1.55312 1.7673 -0.697608
0.414724 1.31964 0.0939094
1.5434 1.39185 -0.738137
1.21323 1.5216 -0.670665
2.99552 2.03546 -0.683628
1.18215 2.22602 0.451273
1.31021 2.33445 0.587342
3.33043 2.34267 -0.639915
1.83754 0.764783 -0.638592
1.28618 0.80978 -0.673166
1.65493 2.65063 0.0390222
0.355136 1.19653 -0.0638923
0.608442 1.56497 -0.0575634
1.23832 1.59798 -0.659637
1.97539 2.94458 0.202318
2.27595 3.1009 -0.00955764
1.9549 2.93347 0.665118
0.996947 1.59746 -0.555501
1.4958 1.56516 -0.72246
2.84618 2.51123 -0.648893
1.17661 2.22893 0.385096
2.66627 2.41191 -0.667555
0.918032 1.92639 0.486875
2.42498 2.53329 -0.611178
1.23673 1.94848 -0.494586
1.77552 2.54262 -0.347352
1.6774 2.44509 -0.375452
2.58755 3.44473 0.761638
0.835865 1.86835 0.133544
0.611282 1.58674 0.272112
1.28839 1.04276 -0.706014
1.90657 1.32862 -0.738664
1.39608 1.29927 -0.726411
0.765726 1.77404 0.0110183
1.08788 2.12926 0.0317892
1.66162 1.98621 -0.659851
1.54113 2.25076 -0.461747
1.57762 1.68431 -0.717955
1.45463 1.91932 -0.621841
2.20007 3.14667 0.439045
1.70009 1.77041 -0.721194
0.674339 0.865581 -0.576392
1.96427 1.61006 -0.749836
0.766011 0.990319 -0.60488
0.829607 1.79661 0.572497
1.93019 1.04142 -0.694941
1.54891 2.59223 0.253124
0.480093 1.26906 -0.277669
0.514608 1.43648 -0.0651064
0.649863 1.64384 0.176866
1.20703 1.56815 -0.657644
1.3748 2.41322 0.516531
0.907869 1.89342 0.56702
0.892122 1.46804 -0.553266
1.33042 2.36786 0.520724
1.75917 1.01776 -0.703009
1.26815 2.32384 0.371402
1.55486 2.1624 -0.535663
0.305244 1.00949 -0.223136
1.53833 0.911548 -0.692523
1.82597 2.21479 -0.6137
2.36625 1.513 -0.723325
1.61694 0.560818 -0.598832
2.2344 3.04437 -0.0701775
1.50144 2.16011 -0.50812
2.33142 1.78276 -0.739188
0.980475 1.99277 -0.076226
1.50323 1.14712 -0.725913
1.61768 2.52399 -0.202369
1.28126 1.01671 -0.703021
0.620502 0.936068 -0.549171
2.07799 2.87117 -0.189676
1.32459 1.63073 -0.676347
1.57107 2.61256 0.411573
1.73567 2.58813 -0.248056
1.12713 0.855621 -0.671435
1.57224 2.60907 0.202819
0.973325 1.21854 -0.65179
1.97885 1.34491 -0.736746
1.96645 2.94995 0.291084
0.991974 2.04271 0.156319
2.12737 2.73402 -0.393251
0.774421 0.718529 -0.598712
0.891475 1.91471 -0.0040665
1.23653 1.35069 -0.701659
1.94718 2.29849 -0.610015
1.83744 2.84835 0.362577
1.0049 2.04735 0.364071
