ply
format ascii 1.0
comment Created by Open3D
element vertex 250
property double x
property double y
property double z
end_header
-1.15394 0.719308 0.255191
-2.98639 -0.255076 0.462861
-2.25321 -1.00923 0.345061
-0.737841 -0.501176 -0.0776476
-1.16909 -0.837685 0.144552
-0.789156 -0.747652 0.173219
-0.526717 -0.456957 -0.0368059
-3.28136 -1.36876 1.08665
-0.658572 1.09485 0.509786
1.0066 0.521437 1.42252
-0.36816 -0.328677 -0.056154
-0.219311 1.09039 0.50607
-4.13544 -1.46471 1.6085
-0.574776 0.622111 0.106717
-1.13785 -0.737835 0.0339921
-2.16558 -0.12615 0.119189
0.494404 0.346641 0.348353
-1.56256 -0.29216 -0.101584
-1.03059 0.774342 0.274019
-0.888806 -0.169517 -0.18888
-2.56046 0.0631152 0.355338
-0.313463 -0.0763223 -0.121509
0.97181 0.540671 1.21635
0.39395 -0.115895 0.541662
-1.36435 -0.169252 -0.13373
-0.879806 0.694454 0.186817
0.871327 1.2773 1.24568
0.116757 -0.203327 0.214486
-5.31219 -1.59834 2.5208
0.194009 -0.138491 0.239958
0.14913 1.84879 1.47512
1.0738 0.613567 1.6508
0.495671 0.755557 0.476142
0.402724 -0.135853 0.604593
-0.856718 0.837915 0.298158
0.389116 0.53623 0.294153
-1.1605 -0.23986 -0.171331
-5.26864 -0.698007 1.88289
-5.58528 -0.861347 2.14851
-2.08651 -0.686094 0.0965916
-6.04039 -1.23447 2.6727
0.534712 1.33655 1.00434
-1.75034 -0.388665 -0.0545847
-2.38639 -0.77003 0.225188
0.471405 0.294529 0.328234
-4.50015 -1.26058 1.58768
-1.27149 -0.63905 -0.0559855
-4.76105 -1.07692 1.63326
-5.63649 -0.624643 2.15427
-0.344054 0.984272 0.39811
0.208644 0.611634 0.229995
-3.93942 -0.0366942 1.07377
-6.20671 -0.232823 2.63587
-4.5266 -1.10229 1.49118
-1.82134 -1.00407 0.28487
-3.59319 -1.36065 1.19967
0.276566 -0.220799 0.493685
0.157059 -0.202151 0.263598
-0.510062 0.942538 0.359515
-0.470935 -0.197967 -0.144414
-5.74606 -1.57602 2.79435
-4.7099 -0.90569 1.52661
-4.40048 -1.13881 1.43275
-3.90908 -1.41064 1.41619
-0.989719 -0.157749 -0.183856
-5.47888 -1.01359 2.11824
-0.787076 0.283512 -0.0779344
-1.63001 0.172727 0.0403635
0.291145 1.04515 0.584823
-6.08356 -0.355792 2.51666
-4.16111 -1.10625 1.26355
-0.0271619 0.182836 -0.0181525
-2.75267 -1.00686 0.492681
0.0487057 0.865942 0.350467
-0.482143 -0.559788 0.0946325
-0.0254556 -0.111528 0.0206815
-4.14356 -0.567993 1.09991
-5.74534 -0.937654 2.29329
0.867168 1.10978 1.08893
-2.0616 0.258959 0.234397
0.808233 0.358983 0.877848
-0.715743 -0.228625 -0.179785
-0.306139 1.11271 0.521642
-0.475782 -0.0377594 -0.158787
-0.508098 0.156807 -0.128897
0.0882136 -0.0122474 0.0601489
-1.4822 -0.881657 0.146087
-1.89129 0.206804 0.143641
0.974925 1.00091 1.18231
-0.969219 -0.782155 0.135568
-3.23023 -1.13467 0.790338
-4.34968 -1.23664 1.47383
-0.855154 -0.526696 -0.0875942
0.0111343 0.589147 0.147176
-3.00714 -0.782099 0.486932
-0.472236 -0.658046 0.263384
-0.440623 -0.270983 -0.113526
-0.203632 0.188425 -0.0738316
0.994519 0.893638 1.17604
-1.91467 0.214461 0.155906
0.216977 0.836962 0.381434
-3.27572 -0.679344 0.598134
-2.33125 -0.642971 0.164243
-0.424631 0.514299 0.0370852
-1.36868 0.545013 0.179285
-1.16884 -0.537755 -0.109943
-1.88635 0.146054 0.113146
-2.00703 -1.13609 0.476743
1.06549 0.866114 1.35529
-3.33768 -1.36325 1.09878
-1.66331 -0.559201 -0.0489373
-2.42088 -0.43795 0.17698
-2.14534 0.393164 0.344561
-3.34398 -1.09256 0.808572
-3.36252 -0.54932 0.63383
-0.261575 1.09532 0.507395
-4.22672 -1.42749 1.60508
0.771228 1.41347 1.28004
-2.27248 -1.16647 0.538158
-4.44409 -0.0744332 1.38642
-3.46712 -0.139449 0.755594
0.73566 0.838892 0.743393
-2.67 -0.976386 0.440363
-5.356 -0.601619 1.94191
0.711192 0.747213 0.669828
-5.39006 -0.497782 1.96931
0.691437 1.43297 1.22923
-0.087052 1.54372 1.02002
0.972208 0.865669 1.12006
-3.05788 -0.330663 0.48598
0.211778 1.00442 0.51747
-1.52982 -0.0307441 -0.0650642
0.17875 1.38084 0.889812
-4.76563 -1.43085 1.93016
-4.98448 -0.84733 1.70208
-0.128444 1.42357 0.871043
-0.924868 -0.27241 -0.183875
-1.07942 -0.111141 -0.170746
-3.53582 -0.324966 0.750502
-5.90731 -0.804169 2.38502
0.362593 0.495934 0.261601
-2.62402 -1.07144 0.502863
-2.14356 0.336171 0.309975
-4.83714 -1.51759 2.08934
-1.8881 -0.719979 0.0596948
-2.98062 -0.979667 0.56582
-0.552731 -0.224507 -0.156837
-2.26157 -0.468869 0.114488
0.749746 0.293787 0.790151
-5.55991 -1.43457 2.48052
-6.12732 -0.588856 2.53681
-3.08528 -1.2357 0.834513
0.60766 0.258477 0.523365
0.208632 0.0246039 0.143221
-3.58086 -0.727678 0.77357
0.336073 -0.178396 0.535978
-0.323503 -0.0574115 -0.126026
-1.04524 -0.851947 0.211079
0.327867 0.852574 0.44146
-2.17266 -0.343212 0.0835412
0.869291 0.544183 0.903642
0.183271 0.516881 0.170925
-0.0437744 1.10044 0.539578
-2.53499 -0.79846 0.290962
0.666194 0.615996 0.570839
0.652925 0.798729 0.633666
-2.39067 -0.280692 0.177909
-3.41697 -1.2559 0.992815
0.216141 0.546771 0.199983
-3.39111 -0.60478 0.652013
-5.93491 -1.21005 2.57309
-3.70949 -0.894026 0.892547
-4.04104 -0.540843 1.03507
-0.961042 0.800963 0.283431
-1.08802 -0.373196 -0.164914
-0.91589 0.417303 0.00597447
-1.69931 -0.183009 -0.0536756
-1.04596 -0.585703 -0.077627
-2.13536 0.0485283 0.165611
0.0839249 1.54617 1.05877
-1.31425 -0.56906 -0.0916314
-1.93317 -0.426988 -0.000204041
-2.54758 -0.888713 0.340445
-0.319126 0.115726 -0.114203
-5.31592 -0.888355 1.95343
-4.32476 -1.1107 1.36717
-0.396686 0.567001 0.0708555
0.200836 1.43169 0.955624
0.603952 1.0603 0.779744
-3.69922 -1.39061 1.28863
0.524999 1.57392 1.27965
-0.17731 1.51775 0.975922
-0.400379 0.662089 0.134613
-5.31044 -1.43822 2.30495
-4.6536 -1.3406 1.75948
0.659512 1.12023 0.87776
-2.60952 -0.250141 0.27993
0.511543 0.452546 0.371545
0.672375 0.2823 0.625706
0.20422 -0.184913 0.307132
-0.825396 2.36257 2.11486
-1.03014 1.35958 0.832632
-3.15011 2.80209 3.36572
-2.51597 3.62418 4.43523
-4.03062 4.73999 6.86061
-3.55509 4.53036 6.32791
-0.709566 2.07155 1.68606
-2.4618 3.28963 3.86367
-2.81798 2.78391 3.20737
-1.66848 1.84439 1.55032
-0.652273 1.63768 1.11036
-2.02914 2.26352 2.20331
-0.580155 1.81018 1.32681
-0.852692 1.95271 1.53198
-3.16655 2.84549 3.43453
-2.65906 2.79656 3.16719
-0.397252 2.09855 1.72941
-3.49942 3.54295 4.62251
-1.63276 3.24553 3.61475
-2.58316 3.32429 3.95483
-4.02487 4.19525 5.8986
-0.838961 1.95368 1.53204
-1.78153 3.37949 3.86599
-1.15338 2.90409 2.99135
-4.37246 4.34923 6.29867
-4.1176 4.73784 6.88594
-1.19952 2.2863 2.03932
-3.55164 3.02286 3.85545
-3.47443 4.35013 5.97698
-0.994907 1.23078 0.689516
-3.53277 3.58234 4.69818
-0.932574 1.30187 0.754165
-1.08223 1.38463 0.869582
-3.57555 4.51956 6.31424
-3.13801 3.98305 5.22661
-3.8361 3.39773 4.53763
-1.89677 3.47662 4.05237
-1.33528 3.07841 3.29753
-1.05576 2.96908 3.09605
-1.02606 1.56009 1.05936
-1.58948 2.61055 2.58616
-4.48226 4.1019 5.9337
-2.55852 4.03949 5.17881
-4.43057 4.78911 7.09026
-2.1191 2.34267 2.33974
-3.02686 4.16532 5.51718
-1.3649 1.52099 1.08385
-4.04743 4.2504 6.00117
-3.82878 4.4795 6.32233
-1.84449 2.85626 3.01736
