ply
format ascii 1.0
comment Created by Open3D
element vertex 400
property double x
property double y
property double z
end_header
-1.80633 0.734677 -1.3813
-2.5413 1.17344 -2.66044
-1.63823 1.07178 -1.07846
-1.25695 2.4916 -2.51862
-1.79976 0.735568 -1.36975
-0.040793 1.42876 -1.23318
-0.970992 1.00768 -0.49006
-1.49953 1.64381 -1.24548
-1.58961 1.60606 -1.27668
-1.49535 2.15627 -1.88519
-2.43435 1.64165 -2.39091
-1.85906 2.04946 -1.92768
-2.34873 1.76432 -2.28542
-0.800459 0.744852 -0.30004
-1.60102 0.573987 -1.11873
-0.856059 0.997735 -0.4396
-0.544557 1.47549 -0.9434
-1.09333 1.08481 -0.59308
-2.31958 1.79775 -2.2552
-2.66272 1.46397 -2.84721
-2.18096 1.13116 -1.92229
-0.676291 1.45132 -0.86618
-1.90812 1.90012 -1.81287
-1.52482 0.193832 -1.25498
-1.60446 0.4735 -1.17928
-1.9665 1.28765 -1.55411
-2.27936 1.84553 -2.22095
-1.59272 0.583582 -1.10122
-0.986442 1.89687 -1.45362
-1.20675 1.288 -0.78127
-1.45948 2.52473 -2.55162
-1.88838 2.05221 -1.95445
-0.843692 0.974195 -0.4216
-0.99678 2.33761 -2.28868
-1.12989 1.14204 -0.64528
-1.85567 1.91815 -1.78218
-2.31678 0.920243 -2.28495
-1.55795 2.20054 -1.97225
-1.79496 1.78371 -1.60092
-1.31541 1.33354 -0.87728
-1.23669 2.33318 -2.19413
-1.37104 0.682577 -0.76417
-0.577501 1.93496 -1.71041
-1.70844 0.93085 -1.17306
-0.674615 1.89583 -1.57158
-0.258957 1.19507 -0.70242
-1.88921 1.31861 -1.44906
-1.95606 0.781247 -1.6267
-1.44445 2.55625 -2.61873
-2.232 1.32531 -1.99286
-0.704179 0.975058 -0.38917
-2.18364 0.884124 -2.02078
-1.06612 0.447485 -0.47773
-1.40962 0.678115 -0.81238
-2.47593 1.67286 -2.47403
-1.59222 1.98201 -1.67285
-1.48361 2.2615 -2.05578
-1.63458 1.69846 -1.39068
-1.80022 0.962655 -1.30495
-1.39258 0.558317 -0.82374
-1.45042 2.54534 -2.59517
-1.99828 1.76316 -1.7962
-2.18024 1.96109 -2.16783
-0.542209 0.954297 -0.36485
-0.939512 0.873652 -0.41311
-0.179591 1.5928 -1.39126
-0.749526 0.775477 -0.29104
-1.19898 1.19611 -0.71706
-2.4165 1.68858 -2.3714
-2.00454 1.77212 -1.80991
-1.54808 2.59782 -2.69953
-0.95243 1.17723 -0.5922
-2.00654 1.95147 -1.95976
-1.26418 2.1218 -1.80087
-1.43842 0.754165 -0.83503
-1.0614 1.24051 -0.67839
-1.69506 1.79719 -1.52969
-2.09886 1.09112 -1.77978
-1.23597 2.39016 -2.30966
-0.336265 1.09686 -0.54599
-1.46027 0.205704 -1.1339
-0.97976 0.47128 -0.39247
-1.31093 1.23146 -0.81113
-1.174 0.273926 -0.66712
-0.631446 1.86355 -1.53718
-1.00134 0.863908 -0.44433
-1.19979 2.26319 -2.06445
-0.985078 2.12831 -1.86515
-1.67188 2.00545 -1.74597
-1.22006 1.40277 -0.8766
-1.5173 0.705374 -0.94715
-1.22736 1.94123 -1.5098
-1.64982 0.248704 -1.43211
-0.801993 1.30725 -0.68375
-1.77654 1.90276 -1.70013
-1.60184 1.65604 -1.32819
-1.0789 0.921777 -0.51268
-1.10954 1.42846 -0.85604
-1.47169 0.18616 -1.16986
-2.19388 1.94708 -2.17389
-0.901455 2.27764 -2.21027
-0.479807 1.76001 -1.44656
-2.16023 0.932087 -1.94947
-0.581447 1.71946 -1.30932
-2.09234 1.79247 -1.93143
-1.1224 2.02839 -1.65134
-1.03402 1.8399 -1.35715
-1.44028 0.475395 -0.92424
-1.84889 2.06163 -1.93414
-1.44192 2.7873 -3.14082
-1.94261 1.0084 -1.52494
-2.469 1.56679 -2.44294
-1.13831 1.57976 -1.02093
-1.7346 0.497068 -1.38829
-1.09438 0.759051 -0.48562
-1.15956 0.872485 -0.55735
-1.76698 1.4882 -1.36338
-1.75976 1.10022 -1.23994
-1.4587 1.76997 -1.35149
-1.58804 1.87172 -1.53648
-1.03349 0.696055 -0.43085
-2.27959 1.9245 -2.27234
-1.3514 0.486553 -0.79625
-2.01327 0.715274 -1.77301
-1.8493 1.70423 -1.58896
-2.2666 1.73228 -2.14164
-1.13863 1.71995 -1.1904
-1.96237 0.841393 -1.61093
-1.02214 1.77181 -1.25677
-1.6185 1.3688 -1.14667
-2.3278 1.64647 -2.20644
-0.44849 1.34861 -0.8088
-2.12134 1.35315 -1.80407
-1.34457 1.90307 -1.47436
-1.361 1.54274 -1.07048
-2.07666 0.820654 -1.83808
-0.606118 1.92401 -1.66861
-1.56365 1.71354 -1.35372
-0.546233 1.80172 -1.47722
-0.802312 0.910018 -0.37231
-1.4666 2.28531 -2.09475
-1.36781 0.329752 -0.89901
-2.47266 1.6499 -2.4629
-2.61354 1.49812 -2.73528
-1.54866 0.397931 -1.13575
-0.783135 2.02445 -1.75575
-1.77218 1.7781 -1.57558
-1.49978 2.59109 -2.68738
-1.59226 2.04654 -1.75829
-1.62756 0.696429 -1.10863
-0.932207 1.97156 -1.59409
-2.05985 1.40602 -1.71528
-1.50969 1.13243 -0.94375
-2.25395 1.4871 -2.04346
-0.933353 0.528364 -0.34909
-1.32647 1.60008 -1.10802
-1.85252 2.06284 -1.93838
-1.33309 1.87147 -1.42858
-0.178523 1.56935 -1.34907
-1.16136 2.01866 -1.63154
-0.872428 1.72661 -1.20919
-1.35113 1.75754 -1.29056
-2.62459 1.44863 -2.76533
-1.90938 2.20257 -2.1565
-1.71353 0.629424 -1.27382
-1.10197 2.42962 -2.44035
-2.11544 1.795 -1.96279
-0.710119 1.43454 -0.83734
-0.543376 1.93822 -1.74258
-2.0005 1.31476 -1.60898
-2.36922 1.43298 -2.24536
-1.91535 2.2313 -2.19924
-0.519547 1.48926 -0.97459
-1.48924 2.21959 -1.98615
-0.740631 1.96483 -1.66428
-1.62549 2.06532 -1.79949
-0.541616 1.78112 -1.44256
-2.04449 1.41331 -1.69374
-1.58424 1.90929 -1.57842
-0.786564 0.923573 -0.37496
-1.64102 0.826219 -1.09285
-2.30829 1.2264 -2.14699
-1.85763 1.13317 -1.38053
-1.604 2.20702 -1.99731
-1.94662 0.567658 -1.74096
-1.67562 0.975723 -1.12362
-1.50976 0.817387 -0.91664
-0.949015 1.5275 -0.93397
-1.43952 2.10416 -1.79058
-1.17569 0.513367 -0.57595
-2.20954 2.02203 -2.25585
-1.53368 1.25347 -1.01028
-1.25779 0.721779 -0.6335
-0.758676 0.687159 -0.26386
-0.847036 2.25489 -2.19376
-1.08619 1.3032 -0.73719
-1.31287 0.75734 -0.69003
-1.65966 0.910018 -1.10639
-1.32937 1.76929 -1.29698
-1.97954 0.759015 -1.6823
-1.4097 1.01331 -0.81243
-1.28025 0.629438 -0.66764
-1.0008 2.35293 -2.32005
-0.952034 2.14904 -1.91848
-1.74699 0.50421 -1.40575
-0.746394 2.09674 -1.92215
-1.42509 1.59714 -1.15654
-0.675697 1.40997 -0.81333
-1.97599 0.692505 -1.71377
-2.04917 0.786826 -1.8021
-1.35404 2.06 -1.70615
-1.68113 2.47962 -2.48277
-0.702009 1.45904 -0.87031
-1.14118 1.34543 -0.79376
-1.25502 1.69843 -1.18866
-1.92595 1.25792 -1.49027
-0.810613 1.85027 -1.42549
-1.93096 1.94203 -1.87508
-1.63298 0.717105 -1.10977
-2.05115 1.0532 -1.70259
-1.12191 0.442507 -0.53672
-0.760819 1.65695 -1.13222
-0.919451 1.66087 -1.1071
-1.4109 2.80745 -3.19947
-0.864968 1.2518 -0.6349
-2.11869 0.977787 -1.84934
-0.614582 1.55219 -1.02642
-0.687004 1.44034 -0.84946
-0.897743 1.77605 -1.27936
-1.41578 0.194652 -1.06978
-0.28227 1.40438 -0.98516
-2.42236 1.10116 -2.42468
-2.21447 1.19561 -1.97261
-0.575861 1.57731 -1.08096
-0.929414 1.33101 -0.71933
-1.06837 1.04353 -0.55783
-1.63776 0.976019 -1.07293
-0.578576 1.16716 -0.55416
-1.99998 1.24186 -1.60107
-1.8992 0.66613 -1.58283
-0.945812 1.89076 -1.45223
-1.72147 1.47258 -1.30621
-1.26763 2.5233 -2.58473
-1.05908 1.73096 -1.19875
-0.927583 1.66628 -1.11386
-0.84239 1.16493 -0.55568
-1.1468 1.41061 -0.85234
-1.78919 2.38994 -2.3636
-1.72736 0.433464 -1.42071
-1.79609 1.69074 -1.52529
-1.48334 1.24727 -0.95989
-2.5091 1.6396 -2.52947
-1.01596 2.303 -2.20516
-0.962627 1.87177 -1.4175
-1.72981 1.77136 -1.53313
-1.45926 2.11594 -1.81338
-1.06377 0.568259 -0.45571
-2.1706 1.51795 -1.91365
-1.7118 1.00251 -1.17249
-1.56334 2.00894 -1.69443
-0.75548 1.11425 -0.50135
-0.74505 1.37354 -0.75856
-2.11778 1.40166 -1.80473
-0.203279 1.56843 -1.3242
-2.16363 1.02479 -1.91921
-2.05354 2.00123 -2.05651
-2.46253 1.44038 -2.42648
-0.320956 1.2505 -0.74072
-2.10951 1.25099 -1.78015
-1.65904 0.301157 -1.40222
-2.12485 1.99333 -2.12857
-1.4532 1.5214 -1.10835
-1.99847 0.584417 -1.8337
-1.44311 0.18558 -1.12228
-2.49707 1.26317 -2.52867
-1.74281 1.53111 -1.36222
-0.682047 0.939321 -0.3617
-1.51596 0.918143 -0.91929
-1.78393 1.77546 -1.58369
-0.571257 1.20053 -0.59039
-2.26396 1.56025 -2.07567
-0.896534 1.25806 -0.64564
-1.82994 0.674537 -1.45151
-0.539883 1.4304 -0.88176
-1.02002 0.552547 -0.41838
-1.55745 0.918093 -0.97043
-1.03947 2.06787 -1.73575
-1.89428 1.11457 -1.43563
-1.07642 0.60727 -0.4644
-1.13455 1.65365 -1.10648
-1.11608 1.43111 -0.86064
-0.752107 1.04093 -0.44358
-1.54773 1.57524 -1.21949
-1.68436 1.99509 -1.74057
-0.643807 0.806116 -0.27596
-0.870095 2.0576 -1.77651
-1.50298 2.03454 -1.70554
-1.60097 1.99197 -1.69009
-2.13009 1.56915 -1.86787
-1.84554 1.53446 -1.47643
-1.19068 0.980092 -0.61121
-1.5013 1.48608 -1.11568
-2.63903 1.46573 -2.79444
-2.35126 1.53102 -2.22042
-2.07731 0.788919 -1.85688
-1.00595 2.36836 -2.35133
-1.67101 0.57096 -1.23336
-1.04998 1.47568 -0.88797
-0.632196 1.76395 -1.35812
-1.35178 1.68214 -1.20515
-1.82198 0.838296 -1.36846
-0.705742 1.84416 -1.46074
-1.82335 0.892807 -1.35514
-0.527127 1.9001 -1.67895
-2.29303 1.23212 -2.11611
-1.54501 1.30325 -1.0433
-0.949956 2.21395 -2.05013
-2.47533 1.49716 -2.45098
-0.969054 2.14291 -1.8995
-0.330983 1.36289 -0.89107
-1.8339 1.32776 -1.3776
-0.774989 1.96724 -1.65072
-2.40843 1.54934 -2.32702
-1.96967 0.571972 -1.78427
-2.15016 1.2596 -1.84985
-2.53904 1.69251 -2.59656
-1.74006 0.953244 -1.21627
-0.681715 1.95193 -1.67374
-0.525119 1.08532 -0.4811
-1.41847 1.90598 -1.50032
-0.97614 0.754815 -0.39902
-1.29232 0.504485 -0.71389
-1.63405 0.727528 -1.10802
-1.65464 1.81584 -1.51852
-1.88243 2.09377 -1.99861
-2.02602 1.16306 -1.64363
-0.503715 1.84559 -1.59023
-2.05101 1.98594 -2.03924
-1.24057 1.52105 -0.99266
-0.549733 1.18702 -0.58011
-0.743919 1.75824 -1.29701
-1.6129 1.38525 -1.14952
-1.02794 2.17674 -1.94363
-1.46865 1.10321 -0.89358
-1.87664 1.75976 -1.65975
-1.45665 1.04028 -0.86602
-0.746917 2.10149 -1.93162
-1.28202 1.48103 -0.97411
-1.72023 1.30244 -1.22934
-1.06186 1.61556 -1.04936
-0.534318 0.961269 -0.37074
-1.11098 2.0245 -1.64616
-1.60899 1.69618 -1.36933
-1.76016 1.0959 -1.24025
-1.11152 2.36574 -2.29795
-0.16185 1.31347 -0.93519
-1.1146 2.42135 -2.41665
-0.93657 2.20668 -2.04159
-1.95383 0.652638 -1.69575
-1.35251 2.70914 -2.98233
-1.18717 0.457661 -0.60427
-1.83921 1.27881 -1.37227
-0.131727 1.51732 -1.29985
-1.08822 1.3657 -0.79121
-0.512518 1.4532 -0.92545
-2.00234 1.51272 -1.66431
-0.394707 1.65173 -1.31354
-0.344389 1.39627 -0.93196
-0.726644 0.95808 -0.38157
-0.463636 1.50068 -1.02005
-0.514837 1.24179 -0.64994
-1.70145 0.84874 -1.17649
-0.0122329 1.40349 -1.21833
-1.21437 2.03378 -1.65453
-1.98207 0.98058 -1.59865
-1.56445 0.280495 -1.24974
-2.58489 1.48912 -2.67505
-0.595136 1.21742 -0.60428
-0.281888 1.29176 -0.81948
-1.62057 1.07481 -1.05706
-1.42418 0.236046 -1.05038
-2.33315 1.64437 -2.21478
-0.122393 1.34483 -1.01626
-2.21968 1.12553 -1.99738
-1.16504 2.00605 -1.61062
-1.6854 0.493363 -1.30386
-1.48529 1.8265 -1.42921
-0.817479 1.12254 -0.51699
-0.794046 2.06617 -1.83175
-1.8812 0.963065 -1.43272
-1.74085 0.554343 -1.3624
-0.572608 1.12347 -0.51131
-0.618153 1.75251 -1.34588
-0.842659 0.769587 -0.32758
-1.73561 0.571547 -1.3429
-1.86754 1.23114 -1.40273
-0.258511 1.18744 -0.6928
-0.823758 0.602731 -0.27878
-1.09396 0.874394 -0.50841
-1.91474 2.21567 -2.17782
