ply
format ascii 1.0
comment Created by Open3D
element vertex 400
property double x
property double y
property double z
end_header
1.86152 -1.05044 1.23291
3.12143 -0.639078 1.07338
3.04782 -0.951473 1.35632
2.41958 -1.061 2.10202
3.31483 -0.737388 1.28474
1.14634 -0.678636 0.261432
3.21076 -0.760426 1.23224
2.19324 -0.567875 0.498185
2.62172 -0.260179 0.603063
1.64974 -0.95015 0.744265
1.48223 -0.567079 0.222675
1.99525 -1.06255 1.19972
4.08787 -0.139564 1.51686
2.61824 -1.07178 1.36606
3.34891 -0.73302 1.30533
3.33645 -0.868319 1.44424
2.34015 -1.05585 2.04583
1.58511 -0.950034 1.56041
2.99136 -0.766196 1.08868
3.61392 -0.0441165 1.15908
1.82392 -1.04492 1.23643
1.82828 -0.254138 0.218892
2.62714 -1.01772 1.21458
2.08299 -0.389761 0.368876
2.12641 -0.703033 0.553707
2.19093 -1.04692 1.10724
3.3025 -0.368115 1.04986
2.9093 -0.743447 1.01545
2.27357 0.100999 0.368975
2.54581 -0.475348 0.635208
2.09549 -1.01723 0.985551
2.8809 -1.06288 2.49035
2.16707 -0.40093 0.412059
2.23192 -1.09542 1.58265
1.53895 -0.879763 1.76974
1.40045 -0.834038 0.487472
2.88289 -0.0676572 0.709306
2.77457 -0.519923 0.786168
1.81634 -0.487118 0.293506
1.06894 -0.709104 0.306333
1.90342 -0.403952 0.294998
2.9943 -0.920482 1.27005
3.15959 -0.810431 1.24659
1.89697 -1.05621 1.33605
1.0066 -0.792884 1.20159
1.6025 -0.730517 0.383888
2.37112 -0.944635 0.938345
3.07414 -0.97389 1.41513
1.71193 -0.988862 0.868292
1.51155 -0.344081 0.127612
2.96044 -0.178976 0.776813
2.28365 -0.973874 0.950125
2.09728 -0.944117 0.819791
2.01617 -1.07315 1.38163
2.84476 -1.1236 1.85098
2.92596 -1.10983 1.74557
2.66859 -1.12035 1.88823
0.971933 -0.614743 0.194829
1.75658 -1.03341 1.23661
1.52439 -0.903232 0.627699
1.21538 -0.899496 1.047
2.72085 -1.07999 2.27983
1.8581 -0.961928 0.789251
2.04389 -1.07244 1.27146
1.39933 -0.87785 0.57929
2.59967 -1.12009 1.75469
1.81135 -0.447555 0.274343
1.31513 -0.913277 1.24075
2.04004 -0.391571 0.350011
1.37759 -0.93185 1.26335
2.23565 -0.977335 0.936697
1.09406 -0.590087 0.169684
3.00158 -0.416635 0.876968
3.04274 -0.0483324 0.799589
1.18032 -0.825858 0.507476
2.72249 -1.11743 1.6876
1.29436 -0.237957 0.0307874
1.59307 -0.141631 0.105373
2.30262 -0.563469 0.549542
2.76146 -0.204587 0.667275
1.23846 -0.755937 0.362265
2.4697 -0.640662 0.681538
1.84499 -1.04093 1.43686
1.64843 -0.683357 0.354706
0.878466 -0.550356 0.135475
1.92167 -0.608582 0.400442
3.50573 -0.664771 1.36185
3.24262 -0.325465 0.994602
1.59651 0.154339 0.079203
2.7896 -1.00931 1.29316
1.79518 -0.815559 0.530754
3.82893 -0.134162 1.32897
3.11059 -0.0336546 0.837766
1.33907 -0.939722 0.967555
3.26755 -0.679222 1.20227
2.85563 0.0912854 0.673477
1.56912 -0.98806 1.28324
3.0782 -1.02133 2.80357
1.33578 -0.897613 0.657319
1.38428 -0.901992 0.650871
1.06115 -0.709343 0.307825
2.05668 -0.786205 0.595292
1.35363 -0.93987 1.11136
1.3531 -0.409602 0.105316
1.06658 -0.847617 1.0099
1.50149 -0.868818 1.75509
2.05144 -0.778939 0.585994
2.63311 -0.0571201 0.568337
1.21736 -0.758485 1.69623
2.91039 -0.17056 0.745354
2.5502 -0.450491 0.627098
0.95856 -0.80307 1.00458
1.3896 -0.743823 0.355236
2.5899 -0.929225 1.02975
1.70463 -0.944174 1.76145
0.822831 -0.704181 1.18389
2.96983 -0.22823 0.794675
1.20534 -0.778495 0.400831
1.88972 -0.677998 0.434701
2.43173 -0.954884 0.985629
3.19438 -0.4111 0.996879
3.00909 -1.05361 2.6233
1.62684 -1.00684 1.06865
1.52179 -0.98274 1.18795
1.81778 -0.99256 0.87117
1.83514 -0.657726 0.398943
2.62384 -0.258615 0.603813
1.0963 -0.561055 0.145487
2.6978 -1.07983 2.26145
1.44438 -0.909193 0.654774
1.95925 -0.517905 0.366649
3.04517 -0.465746 0.925659
1.37683 -0.93903 1.20327
0.94822 -0.65448 1.58214
2.17084 -0.390446 0.410157
1.44481 -0.946218 1.3203
1.60171 0.0628488 0.0849377
1.24823 -0.495849 0.123631
2.17085 -1.04775 1.89666
1.009 -0.811361 1.10546
0.841344 -0.717784 0.421125
2.04131 -0.0499179 0.274181
1.69103 -0.951728 1.7121
1.27454 -0.558045 0.168086
0.921534 -0.752994 1.19515
3.45079 -0.172838 1.08249
2.8823 -1.07582 1.54145
3.84689 -0.124133 1.33868
2.64053 -1.03574 2.41705
1.34318 -0.76875 0.382665
1.33074 -0.932195 0.859015
2.08925 -1.08209 1.4179
1.75336 -1.02106 1.42558
2.03545 -0.0224756 0.268453
2.71494 0.0591771 0.598693
2.83111 -1.08648 2.3311
2.84891 -0.949399 1.21827
0.771156 -0.724856 0.55795
1.95282 -0.0484439 0.235056
2.47114 -0.827002 0.835843
2.30691 -1.1019 1.48825
2.14538 0.231668 0.305025
1.75446 -0.612539 0.338478
2.25777 -0.986567 0.964918
1.65753 -0.989258 1.47148
3.63606 -0.575996 1.3928
2.66372 -1.03039 1.26618
1.2773 -0.212676 0.0196859
1.70587 -0.899865 1.9209
3.1138 -1.09884 2.43741
2.75492 -1.02763 1.31395
1.45027 -0.968443 1.08109
2.91972 -1.04407 1.46472
2.13002 0.0179614 0.307422
2.98497 -1.0786 1.62546
3.17484 -1.008 1.56135
0.847762 -0.741122 0.495908
1.27264 -0.717511 0.312181
1.71598 -0.209699 0.164261
1.64337 -0.486596 0.229166
3.53505 -0.54828 1.3008
2.76597 -1.04038 1.35362
2.96712 -0.840422 1.14834
2.81969 -1.07455 1.49505
1.47156 -0.870789 1.70627
1.76769 -0.529477 0.295337
2.70773 -0.904341 1.06304
0.904072 -0.778532 1.00399
1.86554 -0.951829 1.93888
3.3764 -0.364239 1.09742
2.97241 -1.12343 1.95143
3.32864 -0.602362 1.18942
1.35934 -0.257571 0.0544119
1.3459 -0.631908 0.23727
2.15991 -1.08533 1.33943
2.97915 -1.01214 2.76986
2.72009 -0.197805 0.642378
3.16095 -0.82296 1.26119
3.16249 -0.323478 0.94258
0.966878 -0.683368 1.52903
1.96579 -0.792205 0.564575
0.998339 -0.701969 0.308419
1.38062 -0.915996 0.70302
3.54114 -0.19172 1.148
1.06351 -0.82264 1.18133
1.8226 -0.152051 0.195352
2.27456 -1.1002 1.57562
3.00285 -1.09173 2.42023
1.83504 -0.920324 2.01073
2.4801 -0.922545 0.959579
0.925214 -0.580414 0.161701
2.36566 -0.974893 0.989306
3.1393 -1.08826 2.52348
2.96039 -0.866044 1.17399
1.75836 -0.292291 0.200769
1.91382 -0.97249 1.92042
2.35359 -0.966577 0.96805
2.04206 -0.521242 0.404451
1.21811 -0.753676 0.359585
3.32706 -0.886924 1.46258
2.4209 -0.237435 0.490301
1.34705 -0.208236 0.0382898
2.35147 -1.104 1.68848
3.20837 -0.517543 1.05705
1.72081 -0.989729 1.57819
2.08959 -0.943741 2.21837
2.54 -0.303314 0.570473
2.34819 -1.07004 1.97862
1.4497 -0.968421 1.02033
2.06467 -1.03488 1.8325
1.62213 -0.223895 0.132314
2.44891 -1.0296 2.2707
2.73161 -0.265976 0.665946
3.41042 -0.73208 1.34934
0.906109 -0.549569 0.132583
2.06506 -1.031 1.02389
1.72762 -0.307167 0.193033
1.49452 -0.963721 1.30794
1.99446 -1.06056 1.55326
1.09711 -0.754631 1.52174
2.76804 -1.01668 2.59488
1.48456 -0.905373 1.5967
2.10747 -1.0645 1.17892
1.53958 -0.938366 1.54134
2.47799 -0.544452 0.630966
1.75755 -0.911451 1.94674
1.42613 -0.868724 0.555142
2.36208 -1.10447 1.70102
1.85797 -0.836911 0.576745
1.59836 -0.333611 0.153534
2.84737 -1.1241 1.86756
2.25298 -0.985715 2.24528
1.6965 -0.76764 0.447542
1.97901 -0.990213 1.9293
2.64173 -1.00555 2.53242
1.6724 -0.899501 0.62743
1.96868 -0.85409 0.636658
2.48736 -1.10202 1.90977
3.51101 -0.575149 1.30067
1.63071 -1.00272 1.00198
2.43541 -1.07291 1.28589
1.85278 -0.500189 0.314061
3.19763 -0.312983 0.961305
1.4242 -0.894994 0.618966
2.69251 -0.628724 0.798967
1.2347 -0.763313 1.70733
2.72436 -1.08544 1.47971
0.97455 -0.81286 0.978459
1.95275 -0.413739 0.319563
1.63365 -0.991305 1.41051
1.65827 -0.752979 0.421471
1.12683 -0.836919 1.25229
2.57721 -1.0062 2.47511
0.8484 -0.61804 1.52046
2.68463 -0.990998 1.19075
2.51287 -1.09836 1.44509
0.749786 -0.666096 0.358609
1.66755 -1.00358 0.966297
1.49531 -0.654901 0.288959
1.37881 -0.94818 0.924733
1.99191 -0.398375 0.331011
1.83386 0.151669 0.171084
2.94149 -0.672138 0.979817
0.931405 -0.548315 0.130185
2.11301 -1.08339 1.36456
1.77449 -0.895771 0.639338
2.04053 -1.02808 1.83634
1.34706 -0.899519 0.658458
1.53329 -0.959824 0.807594
3.67791 -0.24765 1.2597
2.13638 -0.768546 0.613168
2.39183 -0.625749 0.630881
2.43467 -1.05175 1.20846
2.97669 -0.988411 1.37408
2.92174 -0.614144 0.928304
1.26731 -0.335419 0.0539593
3.01306 0.0179277 0.772055
2.37431 -1.05328 2.09395
1.98638 -1.06924 1.34626
0.918981 -0.786391 0.605658
3.32702 -0.472122 1.11293
2.8663 -0.848553 1.09202
0.93401 -0.77023 0.504393
1.5903 -1.00073 1.15163
0.807572 -0.736112 0.974888
1.91276 -1.04885 1.13078
1.3798 -0.938714 0.82332
3.69365 -0.209485 1.25774
1.34765 -0.813298 0.451481
1.65117 -0.982602 0.858986
0.92963 -0.7785 1.08383
2.9985 -0.880051 1.21709
1.18552 -0.778751 0.40402
1.57059 -0.0762196 0.087264
1.85034 -0.473845 0.301114
2.28481 -1.05291 1.15547
2.39842 0.0314092 0.435542
2.34016 -1.04747 2.08633
1.07689 -0.742012 1.52926
2.19425 -1.07281 1.77297
2.40672 -1.08758 1.34705
2.31315 -1.04891 2.05118
1.85466 -0.506685 0.317894
3.20393 -1.02889 2.85411
2.71903 -0.258176 0.656725
2.44389 -0.999562 1.07702
3.13569 -0.466398 0.983734
1.92786 -0.0432946 0.223722
1.80122 -1.02137 1.51923
2.73258 -0.672363 0.851639
2.6663 -1.12213 1.81557
1.25079 -0.675656 0.2638
3.12541 -1.09665 2.45959
1.43298 -0.846743 1.73254
1.79159 -0.0322744 0.165916
0.99422 -0.81289 0.620281
1.0332 -0.762933 1.38195
0.997871 -0.830001 0.846994
0.86514 -0.70871 0.377715
2.87558 -0.832986 1.08054
2.22129 -1.09499 1.44738
3.04869 -0.101956 0.812925
3.02384 -1.11581 1.87766
1.5476 -0.616571 0.274039
1.96866 -0.687571 0.473542
2.63432 -0.930987 1.05784
2.39662 -0.865565 0.840177
3.40549 -0.633771 1.2654
2.11358 -1.07611 1.26345
4.12905 -0.0457675 1.51854
2.00044 0.130481 0.242184
2.68419 -0.363112 0.668881
0.992279 -0.672589 0.265002
3.03428 -1.06859 1.62484
2.23506 -1.03876 1.09138
1.15957 -0.822251 1.38463
2.02289 -0.340887 0.32575
1.56499 -0.305268 0.13329
1.61516 -0.33637 0.160322
2.24569 -0.540041 0.509181
2.61155 0.0521664 0.543737
1.02852 -0.464186 0.0709582
2.52842 -1.11709 1.71904
1.33087 -0.875049 1.47116
1.13434 -0.303602 0.0121198
2.40627 -1.00512 2.32469
1.20036 -0.874572 1.21179
2.35917 -0.99615 1.02943
2.66925 -1.12078 1.87846
3.68995 -0.45644 1.35987
1.41535 -0.304555 0.0846973
1.16242 -0.861378 0.640441
2.34408 -1.07053 1.97127
1.28055 -0.919272 0.849645
1.66803 -0.355856 0.185707
1.5108 -0.973549 1.26453
2.19892 -0.997517 0.966276
3.06591 -0.391138 0.906787
3.00382 -1.10229 1.755
2.20307 -0.907884 0.803874
2.05698 0.299046 0.266063
1.99553 -0.92748 0.755155
1.16007 -0.877583 0.742611
3.01008 -1.03981 2.68351
3.22077 -0.9809 1.53846
3.1792 -0.83489 1.28758
2.80884 -1.08384 1.52468
2.14587 -1.07204 1.22368
1.53609 -0.180328 0.0925603
3.25385 -0.904519 1.43258
1.90794 -1.00629 1.76906
2.72961 -1.12238 1.91422
2.74893 -1.06176 1.40615
3.5553 -0.47221 1.27133
2.49944 -0.798807 0.822599
2.54215 -0.306032 0.572417
1.9712 -0.979658 1.96158
2.20804 -0.943093 0.861645
1.80532 -1.00221 0.906659
2.09495 -1.07117 1.22737
