ply
format ascii 1.0
comment Created by Open3D
element vertex 400
property double x
property double y
property double z
end_header
-1.33851 -0.552767 -1.9979
-2.67058 -0.46592 -1.98867
-2.4806 -0.580315 -2.35457
-1.74271 -0.20895 -2.88407
-2.80015 -0.472475 -2.26237
-0.889221 -0.616413 -0.819939
-2.70247 -0.503149 -2.20207
-1.88423 -0.556811 -1.23312
-2.3559 -0.304487 -1.28911
-1.23244 -0.68047 -1.48203
-1.24427 -0.589762 -0.819838
-1.46833 -0.59928 -2.00854
-3.6555 0.0406516 -2.38049
-2.03794 -0.615225 -2.31048
-2.83085 -0.463445 -2.28646
-2.76475 -0.507646 -2.46377
-1.67621 -0.22102 -2.8139
-1.0511 -0.262832 -2.16244
-2.51206 -0.547725 -2.02732
-3.27813 0.012636 -1.91298
-1.30338 -0.540781 -1.98898
-1.65427 -0.375219 -0.760073
-2.08215 -0.646119 -2.1587
-1.84218 -0.453291 -1.01377
-1.77836 -0.634628 -1.32558
-1.67307 -0.660834 -1.97137
-2.91507 -0.272915 -1.89001
-2.44994 -0.552901 -1.9339
-2.14726 -0.0622608 -0.837165
-2.22475 -0.460956 -1.39592
-1.60697 -0.682365 -1.83008
-2.1269 -0.0839477 -3.33172
-1.91354 -0.453545 -1.07675
-1.63056 -0.470537 -2.40958
-0.993829 -0.0914289 -2.29745
-1.06048 -0.673251 -1.14744
-2.63844 -0.125285 -1.35708
-2.41045 -0.457024 -1.60234
-1.57367 -0.535025 -0.927273
-0.800956 -0.608635 -0.852844
-1.67759 -0.476045 -0.912301
-2.44975 -0.589161 -2.25339
-2.6389 -0.531164 -2.22438
-1.35589 -0.511316 -2.09744
-0.589238 -0.223389 -1.6397
-1.29491 -0.666271 -1.06222
-1.89583 -0.684366 -1.82551
-2.49157 -0.573902 -2.42159
-1.26413 -0.660607 -1.62113
-1.34201 -0.451247 -0.644093
-2.67495 -0.197905 -1.48497
-1.80309 -0.690624 -1.82706
-1.65123 -0.703097 -1.65562
-1.45907 -0.520438 -2.17388
-2.17077 -0.450172 -2.80471
-2.26736 -0.503007 -2.72874
-1.99751 -0.402966 -2.79097
-0.748026 -0.569638 -0.690284
-1.24178 -0.52101 -1.96704
-1.14127 -0.68035 -1.32975
-0.785041 -0.422256 -1.60868
-2.00027 -0.180376 -3.11984
-1.42233 -0.698544 -1.5779
-1.50191 -0.578979 -2.08645
-1.03501 -0.664574 -1.24556
-1.95117 -0.459428 -2.65964
-1.58159 -0.510107 -0.891586
-0.848694 -0.35175 -1.8053
-1.80339 -0.457979 -0.987753
-0.900525 -0.365454 -1.84868
-1.75824 -0.693262 -1.80518
-0.874758 -0.57905 -0.688082
-2.64024 -0.356707 -1.68938
-2.78305 -0.087059 -1.46527
-0.848907 -0.624029 -1.10574
-2.07922 -0.508693 -2.63186
-1.17484 -0.37727 -0.45864
-1.4739 -0.301503 -0.55295
-1.98251 -0.54339 -1.30228
-2.49414 -0.245394 -1.35344
-0.943299 -0.645468 -0.964371
-2.10379 -0.56775 -1.49201
-1.2952 -0.440252 -2.16349
-1.35494 -0.647335 -1.02723
-0.683357 -0.530669 -0.586823
-1.62846 -0.600659 -1.1004
-2.98973 -0.399897 -2.34271
-2.87652 -0.255372 -1.80837
-1.55502 -0.0624658 -0.396183
-2.22824 -0.623442 -2.26254
-1.43656 -0.693643 -1.27462
-3.43653 -0.0107622 -2.15291
-2.84607 -0.0653791 -1.50811
-0.905009 -0.514427 -1.59018
-2.78152 -0.457137 -2.15357
-2.65734 -0.0035426 -1.24703
-1.06687 -0.431533 -1.93925
-2.28026 0.0792384 -3.6294
-0.957822 -0.633122 -1.30531
-1.00409 -0.647187 -1.31393
-0.793221 -0.606952 -0.852279
-1.68473 -0.674615 -1.38166
-0.897846 -0.444784 -1.71663
-1.17724 -0.495116 -0.615401
-0.661027 -0.374731 -1.5161
-0.962853 -0.0839265 -2.27058
-1.68289 -0.672296 -1.3691
-2.42266 -0.150197 -1.16949
-0.727111 0.0224294 -2.09887
-2.63376 -0.199121 -1.44176
-2.23636 -0.444438 -1.37873
-0.569559 -0.323551 -1.46419
-1.09202 -0.660777 -0.99062
-2.09571 -0.657553 -1.95117
-1.13752 -0.174818 -2.36123
-0.438115 -0.129613 -1.5381
-2.66901 -0.232391 -1.52508
-0.90031 -0.640589 -0.99932
-1.5755 -0.6381 -1.15339
-1.94437 -0.678349 -1.8857
-2.8086 -0.320263 -1.8374
-2.23244 -0.0283338 -3.47301
-1.14885 -0.563317 -1.7791
-1.03686 -0.467709 -1.84364
-1.36409 -0.677825 -1.65174
-1.53357 -0.630683 -1.09995
-2.35821 -0.303087 -1.28956
-0.887711 -0.566697 -0.654719
-1.98094 -0.186054 -3.09832
-1.05924 -0.660183 -1.33558
-1.69204 -0.54566 -1.0395
-2.66255 -0.380664 -1.76429
-0.906801 -0.401509 -1.8005
-0.512229 0.0935714 -1.88666
-1.92004 -0.4461 -1.07128
-0.952927 -0.359083 -1.92067
-1.53628 -0.138452 -0.444198
-1.05262 -0.544218 -0.644239
-1.53804 -0.263899 -2.64055
-0.60099 -0.287573 -1.5667
-0.564138 -0.525317 -0.897892
-1.90112 -0.20446 -0.767173
-1.12983 -0.203944 -2.31917
-1.05574 -0.57893 -0.717191
-0.518732 -0.1801 -1.59471
-3.10104 -0.111638 -1.86566
-2.26397 -0.569645 -2.52805
-3.45481 2.12132e-05 -2.1611
-1.91436 -0.0622254 -3.19666
-1.03734 -0.661541 -1.01382
-0.914816 -0.561054 -1.49201
-1.52146 -0.520629 -2.2272
-1.21412 -0.41551 -2.12188
-1.90321 -0.183042 -0.748274
-2.52561 -0.0477368 -1.1627
-2.09667 -0.176423 -3.19413
-2.31095 -0.618443 -2.18606
-0.475155 -0.452661 -1.00037
-1.82253 -0.209806 -0.710983
-2.03599 -0.649859 -1.70925
-1.71453 -0.53424 -2.35072
-2.06661 0.0360695 -0.690803
-1.4765 -0.61053 -1.00752
-1.77297 -0.690271 -1.83902
-1.12362 -0.351383 -2.12257
-3.13212 -0.32773 -2.36114
-2.10644 -0.636495 -2.21768
-1.16646 -0.358744 -0.433343
-1.12642 -0.0574524 -2.47739
-2.34858 -0.175214 -3.36119
-2.18742 -0.623612 -2.28
-0.987633 -0.498461 -1.72802
-2.31896 -0.58639 -2.4574
-1.99812 -0.142892 -0.786695
-2.34924 -0.545052 -2.6267
-2.55801 -0.544656 -2.58717
-0.553494 -0.508785 -0.973996
-0.992958 -0.642718 -0.912602
-1.56589 -0.348158 -0.665055
-1.41767 -0.541418 -0.828873
-3.05585 -0.335282 -2.24469
-2.189 -0.616279 -2.32245
-2.46158 -0.577699 -2.10611
-2.21117 -0.582599 -2.47221
-0.940864 -0.105635 -2.22233
-1.51624 -0.56314 -0.936035
-2.20982 -0.636919 -1.99768
-0.523629 -0.29492 -1.43885
-1.26362 -0.116199 -2.55641
-2.9798 -0.256651 -1.9473
-2.27828 -0.418494 -2.92228
-2.86109 -0.406905 -2.12274
-1.22867 -0.391716 -0.504016
-1.09544 -0.617835 -0.827846
-1.59978 -0.572983 -2.17936
-2.19269 0.0847255 -3.57167
-2.45989 -0.245995 -1.31874
-2.63493 -0.534757 -2.24291
-2.80793 -0.267951 -1.74303
-0.530643 0.0396263 -1.8592
-1.60074 -0.681785 -1.33547
-0.734858 -0.591162 -0.833712
-0.989443 -0.632528 -1.36393
-3.1732 -0.10823 -1.9528
-0.639231 -0.267251 -1.65024
-1.6778 -0.299021 -0.691898
-1.67121 -0.484375 -2.41642
-2.24668 -0.161489 -3.31554
-1.23179 -0.0489176 -2.59571
-2.00255 -0.670853 -1.86078
-0.716745 -0.550058 -0.634635
-1.87559 -0.683914 -1.88147
-2.36303 -0.12689 -3.4362
-2.44498 -0.58576 -2.13803
-1.58046 -0.406608 -0.744565
-1.30737 -0.150133 -2.56217
-1.86922 -0.685674 -1.85651
-1.76493 -0.541736 -1.094
-0.924778 -0.641897 -0.955962
-2.74843 -0.512985 -2.48558
-2.1859 -0.312046 -1.13226
-1.2316 -0.355866 -0.46463
-1.72734 -0.442451 -2.53372
-2.78657 -0.383082 -1.94091
-1.16845 -0.307698 -2.22968
-1.43915 -0.00236174 -2.84729
-2.27168 -0.345634 -1.26058
-1.69019 -0.267909 -2.76503
-0.99599 -0.528739 -1.676
-1.44902 -0.269436 -2.55336
-1.47721 -0.362505 -0.620814
-1.75393 -0.102106 -3.02103
-2.45042 -0.294086 -1.3729
-2.88351 -0.449642 -2.33898
-0.710435 -0.535492 -0.590905
-1.56879 -0.670486 -1.86148
-1.54845 -0.418671 -0.737077
-0.997943 -0.387487 -1.93055
-1.4163 -0.420693 -2.30919
-0.638542 -0.0439184 -1.91811
-2.01513 0.024282 -3.37161
-0.960711 -0.191845 -2.14786
-1.5783 -0.627776 -2.01973
-1.01322 -0.255739 -2.12945
-2.14319 -0.512129 -1.40693
-1.16921 -0.0619921 -2.51766
-1.06648 -0.672784 -1.22748
-1.73554 -0.43813 -2.54729
-1.48459 -0.69807 -1.33933
-1.42391 -0.442062 -0.683135
-2.17072 -0.442691 -2.81974
-1.5811 -0.0486631 -2.93028
-1.36628 -0.679897 -1.15702
-1.36403 -0.17037 -2.59415
-1.90617 0.0210435 -3.28163
-1.28391 -0.698975 -1.36481
-1.57748 -0.698989 -1.426
-1.82549 -0.350018 -2.75567
-3.02615 -0.354763 -2.25084
-1.16334 -0.593694 -1.72127
-1.8744 -0.629495 -2.19686
-1.60227 -0.541241 -0.959903
-2.84145 -0.254778 -1.763
-1.04872 -0.663012 -1.29348
-2.30284 -0.531476 -1.64248
-0.740881 0.0213193 -2.11489
-2.11944 -0.585598 -2.44026
-0.586242 -0.34731 -1.45037
-1.71876 -0.479341 -0.950074
-1.10918 -0.380119 -2.06549
-1.33717 -0.67482 -1.11851
-0.685872 -0.253229 -1.73317
-1.85264 0.00128693 -3.21688
-0.434833 0.108456 -1.79241
-2.14735 -0.643651 -2.14051
-1.91887 -0.582967 -2.36375
-0.498584 -0.499048 -0.798016
-1.20362 -0.617665 -1.70041
-1.22513 -0.633497 -0.91983
-0.947199 -0.548877 -1.56743
-1.75841 -0.466238 -0.962614
-1.76806 -0.0535633 -0.535166
-2.50379 -0.514569 -1.87894
-0.73531 -0.539324 -0.59461
-1.5517 -0.551897 -2.1882
-1.38081 -0.704787 -1.39879
-1.42706 -0.258179 -2.54748
-0.96797 -0.63583 -1.30997
-1.1093 -0.640009 -1.51139
-3.27376 -0.120152 -2.1079
-1.76281 -0.662276 -1.40877
-2.04041 -0.568945 -1.42248
-1.89033 -0.650043 -2.12091
-2.40068 -0.592548 -2.36883
-2.50694 -0.487932 -1.80352
-1.12119 -0.444912 -0.516207
-2.77524 -0.0399232 -1.40406
-1.7025 -0.199765 -2.86233
-1.43671 -0.530422 -2.13446
-0.594269 -0.502979 -1.10617
-2.9033 -0.333747 -1.99751
-2.3713 -0.598036 -2.03655
-0.627523 -0.542019 -1.01611
-1.10325 -0.511259 -1.838
-0.446136 -0.259133 -1.37049
-1.4029 -0.609972 -1.92281
-0.965369 -0.59165 -1.47679
-3.29865 -0.0908562 -2.09272
-1.0204 -0.665812 -1.09404
-1.2089 -0.651019 -1.59514
-0.536406 -0.258716 -1.51337
-2.47163 -0.581744 -2.19076
-0.880815 -0.636311 -0.997205
-1.47139 -0.251433 -0.501972
-1.60842 -0.524871 -0.936201
-1.75437 -0.655587 -2.03875
-2.23961 -0.10666 -0.957007
-1.67238 -0.19362 -2.84464
-0.621243 -0.0264246 -1.91371
-1.57228 -0.350555 -2.55228
-1.83432 -0.607235 -2.2486
-1.65132 -0.208469 -2.80854
-1.60188 -0.545144 -0.966613
-2.39131 0.0796344 -3.70743
-2.44168 -0.290197 -1.35832
-1.93145 -0.672572 -1.98717
-2.74052 -0.36544 -1.83679
-1.80159 -0.207423 -0.692715
-1.24613 -0.375962 -2.21392
-2.32256 -0.548255 -1.71741
-2.00552 -0.440485 -2.7292
-0.989589 -0.627982 -0.846711
-2.35699 -0.163964 -3.38203
-0.906108 -0.0663266 -2.22411
-1.68238 -0.206963 -0.604269
-0.657514 -0.529305 -1.14958
-0.595771 -0.111539 -1.78661
-0.623529 -0.431088 -1.35182
-0.595539 -0.542761 -0.862641
-2.38575 -0.591848 -2.02195
-1.6403 -0.536249 -2.29127
-2.77338 -0.127032 -1.50265
-2.34021 -0.456402 -2.86868
-1.28694 -0.615897 -0.902646
-1.64298 -0.638411 -1.21065
-2.13366 -0.651514 -1.98706
-1.95438 -0.669694 -1.71195
-2.91566 -0.406982 -2.22116
-1.56887 -0.596317 -2.09871
-3.71811 0.11552 -2.34934
-1.91179 -0.060493 -0.647183
-2.38033 -0.368586 -1.40795
-0.742761 -0.586906 -0.781709
-2.39903 -0.544041 -2.63392
-1.71967 -0.668265 -1.96514
-0.701497 -0.179336 -1.8476
-1.80319 -0.424335 -0.939588
-1.40202 -0.423104 -0.644557
-1.43831 -0.443483 -0.694391
-1.93979 -0.535237 -1.24289
-2.43295 -0.0660579 -1.09315
-0.857962 -0.511351 -0.529878
-1.88895 -0.464258 -2.61003
-0.839575 -0.206221 -1.98843
-1.00801 -0.419201 -0.432709
-1.71134 -0.0479701 -3.04526
-0.752769 -0.316388 -1.73419
-1.85818 -0.681043 -1.92382
-1.99947 -0.408319 -2.783
-3.21842 -0.25004 -2.29185
-1.2661 -0.424879 -0.565347
-0.803423 -0.585244 -1.231
-1.68722 -0.271402 -2.75794
-0.871379 -0.547357 -1.46556
-1.48032 -0.455165 -0.738182
-1.01742 -0.419965 -1.90206
-1.71371 -0.69032 -1.83047
-2.70382 -0.329455 -1.71926
-2.34239 -0.503262 -2.75281
-1.76388 -0.695623 -1.65192
-2.00455 0.0870448 -0.604649
-1.56748 -0.706315 -1.5674
-0.782165 -0.547647 -1.32503
-2.22803 0.0133997 -3.51834
-2.61209 -0.539692 -2.56673
-2.64555 -0.534417 -2.27545
-2.19412 -0.574121 -2.49903
-1.60661 -0.61746 -2.07099
-1.41156 -0.332595 -0.545457
-2.67836 -0.532282 -2.4497
-1.31546 -0.253802 -2.44695
-2.0516 -0.400647 -2.82934
-2.15965 -0.605764 -2.37279
-3.09857 -0.288054 -2.18982
-2.07206 -0.636559 -1.69213
-2.27277 -0.347295 -1.26402
-1.35446 -0.144073 -2.61493
-1.75137 -0.697518 -1.71857
-1.34455 -0.666491 -1.68333
-1.55756 -0.607419 -2.061
