ply
format ascii 1.0
comment Created by Open3D
element vertex 400
property double x
property double y
property double z
end_header
-1.27734 -1.78568 1.12629
-2.00017 -1.5393 2.22121
-2.00724 -1.93664 2.06266
-2.16564 -2.31097 1.16961
-2.19717 -1.75722 2.295
-0.41871 -0.877845 0.947127
-2.09649 -1.73539 2.23579
-1.16495 -1.055 1.70611
-1.6072 -0.90755 1.97435
-0.87607 -1.42474 1.17515
-0.61503 -0.812437 1.23687
-1.31468 -1.799 1.2588
-3.04674 -1.47621 2.75123
-1.73918 -1.98128 1.70874
-2.23095 -1.76877 2.31316
-2.2553 -1.95189 2.25288
-2.08877 -2.26685 1.12916
-1.42092 -1.82325 0.711901
-1.88239 -1.6364 2.12115
-2.60449 -1.14644 2.51159
-1.26379 -1.77721 1.09162
-0.94185 -0.594111 1.4883
-1.66355 -1.8607 1.78415
-1.10745 -0.822167 1.65059
-1.10322 -1.18834 1.64111
-1.35494 -1.76807 1.46977
-2.20956 -1.32278 2.34784
-1.80096 -1.56836 2.08439
-1.44819 -0.431236 1.74134
-1.48439 -1.09616 1.92499
-1.23602 -1.66792 1.44481
-2.66995 -2.57429 1.36948
-1.17444 -0.865605 1.70239
-1.68735 -2.05318 1.27416
-1.58099 -1.86117 0.557547
-0.6279 -1.16072 1.07376
-1.90917 -0.834591 2.11595
-1.68323 -1.24319 2.0513
-0.87215 -0.828531 1.47493
-0.39653 -0.914968 0.86308
-0.95833 -0.771043 1.53633
-1.93497 -1.85921 2.05557
-2.05605 -1.77775 2.19227
-1.36511 -1.84737 1.10582
-0.95651 -1.42498 0.374512
-0.70744 -1.05016 1.28285
-1.37675 -1.62271 1.69304
-2.05077 -1.98903 2.059
-0.97551 -1.5289 1.1719
-0.67397 -0.578859 1.27677
-1.94002 -0.974718 2.16469
-1.32673 -1.64075 1.61678
-1.15626 -1.52289 1.5185
-1.44847 -1.90207 1.18725
-2.16942 -2.30115 1.66722
-2.14237 -2.24858 1.78721
-2.1093 -2.2912 1.49774
-0.31636 -0.764467 0.82221
-1.236 -1.75762 1.03237
-0.75443 -1.30805 1.11958
-0.89828 -1.46925 0.645617
-2.43251 -2.4602 1.34064
-1.00617 -1.4878 1.33223
-1.38478 -1.85043 1.2659
-0.67036 -1.24386 1.03332
-1.98054 -2.21411 1.50565
-0.87589 -0.78445 1.47446
-1.07827 -1.5925 0.635901
-1.07173 -0.80799 1.62362
-1.11619 -1.6288 0.68064
-1.2915 -1.62996 1.58302
-0.37197 -0.748734 0.93541
-1.91258 -1.23368 2.18454
-2.0626 -0.886648 2.20443
-0.53607 -1.13151 0.87467
-1.99584 -2.19629 1.64364
-0.54997 -0.408057 1.12426
-0.80023 -0.406876 1.32783
-1.25816 -1.09293 1.77316
-1.75027 -0.91267 2.05337
-0.49742 -1.00773 0.986661
-1.39644 -1.24929 1.86108
-1.41804 -1.87711 1.00881
-0.73335 -1.00204 1.32974
-0.25985 -0.666144 0.762678
-0.9397 -1.0011 1.52915
-2.38345 -1.76174 2.40876
-2.16187 -1.24997 2.31812
-0.93143 -0.141669 1.3005
-1.80455 -1.91661 1.8823
-0.86511 -1.2244 1.38634
-2.78711 -1.33973 2.62336
-2.13086 -0.903145 2.2411
-0.88384 -1.48198 0.79681
-2.1443 -1.65941 2.28736
-1.94968 -0.677019 2.08733
-1.19792 -1.71478 0.842405
-3.01086 -2.72433 1.37519
-0.68388 -1.29044 0.942955
-0.70138 -1.29806 0.988217
-0.39357 -0.914777 0.855719
-1.05617 -1.26991 1.57297
-0.99273 -1.55614 0.737357
-0.54622 -0.600433 1.16227
-0.82359 -1.38464 0.529559
-1.55737 -1.83902 0.531292
-1.05061 -1.25829 1.57209
-1.68987 -0.718534 1.9717
-1.42885 -1.6738 0.302041
-1.89696 -0.944475 2.13647
-1.49328 -1.07154 1.92916
-0.78809 -1.32813 0.433499
-0.57408 -1.01601 1.11741
-1.55848 -1.6873 1.83183
-1.62576 -1.93626 0.712544
-0.89646 -1.3135 0.213511
-1.93272 -1.02707 2.17099
-0.49685 -1.04142 0.942411
-0.91324 -1.0728 1.49492
-1.43537 -1.66398 1.72264
-2.09654 -1.31714 2.28834
-2.83269 -2.65163 1.41107
-1.06565 -1.63197 1.00172
-1.10953 -1.65566 0.848875
-1.02862 -1.549 1.26134
-0.8708 -1.02963 1.46324
-1.60957 -0.9069 1.97555
-0.3705 -0.712184 0.945175
-2.40807 -2.4475 1.33013
-0.73059 -1.31496 1.03862
-0.97993 -0.912309 1.56484
-1.94425 -1.30632 2.20459
-1.06974 -1.60478 0.711081
-1.26561 -1.48857 0.114134
-1.18022 -0.856257 1.70503
-1.18289 -1.67939 0.711639
-0.89234 -0.223389 1.31547
-0.46361 -0.667848 1.07623
-1.90269 -2.16056 1.05805
-0.8805 -1.39304 0.427326
-0.35956 -0.946441 0.612687
-1.18957 -0.478641 1.61259
-1.58029 -1.91605 0.726708
-0.4771 -0.747016 1.08556
-0.92937 -1.37525 0.299276
-2.40441 -1.19413 2.4295
-1.99321 -2.1111 1.84702
-2.80797 -1.33866 2.63237
-2.51151 -2.47928 1.19698
-0.5578 -1.04421 1.06772
-0.80669 -1.42007 0.842871
-1.50619 -1.93853 1.2328
-1.37419 -1.84109 0.933324
-1.19631 -0.451495 1.60643
-1.8104 -0.64643 2.00934
-2.52065 -2.50752 1.41006
-1.8112 -1.83671 1.9616
-0.41768 -1.01061 0.485401
-1.1184 -0.444862 1.55641
-1.4131 -1.4857 1.81244
-1.65486 -2.0225 1.38631
-1.40421 -0.268955 1.64476
-0.8103 -0.949008 1.41799
-1.3179 -1.65519 1.58914
-1.37463 -1.82286 0.823921
-2.51489 -1.72053 2.49152
-1.71199 -1.90268 1.79143
-0.54623 -0.378429 1.11154
-1.76128 -1.97835 0.62738
-2.73099 -2.61263 1.60001
-1.79275 -1.93756 1.84499
-1.00536 -1.57955 0.839166
-1.97354 -2.05111 1.91267
-1.29137 -0.450314 1.66174
-2.10256 -2.17051 1.89306
-2.18746 -2.106 2.07684
-0.40398 -1.00469 0.58419
-0.49831 -0.954898 1.03525
-0.86929 -0.512419 1.41326
-0.74043 -0.770584 1.35938
-2.41319 -1.63608 2.44725
-1.81995 -1.9699 1.83646
-1.87535 -1.72604 2.0815
-1.92973 -2.07765 1.8166
-1.5069 -1.8119 0.530443
-0.82794 -0.858477 1.43869
-1.65338 -1.69996 1.91211
-0.7727 -1.29891 0.38369
-1.82785 -2.05508 0.762289
-2.28207 -1.35407 2.38657
-2.30436 -2.36992 1.72592
-2.20419 -1.59633 2.33468
-0.58936 -0.446128 1.17078
-0.52477 -0.855104 1.1227
-1.48441 -1.91241 1.33283
-2.94209 -2.68513 1.30616
-1.71537 -0.888374 2.02952
-2.06079 -1.79595 2.18797
-2.08601 -1.21053 2.27543
-1.22294 -1.4894 0.160846
-0.98601 -1.24636 1.51164
-0.36627 -0.899581 0.800728
-0.72942 -1.33555 0.961064
-2.48647 -1.25623 2.47663
-0.95576 -1.44858 0.437572
-0.97341 -0.494374 1.48028
-1.70131 -2.05999 1.31477
-2.66692 -2.58172 1.51285
-1.87916 -2.05965 0.695722
-1.4573 -1.63043 1.77221
-0.28674 -0.71176 0.793869
-1.39493 -1.67322 1.66734
-2.80989 -2.65037 1.57719
-1.87731 -1.75975 2.06669
-0.875 -0.607376 1.44328
-1.82861 -2.07056 0.815754
-1.37802 -1.65372 1.66644
-1.0464 -0.946187 1.61712
-0.48648 -1.00148 0.970299
-2.25427 -1.97556 2.23842
-1.43843 -0.802347 1.85599
-0.59648 -0.394155 1.16113
-1.81767 -2.13093 1.32455
-2.09286 -1.44013 2.28579
-1.48149 -1.88589 0.824649
-2.14155 -2.22073 0.8126
-1.52173 -0.916106 1.92721
-2.03817 -2.24653 1.1717
-0.96212 -1.54907 0.869055
-1.81067 -2.10194 0.997607
-0.79268 -0.494819 1.35121
-2.31528 -2.3728 1.10571
-1.70371 -0.960032 2.03755
-2.2933 -1.79899 2.34351
-0.27202 -0.668074 0.787604
-1.24103 -1.69438 1.40168
-0.84672 -0.611704 1.42308
-1.19025 -1.69542 0.76282
-1.56527 -1.97395 1.08106
-1.24727 -1.56565 0.286088
-2.71054 -2.5706 1.21412
-1.41863 -1.78854 0.601394
-1.35511 -1.8067 1.36527
-1.3905 -1.79708 0.680859
-1.41293 -1.14309 1.87935
-1.7996 -2.00873 0.660275
-0.67125 -1.22793 1.06693
-1.83161 -2.13915 1.32739
-0.91835 -1.27481 1.42007
-0.74094 -0.595596 1.33638
-2.1822 -2.31025 1.66123
-2.22128 -2.29394 0.944751
-0.78089 -1.12744 1.3367
-1.85862 -2.09967 0.869557
-2.60878 -2.51137 1.13591
-0.83011 -1.32641 1.2455
-1.00748 -1.33565 1.48712
-2.04308 -2.25979 1.3296
-2.38764 -1.65543 2.43073
-1.0225 -1.59567 1.03775
-1.59051 -1.91538 1.59293
-0.89837 -0.855302 1.49767
-2.12207 -1.21608 2.29453
-0.70228 -1.28198 1.03722
-1.59685 -1.33044 1.9908
-1.44296 -1.68601 0.312004
-1.86577 -2.0653 1.74449
-0.77272 -1.32577 0.461642
-0.99547 -0.798903 1.56759
-1.31855 -1.79063 0.834322
-0.75067 -1.09629 1.31496
-1.03046 -1.50552 0.458226
-2.53567 -2.47382 1.10958
-1.19031 -1.41201 0.0544331
-1.6888 -1.8344 1.84123
-1.72909 -2.02806 1.58318
-0.29542 -0.857657 0.558225
-1.01526 -1.58396 1.08716
-0.62453 -0.922456 1.22776
-0.8692 -1.47361 0.853379
-1.03083 -0.797249 1.59304
-1.11374 -0.224648 1.45755
-1.82751 -1.49439 2.11924
-0.2836 -0.66951 0.81021
-1.4797 -1.91646 1.27995
-0.89144 -1.34413 1.32614
-1.80471 -2.09451 0.974089
-0.68937 -1.29429 0.952289
-0.85779 -1.4476 1.04551
-2.60587 -1.37985 2.54571
-1.11749 -1.27544 1.62948
-1.32914 -1.19983 1.81775
-1.54597 -1.8585 1.62792
-1.96576 -1.96663 1.99847
-1.81021 -1.41624 2.11965
-0.5041 -0.498871 1.10386
-2.06142 -0.811978 2.18316
-2.14116 -2.29371 1.13387
-1.41052 -1.87668 1.17894
-0.49456 -1.10864 0.596734
-2.21441 -1.44668 2.35247
-1.78105 -1.69006 2.0248
-0.43855 -1.04641 0.657829
-1.10911 -1.66289 0.928148
-0.72508 -1.23402 0.309663
-1.23154 -1.74076 1.22085
-0.80272 -1.41497 0.903548
-2.63144 -1.3486 2.55453
-0.58642 -1.11729 1.04365
-0.94168 -1.51001 1.12377
-0.84195 -1.34255 0.365581
-1.91984 -1.79884 2.07971
-0.48907 -1.04033 0.923941
-0.80889 -0.338697 1.30811
-0.90117 -0.825986 1.4982
-1.43299 -1.81106 1.52667
-1.52289 -0.542202 1.82481
-2.1216 -2.27995 1.10769
-1.24879 -1.55568 0.26322
-1.8144 -2.12353 1.14353
-1.61208 -1.95429 1.54001
-2.08252 -2.25964 1.10242
-0.89877 -0.863038 1.4983
-3.10568 -2.77447 1.45835
-1.6948 -0.946922 2.03028
-1.48373 -1.74959 1.69387
-2.03025 -1.34917 2.25291
-1.10048 -0.431144 1.54001
-1.46418 -1.89519 0.927399
-1.63231 -1.39989 2.00505
-2.05589 -2.25606 1.53238
-0.4741 -0.891782 1.03466
-2.75357 -2.62355 1.59851
-1.51821 -1.79887 0.480861
-0.99698 -0.372879 1.45099
-0.52927 -1.14959 0.657524
-1.11232 -1.49349 0.302649
-0.68285 -1.27808 0.54979
-0.3453 -0.920476 0.653374
-1.78535 -1.67239 2.03618
-1.5866 -1.98363 1.33266
-2.04819 -0.939957 2.21068
-2.28172 -2.33406 1.80558
-0.65929 -0.889936 1.27423
-0.97539 -1.11195 1.54428
-1.59967 -1.70935 1.85595
-1.35962 -1.50987 1.75231
-2.28063 -1.67238 2.36688
-1.41213 -1.85977 1.32992
-3.11541 -1.40302 2.77179
-1.23671 -0.302677 1.56728
-1.63351 -1.03747 2.00984
-0.34723 -0.851908 0.812961
-2.13178 -2.16888 1.93399
-1.36987 -1.75964 1.51418
-1.14774 -1.56396 0.417858
-1.07134 -0.750085 1.61369
-0.72411 -0.556394 1.31386
-0.75276 -0.603806 1.34772
-1.21287 -1.04442 1.74131
-1.71634 -0.609795 1.94959
-0.33234 -0.58231 0.910393
-1.92121 -2.1833 1.46222
-1.26818 -1.67738 0.528534
-0.42394 -0.431321 1.00662
-2.34438 -2.37266 1.03873
-1.01976 -1.52818 0.546756
-1.40943 -1.71048 1.64484
-2.10251 -2.28678 1.50325
-2.57833 -1.60991 2.53648
-0.61529 -0.509577 1.21033
-0.60338 -1.22568 0.798111
-2.03067 -2.24267 1.17194
-0.78143 -1.397 0.802821
-0.7874 -0.640872 1.38301
-1.16278 -1.68449 0.799858
-1.28396 -1.6566 1.53984
-1.97858 -1.23624 2.2208
-2.19174 -2.25827 1.84785
-1.21602 -1.4995 1.61146
-1.36615 -0.179018 1.57892
-1.068 -1.46147 1.46154
-0.66635 -1.29026 0.747398
-2.88266 -2.67011 1.37979
-2.20779 -2.07815 2.12352
-2.08261 -1.82199 2.19209
-1.94061 -2.0988 1.79388
-1.40219 -1.84114 1.37677
-0.74333 -0.425155 1.29126
-2.18765 -1.96486 2.19351
-1.70174 -2.02286 0.891365
-2.15717 -2.31486 1.53713
-1.83788 -2.01191 1.79877
-2.44051 -1.55938 2.46813
-1.43198 -1.45916 1.83909
-1.52282 -0.919713 1.92847
-1.88282 -2.10566 0.845198
-1.24175 -1.55916 1.59197
-1.04266 -1.57315 1.23438
-1.37977 -1.83479 1.33134
