ply
format ascii 1.0
comment Created by Open3D
element vertex 200
property double x
property double y
property double z
end_header
2.84667 1.27884 0.638869
3.59167 2.09945 0.566452
5.81158 5.64642 -0.10025
8.00201 1.88714 -0.464436
3.63448 1.86064 0.572279
0.913135 1.32565 0.565688
7.9075 4.13298 -0.168253
6.93976 5.37423 -0.135498
4.81932 6.97519 -0.47534
3.25155 2.44076 0.557674
-0.624335 1.58288 -0.229663
6.01302 0.102126 -0.673706
0.456083 2.41256 0.266364
2.87666 1.99127 0.611978
11.1264 5.9674 -0.958476
6.62479 1.17867 -0.188595
1.3045 1.58386 0.595511
6.06167 5.89491 -0.166437
2.0509 4.10169 0.146779
0.424321 1.43658 0.444476
5.91114 6.36816 -0.273944
0.789975 1.17164 0.555347
1.51713 -0.712947 -0.179984
1.66454 3.78275 0.176441
1.19516 -0.264003 0.398226
-0.476223 0.626549 -0.260204
3.70433 0.487328 0.43514
9.55876 4.99636 -0.555201
2.64885 5.20439 -0.115355
0.662803 -0.448081 -0.368073
8.05805 1.83149 -0.507373
1.88505 0.287131 0.598872
6.19155 0.885785 -0.145867
3.77281 0.613718 0.452225
3.07593 -0.275421 0.253524
-0.0943447 0.601307 0.250392
0.0114182 -0.0326119 -0.347797
2.38814 -0.757862 -0.24881
4.66222 -0.363403 -0.495048
-0.0498665 0.00729945 -0.27012
4.81025 -0.388729 -0.715373
-0.576767 0.902817 -0.280197
0.422719 2.97525 0.0920855
2.95484 -0.229484 0.307549
1.96904 -0.701645 -0.0131737
4.02192 1.5444 0.525065
-0.214217 1.38393 0.182834
7.94573 5.01296 -0.2288
2.19968 3.96165 0.209464
0.184467 -0.196101 -0.0924606
0.232306 2.4766 0.16696
11.6042 5.91441 -1.08677
1.28094 -0.502315 0.228143
3.26661 0.306269 0.466981
6.34669 3.95548 0.115582
2.83112 2.76011 0.52015
4.31375 -0.348794 -0.249305
5.18431 7.73669 -0.707621
1.61106 4.01781 0.0921398
2.85694 3.10172 0.462223
4.54409 -0.478529 -0.924484
2.53863 2.34949 0.575721
3.77245 -0.613743 -0.90342
8.05997 4.33849 -0.206049
9.44471 4.22958 -0.538876
-0.263052 0.255706 -0.201523
-0.673397 1.26161 -0.657043
0.928666 -0.563721 -0.0360378
1.33113 2.33628 0.484068
2.04847 0.0473819 0.535619
1.63856 4.27235 0.0133506
2.6366 1.43353 0.648958
5.44407 0.0912044 -0.334201
7.63924 1.67029 -0.396985
7.07332 5.99191 -0.255687
-0.655712 1.63601 -1.02419
1.00781 0.474046 0.580734
7.77347 1.6775 -0.4486
7.7387 1.96514 -0.339241
4.8534 0.157784 -0.0194177
8.49913 4.01433 -0.300848
4.65295 1.48208 0.41844
4.85406 4.3786 0.199746
4.09737 -0.552874 -0.566096
2.79726 3.71916 0.329943
-0.255355 0.290806 -0.0715999
6.28435 5.37434 -0.0742925
2.6452 -0.443679 0.220607
5.7063 1.60823 0.204862
2.04853 -0.75732 -0.215447
6.87717 1.56376 -0.149587
0.241512 1.18978 0.411906
9.24917 5.63074 -0.518224
0.711514 1.14622 0.541512
2.15749 -0.496978 0.247015
11.5274 6.09611 -1.06488
3.72791 -0.639906 -0.69182
5.13333 2.94195 0.356436
5.04031 -0.154556 -0.391158
2.19293 -0.738582 -0.128922
2.54295 2.70324 0.522637
9.40779 5.83219 -0.565302
2.8537 -0.744403 -0.555135
-0.66731 1.21318 -0.616075
2.80889 2.94393 0.489295
-0.0630161 0.549993 0.260939
0.369161 0.450102 0.440266
1.52789 -0.258866 0.425865
8.57687 3.97558 -0.32078
1.83536 1.49219 0.645212
-0.532444 1.32441 -0.0833082
5.42786 7.04328 -0.465911
-0.573086 1.37626 -0.13907
1.68281 3.29989 0.31594
3.48047 1.80957 0.587184
2.30069 -0.358068 0.335324
1.50667 1.28081 0.639326
10.3867 4.90964 -0.771114
2.59561 0.806713 0.633379
3.25438 -0.684949 -0.36026
2.7682 2.33158 0.579563
-0.247304 0.916958 0.180384
0.0945751 0.162396 0.237644
5.6063 4.32339 0.157689
6.53338 4.18453 0.0680334
7.19192 5.55843 -0.192467
11.5619 6.1428 -1.07435
7.5944 2.5772 -0.165607
1.40948 2.08891 0.539111
3.08211 3.49205 0.392628
6.33815 4.53142 0.0536741
9.67598 4.06836 -0.616441
0.635811 1.71162 0.462007
0.0518127 0.718308 0.343294
7.39811 2.58323 -0.108897
2.09588 -0.665092 0.0521406
1.87515 4.24975 0.0698536
-0.281016 0.858645 0.150471
3.62014 4.14083 0.266496
-0.227334 0.214965 -0.151448
-0.24298 0.310605 -0.51928
5.78132 3.28856 0.246542
4.77737 -0.1731 -0.267546
3.05741 -0.724249 -0.628023
6.09756 0.11888 -0.711691
2.61007 3.07896 0.457393
5.37821 0.773115 0.0928924
0.633248 0.896878 0.534311
-0.213703 1.96793 0.0781127
-0.650452 1.22321 -0.710647
-0.342695 1.75853 0.0369765
5.06996 5.01156 0.0652992
4.56126 6.96434 -0.491685
11.9777 6.53377 -1.18923
3.25408 5.57563 -0.156972
6.98239 0.648688 -0.673186
5.29881 5.74535 -0.108435
1.60591 -0.668658 0.0328465
0.881797 1.18295 0.571078
5.77956 0.816605 -0.0242249
1.07267 0.00616572 0.496614
3.83171 5.3843 -0.0455036
4.26066 -0.475086 -0.451402
1.23552 1.6836 0.575488
2.41259 0.400441 0.5941
3.10879 0.686786 0.569731
4.3195 6.59574 -0.387963
0.236507 2.81217 0.0679889
0.0627106 2.39604 0.114741
3.54444 0.940868 0.545008
2.14525 2.4009 0.553966
2.51335 3.16463 0.43503
3.20432 4.70269 0.104932
1.406 2.76457 0.404383
1.1586 1.13008 0.613666
0.287277 -0.274648 -0.182056
-0.498883 0.889871 -0.0895217
5.49896 2.05363 0.299094
3.45172 0.584769 0.502686
8.27406 3.85141 -0.249553
5.47705 -0.228735 -0.985221
4.83933 1.39368 0.372145
-0.156807 0.117772 -0.212057
2.18037 3.11718 0.420416
4.32209 3.28195 0.402597
4.02538 0.779686 0.438408
8.06878 3.91404 -0.200758
4.52233 0.524144 0.256719
0.961905 -0.568846 -0.0164419
2.77589 5.28805 -0.124438
4.90798 -0.240627 -0.436435
4.04238 -0.447464 -0.254817
2.97398 -0.522171 0.0689772
-0.355671 0.496382 -0.0535467
5.82593 5.14713 0.00118811
3.12492 -0.710654 -0.698847
4.22543 4.48223 0.19531
0.367401 1.79716 0.372563
-0.209581 2.10407 0.0466409
-0.647363 1.12733 -0.587477
