ply
format ascii 1.0
comment Created by Open3D
element vertex 250
property double x
property double y
property double z
end_header
0.390849 -1.18706 -0.593485
-0.75031 -2.03542 -2.11942
-1.20532 -1.11076 -1.8783
-0.635297 -0.34052 -0.531094
-0.889699 -0.424298 -1.05726
-0.699972 -0.165143 -0.833381
-0.520351 -0.184867 -0.427381
-1.34716 -1.46839 -3.13857
0.962009 -0.908855 -0.375266
1.48262 1.00439 -0.318999
-0.388103 -0.134892 -0.279114
1.07593 -0.565304 -0.126311
-1.36003 -1.90386 -4.04476
0.388893 -0.736052 -0.189123
-0.865691 -0.49028 -0.922203
-0.620287 -1.58151 -1.35422
0.601232 0.324954 0.137366
-0.710182 -1.10097 -0.905972
0.477935 -1.11311 -0.519024
-0.480488 -0.669823 -0.418157
-0.446968 -1.90659 -1.68859
-0.213309 -0.246574 -0.11202
1.37188 0.895949 -0.177337
0.322262 0.554914 -0.224149
-0.57855 -1.02169 -0.727597
0.407489 -0.983971 -0.396205
1.93546 0.443187 -0.00137485
-0.00582282 0.271326 -0.165306
-1.26989 -2.4363 -5.43877
0.0801118 0.30652 -0.118435
2.31398 -0.338967 -0.383168
1.70147 1.0876 -0.420467
0.992484 0.156642 0.183588
0.344576 0.593928 -0.273299
0.588419 -1.00237 -0.417101
0.689852 0.125149 0.184177
-0.599354 -0.838881 -0.608848
-0.915764 -3.09287 -4.62457
-0.979474 -3.16267 -5.05881
-1.04812 -1.23535 -1.48624
-1.09862 -3.14155 -5.83758
1.75398 0.0663626 0.0102879
-0.810008 -1.18076 -1.08047
-1.12264 -1.38091 -1.78082
0.542997 0.327271 0.121472
-1.31183 -2.30201 -4.16426
-0.875762 -0.677156 -0.895936
-1.2139 -2.58557 -4.28208
-0.805594 -3.32418 -5.01018
0.898372 -0.64449 -0.152369
0.66337 -0.0771128 0.156587
-0.494791 -2.68135 -3.03955
-0.383618 -3.80687 -5.5575
-1.25003 -2.43862 -4.05208
-1.11774 -0.79751 -1.58783
-1.36193 -1.6767 -3.39638
0.181476 0.501567 -0.290625
0.0337536 0.319114 -0.179007
0.798904 -0.765485 -0.231465
-0.363916 -0.313774 -0.225693
-1.21627 -2.6917 -5.88089
-1.12661 -2.67194 -4.11406
-1.27713 -2.34141 -3.94976
-1.36474 -1.82207 -3.75419
-0.495932 -0.752915 -0.474764
-1.08631 -3.01069 -5.02872
-0.0370078 -0.788653 -0.287399
-0.285996 -1.34719 -0.889768
1.22393 -0.116444 0.0868431
-0.513224 -3.68786 -5.44116
-1.28205 -2.23025 -3.67661
0.124937 -0.122903 0.0614981
-1.2561 -1.45041 -2.26985
0.886089 -0.292939 0.0639472
-0.514283 -0.050994 -0.536369
-0.0822243 0.0455235 -0.0684183
-0.949856 -2.55413 -3.35793
-1.00087 -3.19759 -5.28403
1.71532 0.473212 0.0559377
-0.226749 -1.66165 -1.24887
0.994827 0.746244 -0.078513
-0.474366 -0.500879 -0.347816
1.0785 -0.639276 -0.17924
-0.248421 -0.406158 -0.162268
-0.0886474 -0.522596 -0.135653
0.0483681 0.0959682 0.00040061
-1.0083 -0.644951 -1.25018
-0.272264 -1.533 -1.10279
1.7124 0.646348 0.00903567
-0.797092 -0.300546 -0.918611
-1.31782 -1.65316 -2.80658
-1.31643 -2.23653 -3.98574
-0.692719 -0.422108 -0.598611
0.545401 -0.248006 0.0995481
-1.15331 -1.76815 -2.33135
-0.49304 0.0663589 -0.691311
-0.395184 -0.241344 -0.257005
0.049888 -0.282666 0.00567354
1.63055 0.715459 -0.0122928
-0.265739 -1.55099 -1.12253
0.926733 -0.135899 0.125597
-1.08355 -1.99277 -2.53069
-1.04293 -1.42531 -1.66009
0.306408 -0.586767 -0.0894959
0.153721 -1.28975 -0.717902
-0.799284 -0.668655 -0.76257
-0.335486 -1.50798 -1.09813
-1.163 -0.807054 -1.88208
1.72948 0.847128 -0.116217
-1.35134 -1.511 -3.17752
-0.916122 -1.02192 -1.09458
-0.900272 -1.59783 -1.64932
-0.0827639 -1.75893 -1.33233
-1.30565 -1.75754 -2.86985
-0.985651 -2.11599 -2.56147
1.06902 -0.600373 -0.149436
-1.35777 -1.99565 -4.08081
2.03378 0.305926 -0.0365174
-1.22427 -0.976939 -2.08834
-0.485201 -2.94709 -3.57167
-0.625852 -2.36943 -2.57009
1.27346 0.392645 0.147293
-1.23935 -1.41994 -2.17346
-0.831089 -3.1909 -4.68478
1.15384 0.395997 0.156977
-0.743941 -3.2622 -4.68864
1.99863 0.215967 -0.0366709
1.75522 -0.521179 -0.280489
1.5711 0.693311 0.00744678
-0.815658 -2.04371 -2.2032
1.1326 -0.180347 0.0785216
-0.476846 -1.19929 -0.824533
1.6271 -0.273906 -0.0892402
-1.32368 -2.30174 -4.62968
-1.05685 -2.85584 -4.38033
1.56626 -0.542226 -0.233628
-0.567705 -0.642497 -0.477814
-0.476601 -0.842659 -0.519072
-0.792066 -2.32791 -2.66914
-0.889124 -3.36186 -5.39803
0.63286 0.114252 0.179705
-1.26571 -1.31286 -2.22726
-0.146222 -1.73974 -1.32508
-1.321 -2.25719 -4.81937
-1.04138 -1.07571 -1.3584
-1.25566 -1.61706 -2.44385
-0.413868 -0.367992 -0.271677
-0.916282 -1.47907 -1.5233
0.878627 0.704361 -0.0682591
-1.2323 -2.72887 -5.49165
-0.695495 -3.59334 -5.56151
-1.33225 -1.47212 -2.79289
0.661993 0.519786 0.0394988
0.156708 0.199339 0.0187419
-1.10532 -2.14482 -2.85105
0.254579 0.540449 -0.27413
-0.203843 -0.265837 -0.107757
-0.82961 -0.297286 -1.04224
1.00292 -0.0368362 0.148508
-0.811566 -1.48603 -1.40651
1.17039 0.706086 0.000592286
0.549275 -0.067851 0.153828
1.15042 -0.422095 -0.0489803
-1.14814 -1.4592 -1.92377
0.983457 0.395195 0.160486
1.15776 0.311172 0.169049
-0.76891 -1.65604 -1.57862
-1.34897 -1.66549 -3.10566
0.59791 -0.0477793 0.160903
-1.02642 -2.10304 -2.61039
-1.10706 -3.10649 -5.69494
-1.20292 -2.11715 -3.07032
-0.937361 -2.51078 -3.2421
0.522921 -1.06952 -0.477659
-0.679983 -0.710541 -0.618879
0.0795881 -0.929933 -0.376725
-0.635258 -1.24802 -0.981288
-0.785015 -0.536634 -0.734082
-0.449687 -1.63309 -1.31162
1.82549 -0.375746 -0.212285
-0.852923 -0.759358 -0.869122
-0.858963 -1.28451 -1.23761
-1.19403 -1.4048 -1.99918
-0.060984 -0.348723 -0.0543075
-1.03727 -3.00598 -4.76993
-1.2716 -2.31972 -3.84815
0.374148 -0.580816 -0.080847
1.70987 -0.260482 -0.108567
1.43077 0.186927 0.122291
-1.36397 -1.71298 -3.53325
2.09168 0.0300344 -0.119616
1.68555 -0.593242 -0.307289
0.483241 -0.611298 -0.0978784
-1.26629 -2.59314 -5.22056
-1.31909 -2.32049 -4.40729
1.54789 0.232844 0.100826
-0.747094 -1.80737 -1.76799
0.70155 0.291048 0.166246
0.755887 0.593186 0.00747267
0.0845747 0.361936 -0.179103
2.81024 -1.14591 -1.23493
1.2494 -1.22518 -0.735427
3.22591 -2.75563 -3.33212
4.64256 -2.32064 -3.49247
6.46826 -3.24578 -5.77995
6.13378 -2.94969 -5.18473
2.37303 -1.05189 -0.948615
4.07412 -2.30132 -3.14889
3.2128 -2.5419 -3.03234
1.85848 -1.72792 -1.46609
1.72566 -0.97972 -0.634509
2.45541 -2.00222 -2.01434
2.00185 -0.938721 -0.696548
2.15453 -1.15471 -0.954842
3.29408 -2.76731 -3.37799
3.24323 -2.43848 -2.90822
2.50349 -0.807485 -0.79567
4.41729 -2.98032 -4.2156
4.1249 -1.71792 -2.50993
4.11954 -2.38254 -3.27372
5.50258 -3.28946 -5.2435
2.15906 -1.14449 -0.946813
4.33056 -1.817 -2.73595
3.63753 -1.38138 -1.89007
5.75369 -3.50257 -5.68634
6.45721 -3.30373 -5.84874
2.60639 -1.42392 -1.41562
3.56499 -3.01468 -3.84953
5.81729 -2.91402 -4.93834
1.07785 -1.17994 -0.652746
4.4816 -3.00074 -4.27754
1.18669 -1.1461 -0.641509
1.2756 -1.2661 -0.783859
6.11208 -2.96474 -5.18975
5.19943 -2.71945 -4.31274
4.1646 -3.19637 -4.392
4.48005 -1.89313 -2.90715
3.89663 -1.50837 -2.16203
3.77381 -1.30299 -1.89109
1.53471 -1.2483 -0.833862
3.06151 -1.70824 -1.93358
5.32515 -3.58523 -5.56003
5.37413 -2.3136 -3.93059
6.52727 -3.50389 -6.16075
2.56959 -2.06653 -2.14002
5.53565 -2.6275 -4.40498
1.42586 -1.48362 -1.05682
5.59728 -3.30038 -5.31408
6.01651 -3.13848 -5.35246
3.42689 -1.88629 -2.31585
