ply
format ascii 1.0
comment Created by Open3D
element vertex 400
property double x
property double y
property double z
end_header
0.318396 -0.68907 1.73596
0.48994 0.35729 3.53669
0.628872 -0.25236 1.58663
0.050742 0.93586 2.13017
0.0878227 -0.93152 2.48644
0.321055 -0.71792 2.01303
0.318127 0.62584 1.38452
0.622417 -0.34287 2.0729
0.516923 0.26294 3.57588
-0.00133643 0.87191 4.22019
0.27621 -0.66387 1.39065
0.679162 0.16386 1.83084
0.272455 0.78256 2.69152
0.564568 0.30296 3.20109
0.607214 0.3378 2.68742
-0.0243669 -0.88786 1.44948
0.373381 -0.59245 1.47133
0.0404394 0.93107 3.56732
0.52531 0.11773 0.908151
0.0833962 0.93823 2.86463
0.678914 -0.19961 2.13782
0.69708 -0.07809 2.38568
0.583752 0.37618 2.75794
0.671709 0.15297 1.69495
0.552611 0.11665 0.995557
0.598262 -0.39179 2.28883
0.0284964 0.95157 2.14132
0.441751 -0.49035 3.42522
0.460327 0.58936 2.25324
0.335239 -0.64762 3.41619
0.0388484 -0.93774 2.06455
0.565622 0.4384 2.51408
0.247926 0.73825 1.66678
0.550207 0.39004 3.02526
0.395181 0.61726 1.73979
0.579524 0.38995 1.77247
0.526908 0.09715 3.70265
0.3701 -0.62619 3.28047
0.567588 -0.26949 1.26209
0.335303 0.63615 1.50876
0.429263 0.62681 2.38132
0.22271 -0.81985 2.92659
0.262457 0.74257 3.3529
0.662481 0.21791 2.51957
0.576016 0.26327 3.21606
0.304897 0.59836 1.225
0.411678 -0.61726 2.95924
0.579106 0.42326 2.12716
0.153315 -0.77655 3.87562
0.629297 0.32662 2.03529
-0.0799172 0.97534 4.0458
0.398653 0.57587 1.51503
0.188684 0.85423 2.80598
0.152537 0.73599 4.06903
0.0804688 0.90598 3.4713
0.648502 -0.28295 2.32993
0.292021 -0.75985 2.2585
-0.0202445 -0.98728 2.19197
0.636629 0.15947 1.42115
0.544338 0.38912 1.49023
-0.0179464 0.99889 3.31627
0.272943 -0.78199 2.6963
0.415871 0.59538 1.73499
0.0282206 -0.93567 1.97745
0.218164 -0.82088 2.98578
0.194985 0.81658 3.31132
0.270164 -0.72952 3.38637
0.636318 -0.28953 1.83116
0.487621 0.54171 2.709
0.415432 -0.59615 3.08885
0.470643 -0.53374 2.98736
0.340062 0.58569 1.30161
0.49407 -0.50041 1.69645
-0.0493136 0.93353 4.13714
0.529361 0.3945 3.17424
0.253717 -0.79613 2.3319
0.452301 -0.47202 1.32713
0.298887 -0.58799 1.16844
0.665564 -0.13716 2.72808
0.312676 -0.73005 2.96151
0.545667 -0.35821 3.17717
0.30675 -0.64185 3.6324
0.603897 -0.15435 3.21301
0.607143 -0.35292 2.58805
0.492153 0.3922 3.43235
0.610594 0.0921 1.20586
0.577975 -0.38008 1.69798
0.650411 -0.04327 2.96955
0.608126 -0.23766 1.40301
0.242523 -0.78617 2.02771
0.533455 -0.17676 3.60445
0.642576 0.25995 2.62108
0.296455 0.70487 1.71268
0.456381 0.5648 2.90556
0.538405 -0.35478 3.23957
0.581716 -0.29791 1.40489
0.615247 0.17625 3.10247
0.200147 -0.78089 1.70241
0.0235537 -0.96633 3.31794
0.635456 0.12694 3.01865
0.603353 -0.2424 3.06399
0.645391 -0.1214 2.94487
0.269896 0.77345 2.15779
0.461543 -0.54671 1.74463
0.446269 -0.42673 1.15978
0.615155 -0.30213 2.77009
0.556776 0.31407 3.2265
0.3884 -0.66955 2.57912
0.527381 -0.49016 2.63479
0.245557 0.8006 2.27599
0.594627 0.10803 1.1479
0.55802 0.35213 3.1039
0.148952 0.86762 3.22051
0.363106 0.66827 1.90036
0.366995 -0.67511 2.9106
0.345202 -0.70214 2.09536
0.557115 0.42219 2.79188
0.21286 0.8223 3.0426
-0.0239356 0.9691 1.98197
0.0816001 -0.93436 3.05119
0.520756 0.44595 1.5884
0.121976 -0.76355 1.30792
0.486228 0.55481 2.53292
0.0288005 -0.85046 4.17365
0.425876 -0.42772 3.71334
0.04826 0.84741 1.47278
0.6177 0.34262 1.94163
-0.0146513 -0.9176 1.64735
0.519674 -0.22104 3.62393
0.00864084 -0.86108 1.41602
0.441093 -0.38086 3.74716
0.286965 -0.65465 3.69248
0.55679 -0.41843 1.72395
0.449161 0.47735 1.33262
0.53832 -0.32262 1.25236
0.697221 0.10708 1.98947
0.643305 0.02543 1.33855
0.559505 0.38997 2.94224
0.562659 -0.08175 1.00849
0.0393505 0.95267 3.33146
0.00362746 0.99454 2.61019
0.517058 -0.18381 0.940289
0.223276 0.67063 1.2355
0.336986 -0.70556 2.9441
0.586552 0.15879 3.31993
0.0316501 0.97667 2.90085
0.320814 0.69328 3.23237
0.0451912 0.92495 1.9804
0.595016 0.25303 3.10284
0.258405 -0.77223 3.12297
-0.151109 -0.9833 1.57433
0.570593 -0.17747 1.12095
0.544684 0.06262 0.939787
0.563981 -0.44979 2.29304
0.430225 0.54611 1.53412
-0.0333684 0.95544 3.89844
0.0320319 0.94081 2.05038
0.263192 -0.61738 1.16058
0.00946816 0.94144 1.92324
0.471357 -0.35698 1.07344
0.63803 -0.05213 1.31875
0.19526 0.84228 2.29346
0.0158463 0.94229 1.96557
0.320892 -0.72128 2.96315
0.688708 0.16071 2.10063
0.119727 -0.87653 2.0023
0.120993 0.84061 1.71843
0.0486348 -0.82976 4.17327
0.605517 -0.31781 1.63866
0.139031 0.88342 2.2609
0.499507 -0.37455 1.22151
0.184767 -0.83117 2.02497
0.634614 0.1611 1.41119
0.594776 -0.20988 1.2753
0.449366 -0.60163 2.52146
0.557306 -0.45339 2.04694
0.613535 -0.35442 2.4466
0.61041 -0.11343 3.21355
0.635498 0.2412 1.60583
0.54776 0.46846 2.49778
0.667551 -0.2319 2.02938
0.546693 0.47538 2.1983
0.57538 0.41207 1.88979
0.659766 0.05212 2.8855
0.500207 -0.52294 2.71952
0.628618 0.20098 2.95136
0.0852771 0.81179 4.07101
-0.00715592 0.94998 3.76369
0.561733 0.13543 1.04278
-0.0336371 0.96357 3.83823
0.456452 -0.52212 1.56266
0.546035 -0.11715 0.973764
0.216566 0.6839 1.26721
0.301326 -0.74028 2.98186
0.408715 -0.56211 3.34069
0.524397 -0.45115 2.96649
0.125363 -0.90698 2.73034
0.69865 -0.1062 2.05613
0.236909 0.7557 3.45812
0.558466 0.03713 0.977441
0.563387 -0.19107 1.11007
0.653911 -0.24938 2.49752
0.48137 -0.50946 3.03807
0.441284 0.61293 2.34179
0.505772 -0.49347 2.89683
0.000876812 -0.99127 3.18693
0.255831 -0.71411 3.58551
0.454401 0.58754 2.06205
0.681792 0.038 1.62239
0.148174 -0.88769 2.53996
0.281231 0.74314 1.91456
0.306015 -0.6574 3.56185
0.533335 0.40066 3.12078
0.0591283 0.94039 3.27559
0.444905 0.44722 1.21459
0.077711 -0.92893 2.28438
0.454861 0.59117 2.61422
0.0531532 -0.84635 4.06685
0.555503 0.0308 3.5797
0.589409 -0.18598 1.21197
0.565777 -0.24826 3.3143
0.683277 0.0942 2.59077
-0.021892 0.98572 2.16151
0.473337 -0.57163 2.5304
0.633872 0.30353 2.49707
0.664405 0.19913 1.75676
0.123447 -0.89733 2.30282
0.104715 -0.92155 2.57785
0.535202 0.46337 2.76991
0.513084 0.51582 2.05745
0.602356 -0.35745 2.62977
0.57736 -0.41382 2.56399
0.0408849 0.95049 2.23075
0.153089 -0.85121 1.98865
0.588263 -0.39817 2.51632
0.0777322 -0.93855 3.02204
0.114212 -0.82326 3.84813
0.516131 -0.34976 1.22512
0.470792 0.5016 1.54475
0.638213 0.27322 1.76331
0.667523 -0.22629 2.35639
0.455794 0.53047 3.14214
0.136358 -0.74772 4.10081
0.514003 -0.51819 2.12338
0.525967 0.22009 3.59157
0.634749 -0.31982 2.2124
0.695623 0.0803 1.85293
0.494169 0.54639 2.47848
0.27795 -0.65428 1.35434
0.580315 -0.37197 2.82047
0.523202 -0.22399 1.00937
-0.0225355 -0.95729 3.81205
0.555779 0.41242 1.67994
0.682556 0.15845 2.42325
0.379872 -0.58473 3.43194
0.269719 0.77187 2.13193
0.201872 -0.82472 3.15068
0.0515269 0.9625 2.70141
0.0892369 0.89295 3.52118
0.613493 -0.28673 1.58137
0.0717572 -0.87038 1.69478
0.606846 -0.14338 3.2064
0.152848 -0.76458 1.41301
0.639458 0.30042 1.9806
0.351192 0.64314 3.32439
0.353249 -0.58484 3.60088
0.49535 -0.54716 2.35834
0.513593 -0.30852 3.50979
0.505299 -0.5164 2.71016
0.0852134 -0.93033 3.07752
0.232935 0.71022 1.44255
0.645836 0.02082 1.35211
0.648318 0.28434 2.31549
0.278508 -0.61801 3.88917
0.143592 0.89127 2.54131
0.0976514 -0.82539 3.93283
0.516075 0.14929 0.904163
0.0402627 -0.90142 3.80992
0.338485 0.61567 3.55671
0.500299 0.42874 1.39579
0.693827 -0.07492 2.45922
0.283062 -0.73428 1.84954
0.338011 -0.66247 3.30584
0.58902 -0.40683 2.13037
0.512094 0.38166 3.33662
0.359592 -0.55106 1.24314
0.582218 -0.18308 1.17624
0.632083 0.09227 1.3128
0.488024 -0.47241 3.17301
0.39895 0.46425 3.75694
0.299262 -0.64097 3.68133
0.356431 0.51375 3.83429
0.204121 -0.84337 2.60557
0.702291 0.00608 1.89348
0.522156 0.25878 3.55398
0.165102 -0.82721 1.85222
0.564872 0.34156 3.08571
0.429249 -0.42426 3.70444
0.43456 0.52429 1.45343
0.261736 -0.64277 1.25006
0.610728 0.22928 3.03619
0.634169 -0.16589 1.41644
0.342487 0.70299 2.90033
0.460885 -0.34733 1.01825
0.442635 0.55953 3.08402
0.701167 0.05172 2.34129
0.0680661 -0.82018 1.40078
0.657022 0.00164 1.41868
0.488681 0.5483 2.59693
0.495427 -0.45373 1.46817
0.234116 0.79453 3.14297
0.114 -0.91561 2.77332
0.600376 -0.38619 2.34789
0.386052 0.51886 1.22638
0.446163 -0.59772 2.07554
0.628413 -0.32005 1.93382
0.00336583 -0.96343 3.55744
0.202834 0.84103 2.40994
0.0968029 0.92743 2.57716
-0.041394 -0.94637 4.01149
-0.0848245 -0.98793 1.84012
0.2378 -0.7142 1.48207
0.470254 0.52544 3.04449
0.465877 0.37552 1.0972
0.518967 0.43756 1.53683
0.646267 -0.2866 2.00557
0.34154 0.62766 3.47894
0.419237 0.40572 3.80201
0.0189717 0.95959 3.4566
0.693057 -0.09254 1.83452
0.545533 -0.47618 2.16443
0.291363 -0.62631 3.78826
0.253851 0.79846 2.40808
0.344856 -0.59921 3.59082
0.159905 0.84845 2.01131
0.486327 -0.37801 3.50603
0.705601 0.00615 2.25228
0.629169 0.13794 3.05339
0.649329 0.11836 2.91504
-0.109969 0.96715 4.26547
0.42181 0.61067 1.91217
0.295316 0.68014 1.55423
0.376414 -0.62204 1.64837
0.233338 -0.81129 2.28762
0.465241 -0.56206 1.9059
0.496368 0.51195 1.79589
0.498213 0.54317 2.27486
0.62888 -0.30429 2.57941
0.681319 0.02831 2.68127
0.561011 -0.45433 2.30653
0.672055 -0.20736 2.38574
0.162847 0.78375 3.78072
0.545123 -0.4748 2.45401
0.503191 -0.31195 1.08889
0.353108 -0.70732 2.52743
0.539869 -0.31556 1.24191
0.0786868 0.88832 1.85702
0.0470155 -0.93578 2.10125
0.342678 0.70065 2.92823
0.590823 0.19814 1.23684
0.506974 0.4149 1.37963
0.371924 0.62205 1.62189
0.645588 -0.28446 1.96235
0.153965 0.88445 2.67853
0.091832 0.89372 1.98081
0.679176 -0.10326 1.66889
0.150515 0.88693 2.61508
0.126395 -0.86781 1.96359
0.265229 0.79047 2.53992
0.682542 -0.075 2.6285
0.509902 0.19434 0.929654
0.176296 -0.80308 1.73233
0.628363 -0.23954 2.85725
0.0848457 -0.93809 2.74304
-0.104624 -0.9515 1.53991
0.454606 0.35536 3.73265
0.68863 -0.02996 2.58911
0.24835 -0.79702 2.90916
0.56005 0.45225 2.10241
0.335246 -0.69135 1.87408
0.596254 0.31006 2.9286
0.364832 -0.62939 1.62491
0.546106 -0.23054 1.10066
0.530712 0.26247 3.49958
0.631319 -0.32518 2.08973
0.229718 0.81177 2.95827
0.601635 0.25083 3.05739
0.339022 -0.61053 1.40202
0.375 0.66183 2.95663
0.58349 -0.33828 1.54988
0.203986 -0.83793 2.35025
0.285926 0.69758 3.47642
0.414831 0.6359 2.14584
0.58139 0.02525 3.43752
0.395407 -0.4513 1.05568
0.514491 0.50874 1.98427
0.553226 -0.43907 1.82944
0.607002 -0.25569 3.00214
0.249078 0.76184 3.31335
0.263786 0.77866 2.15827
