ply
format ascii 1.0
comment Created by Open3D
element vertex 400
property double x
property double y
property double z
end_header
0.720561 0.0611694 2.3592
-0.0114977 0.670408 3.29459
0.347335 0.473355 3.41898
0.718428 -0.422928 3.27163
0.0651985 0.602981 3.57974
0.401229 0.470511 1.20856
0.105577 0.605983 3.46803
0.068166 0.719284 2.2043
-0.318094 0.748704 2.57741
0.605955 0.356375 1.91942
0.204808 0.629242 1.45955
0.693856 0.153654 2.45852
-0.666251 0.608761 4.26809
0.571304 0.298756 3.0748
0.0555113 0.599899 3.61848
0.208466 0.509454 3.69712
0.725131 -0.412561 3.17499
0.741523 -0.369823 2.27232
0.144925 0.629675 3.20983
-0.691512 0.673642 3.67067
0.725188 0.0395917 2.32805
-0.181777 0.712417 1.7072
0.495151 0.418599 2.99873
-0.093684 0.734734 2.01946
0.222363 0.675137 2.19482
0.61643 0.31813 2.57701
-0.319552 0.705512 3.3977
0.132944 0.648976 3.09984
-0.611025 0.699075 2.11031
-0.0884691 0.740359 2.5602
0.594058 0.370952 2.43036
0.661765 -0.543045 3.85983
-0.0976901 0.7391 2.11445
0.72223 -0.0567898 2.85681
0.716461 -0.587161 2.32729
0.51954 0.43258 1.56124
-0.552091 0.729271 2.82526
-0.08089 0.72722 2.83747
0.0551227 0.701517 1.76843
0.456314 0.404426 1.16941
-0.0460288 0.719259 1.83133
0.318418 0.514782 3.32562
0.16833 0.58285 3.43886
0.732326 -0.00921644 2.44187
0.683192 -0.367272 1.5761
0.354778 0.587472 1.66674
0.448756 0.519084 2.63138
0.370822 0.440798 3.47413
0.645622 0.288618 2.04019
-0.0298772 0.668037 1.40438
-0.455048 0.734928 2.94151
0.50033 0.47636 2.5669
0.499357 0.494973 2.3383
0.725412 0.0105979 2.56888
0.635288 0.00135231 3.5182
0.586367 0.124993 3.53278
0.681669 -0.111789 3.38597
0.373924 0.431666 1.01704
0.731036 0.00578443 2.26898
0.575316 0.386844 1.74727
0.710399 -0.113239 1.69262
0.687326 -0.432236 3.62046
0.571727 0.416163 2.12148
0.701668 0.117132 2.53735
0.575199 0.364651 1.61261
0.679097 -0.0293672 3.26034
0.0156955 0.705704 1.7488
0.727026 -0.229576 1.87665
-0.0839768 0.731657 1.97363
0.732495 -0.215665 1.94399
0.513679 0.466741 2.51972
0.316112 0.502788 1.10509
-0.2232 0.72766 3.0615
-0.597329 0.720449 3.00402
0.569673 0.312837 1.38215
0.636023 0.0833768 3.33124
-0.0913301 0.62487 1.15504
-0.24728 0.67367 1.4332
0.0441237 0.724346 2.3227
-0.396832 0.743872 2.72065
0.466951 0.445879 1.34893
0.0955656 0.707354 2.54261
0.745454 -0.122844 2.44566
0.293884 0.621586 1.68445
0.326973 0.423507 0.898153
0.160703 0.688757 1.9296
-0.0407384 0.606278 3.7706
-0.353496 0.714646 3.31272
-0.535247 0.623587 1.37971
0.457994 0.423686 3.17546
0.409509 0.571451 1.91709
-0.634203 0.649423 3.95233
-0.62275 0.71521 3.07887
0.706341 0.0211688 1.76437
0.00926838 0.637222 3.48964
-0.70265 0.70766 2.76081
0.741326 -0.131046 2.12565
0.618543 -0.730603 4.17876
0.621428 0.273942 1.60027
0.61255 0.30271 1.63909
0.458709 0.399651 1.16354
0.325492 0.628558 2.16827
0.723904 -0.0948836 1.84872
0.0691806 0.631019 1.26759
0.692513 -0.162563 1.53946
0.713207 -0.594517 2.28638
0.318485 0.632285 2.15808
-0.520376 0.732786 2.54003
0.670019 -0.701739 1.99827
-0.455199 0.736799 2.88183
-0.114546 0.743076 2.55625
0.676101 -0.218531 1.43808
0.41654 0.51794 1.47265
0.392694 0.537226 2.86158
0.735474 -0.488244 2.47399
0.641645 -0.458345 1.3974
-0.40764 0.73629 2.96567
0.50247 0.40346 1.34324
0.240148 0.662262 1.92962
0.450334 0.508996 2.70827
-0.259139 0.712059 3.28522
0.640316 -0.600246 4.03436
0.713447 0.0832029 2.07037
0.73411 -0.0726703 2.03682
0.623121 0.335469 2.13251
0.229154 0.662766 1.86218
-0.32001 0.74864 2.57936
0.284219 0.517211 1.09066
0.690245 -0.427125 3.59158
0.604989 0.328651 1.69339
0.0595739 0.712106 1.93149
-0.179963 0.718303 3.13025
0.730759 -0.162939 1.91435
0.621051 -0.753381 1.69627
-0.108944 0.739824 2.11518
0.737783 -0.229963 2.03194
-0.448142 0.643942 1.40041
0.180629 0.589011 1.19986
0.737858 -0.364648 2.95471
0.6862 -0.27951 1.53279
0.538332 0.204578 1.03381
-0.422397 0.711547 1.88677
0.73888 -0.45046 2.43881
0.240091 0.578639 1.25365
0.665338 -0.410638 1.49443
-0.538746 0.696626 3.51199
0.534838 0.270762 3.38847
-0.646869 0.646839 3.97105
0.685148 -0.597148 3.61404
0.456021 0.479539 1.45039
0.685324 0.108126 1.70189
0.721007 0.0152725 2.6507
0.747695 -0.160075 2.35891
-0.448036 0.706896 1.87488
-0.647698 0.715208 2.60803
0.673479 -0.423979 3.74116
0.37486 0.49975 3.17987
0.582685 0.0574747 1.04335
-0.407417 0.704127 1.79146
0.29615 0.62289 2.64828
0.695857 0.059673 2.87457
-0.713407 0.662397 1.94978
0.197219 0.666201 1.75647
0.521117 0.455073 2.55406
0.747937 -0.251007 2.2954
-0.153753 0.617233 3.88432
0.505691 0.394449 3.05761
-0.112887 0.620227 1.13123
0.71611 -0.63486 2.54828
0.630205 -0.382415 4.03742
0.487247 0.394673 3.15894
0.722657 -0.0177266 1.92025
0.483859 0.345421 3.3774
-0.504675 0.706755 1.96917
0.524137 0.246683 3.51852
0.399711 0.370549 3.63819
0.570016 0.149514 1.0801
0.414292 0.494648 1.34743
-0.204235 0.696605 1.57752
0.0884432 0.677237 1.58854
-0.168502 0.642662 3.74805
0.502498 0.369052 3.19008
0.230764 0.586226 3.22984
0.542485 0.281435 3.31165
0.715426 -0.566036 2.23671
0.108095 0.688305 1.73402
0.344297 0.556443 2.97515
0.666151 -0.249071 1.38768
0.72856 -0.56423 2.70117
-0.334772 0.697732 3.48399
0.617922 -0.0260823 3.67735
-0.0814484 0.656898 3.5241
-0.0853436 0.639314 1.2252
0.303076 0.570674 1.35997
0.694954 0.115366 2.67226
0.629576 -0.749396 4.07602
-0.396627 0.744517 2.67189
0.18212 0.57414 3.44915
-0.342981 0.721921 3.21801
0.636257 -0.692297 1.68987
0.349456 0.614734 2.07621
0.467442 0.368588 1.10915
0.634507 0.260023 1.66408
-0.533668 0.686728 3.62463
0.694479 -0.316529 1.6189
-0.281512 0.704392 1.67563
0.715115 -0.0301049 2.89039
0.648621 -0.420241 3.93308
0.716552 -0.647372 2.70645
0.403478 0.545252 2.73179
0.347895 0.430005 0.95557
0.486542 0.480658 2.65664
0.626313 -0.446863 4.10067
0.260725 0.567665 3.24068
-0.130435 0.705465 1.64404
0.733562 -0.521242 2.73618
0.478488 0.491202 2.63449
0.0475994 0.718531 2.02157
0.469482 0.438298 1.32988
0.231305 0.494165 3.701
-0.306173 0.747473 2.34629
-0.13185 0.63512 1.19942
0.716052 -0.0903323 3.01302
-0.151949 0.693709 3.34283
0.748195 -0.313045 2.40284
0.705736 -0.702396 3.03097
-0.261153 0.749953 2.49768
0.726855 -0.347975 3.15032
0.71388 0.0338698 1.88938
0.742686 -0.361646 2.83011
-0.171866 0.684526 1.48352
0.705746 -0.561346 3.37641
-0.330809 0.746709 2.7035
0.0456806 0.590209 3.69286
0.318885 0.438415 0.920186
0.620455 0.327755 2.42557
-0.109643 0.701733 1.61611
0.740297 -0.192307 2.07076
0.743921 -0.148971 2.63432
0.670838 -0.608728 1.80782
0.661073 -0.695413 3.809
0.729229 -0.457919 2.19809
0.664621 0.223189 2.54419
0.738947 -0.377277 2.2222
-0.00599686 0.730257 2.51031
0.718061 -0.630391 2.60701
0.556227 0.395233 1.62207
0.715684 -0.0960743 3.02842
0.420983 0.566237 1.99681
-0.0578046 0.682975 1.48991
0.637543 -0.0114825 3.52879
0.709004 -0.640184 3.19003
0.376129 0.585391 1.78424
0.735526 -0.494586 2.79886
0.672852 -0.702612 3.66833
0.534704 0.453796 1.87293
0.418522 0.569998 2.12378
0.712592 -0.217592 3.23937
-0.136795 0.638505 3.7314
0.698766 0.140844 2.03973
0.606347 0.283893 2.87882
0.061533 0.703897 1.81173
-0.35907 0.71938 3.25584
0.591199 0.346441 1.65619
0.0456336 0.705986 2.78976
0.671929 -0.702079 2.01933
0.574487 0.253673 3.22419
0.677648 -0.186478 1.4401
-0.0453958 0.723286 1.88715
0.746938 -0.209368 2.24483
0.367837 0.586503 1.73643
0.702708 -0.344588 1.71052
0.681208 -0.683028 3.58469
0.602097 -0.755477 1.5749
0.451715 0.458545 3.03197
0.634662 0.189778 3.02827
0.502596 0.203164 0.916835
0.685155 0.188355 2.05346
0.2953 0.6006 1.51672
0.698231 0.0779992 1.77811
-0.0682161 0.727576 1.92405
-0.578574 0.654324 1.62863
0.0514269 0.676283 3.09906
0.31101 0.45171 0.940395
0.708505 0.0719954 2.64451
0.507354 0.489366 1.96547
0.742772 -0.377652 2.81042
0.6206 0.2786 1.61075
0.6536 0.25151 1.85311
-0.497972 0.667892 3.80541
0.291283 0.645317 2.24265
0.0933418 0.711268 2.44863
0.574944 0.344356 2.83638
0.403071 0.434919 3.37255
-0.00668784 0.696728 3.04796
0.0121068 0.617093 1.15782
-0.65736 0.71382 2.95521
0.721174 -0.438664 3.22782
0.723937 0.0261927 2.5252
0.611611 0.0997086 1.20239
-0.2169 0.68889 3.4654
0.255503 0.590247 3.11682
0.577557 0.188973 1.16222
0.728885 -0.00585526 2.07978
0.645414 -0.278944 1.28455
0.691269 0.171361 2.35163
0.674071 0.162649 1.72687
-0.538719 0.667209 3.81227
0.507619 0.433981 1.49513
0.653458 0.267222 1.98276
0.671424 -0.305544 1.44941
0.270917 0.551793 3.29681
0.508135 0.391745 1.32796
-0.306918 0.662498 1.39538
0.0350309 0.707249 1.79932
0.605762 0.321378 2.68214
-0.565883 0.716723 2.26035
0.723038 -0.449218 3.19402
0.664917 -0.627547 1.79248
0.737877 -0.242117 2.9165
0.63652 0.22224 2.88706
0.726021 -0.431201 3.1536
0.0678426 0.703107 1.8162
0.601752 -0.714372 4.31246
-0.336479 0.746879 2.68701
0.50344 0.44772 2.77088
-0.193465 0.710275 3.23665
-0.407765 0.701105 1.76374
0.749739 -0.218049 2.44662
0.0850969 0.690253 2.85669
0.673311 -0.0503707 3.34795
0.372611 0.515489 1.29846
0.628458 -0.396578 4.0581
0.705902 -0.612102 2.2134
-0.392711 0.685401 1.61691
0.620306 0.128244 1.27781
0.674289 -0.516549 1.6846
0.668971 -0.0593209 1.39678
0.517341 0.250239 1.03109
0.236604 0.600396 3.11671
0.704666 0.0537037 2.78004
-0.545539 0.725189 3.02361
0.586964 0.0584863 3.68324
0.243356 0.627654 1.54827
0.235262 0.667588 2.01782
0.387391 0.533989 2.91379
0.352326 0.594764 2.59249
-0.0594731 0.635033 3.63228
0.686585 0.156735 2.59337
-0.766072 0.602702 4.29034
-0.589527 0.675077 1.80947
-0.225555 0.746815 2.67872
0.434479 0.395531 1.07796
0.502138 0.267252 3.55883
0.595268 0.349802 2.60555
0.699863 -0.446243 1.80249
-0.131752 0.731852 1.93944
-0.0795535 0.677913 1.44715
-0.0583694 0.685549 1.50805
0.0300219 0.726918 2.25049
-0.623189 0.716609 2.49333
0.197538 0.525622 0.981351
0.68882 -0.0322596 3.18126
0.720245 -0.428605 1.9997
0.00876896 0.584071 1.01874
0.700884 -0.633044 3.36342
0.714431 -0.266991 1.75855
0.514387 0.448753 2.67428
0.68049 -0.10304 3.38172
-0.286477 0.640087 3.89635
-0.0499435 0.650813 1.29503
0.627617 0.200043 1.43855
0.727275 -0.343455 3.1432
0.684131 0.0899491 1.65247
-0.0492184 0.692918 1.56872
0.739277 -0.145357 2.06438
0.546509 0.429751 2.50611
-0.259321 0.725241 3.12759
0.561069 0.150651 3.60285
0.435898 0.547862 2.41534
-0.761501 0.638401 1.84498
0.499405 0.499475 2.21669
0.658675 0.115815 1.49001
0.635682 -0.654632 4.0633
0.358936 0.404304 3.66198
0.19284 0.56294 3.47967
0.558424 0.253506 3.31856
0.668796 0.204424 2.60046
-0.197873 0.668233 1.38382
0.262055 0.490705 3.62609
0.745214 -0.386284 2.66043
0.672166 -0.105566 3.45135
0.534908 0.321772 3.20492
-0.250688 0.658058 3.73946
0.260151 0.640079 2.66168
-0.258804 0.749954 2.50089
0.732105 -0.528355 2.80678
0.476815 0.509625 2.45362
0.640667 0.301893 2.14103
0.681233 0.177787 2.55871
