ply
format ascii 1.0
comment Created by Open3D
element vertex 400
property double x
property double y
property double z
end_header
0.318396 -0.740264 -1.71476
0.48994 -2.75346 -2.24818
0.628872 -0.943475 -1.30037
0.050742 -2.16801 -0.844507
0.0878227 -1.0995 -2.41686
0.321055 -0.915784 -1.93108
0.318127 -1.42154 -0.536464
0.622417 -1.22332 -1.70821
0.516923 -2.71446 -2.3426
-0.00133643 -3.60066 -2.36759
0.27621 -0.513913 -1.45277
0.679162 -1.41047 -1.17873
0.272455 -2.45655 -1.34984
0.564568 -2.47774 -2.04928
0.607214 -2.13916 -1.66143
-0.0243669 -0.397128 -1.65275
0.373381 -0.621465 -1.45932
0.0404394 -3.18084 -1.86411
0.52531 -0.725408 -0.558912
0.0833962 -2.68903 -1.36217
0.678914 -1.37052 -1.65281
0.69708 -1.63171 -1.74215
0.583752 -2.21615 -1.68416
0.671709 -1.30668 -1.09034
0.552611 -0.786449 -0.621481
0.598262 -1.34141 -1.89548
0.0284964 -2.187 -0.841278
0.441751 -2.07527 -2.76872
0.460327 -2.01002 -1.17654
0.335239 -1.95767 -2.87355
0.0388484 -0.796778 -2.12294
0.565622 -2.08772 -1.46773
0.247926 -1.70061 -0.656568
0.550207 -2.41498 -1.86339
0.395181 -1.66668 -0.793746
0.579524 -1.52906 -0.977589
0.526908 -2.68687 -2.54947
0.3701 -1.87686 -2.76242
0.567588 -0.701877 -1.08299
0.335303 -1.51668 -0.617029
0.429263 -2.12707 -1.24062
0.22271 -1.48969 -2.64913
0.262457 -2.89593 -1.84578
0.662481 -1.93569 -1.62752
0.576016 -2.46026 -2.08793
0.304897 -1.28931 -0.443101
0.411678 -1.65603 -2.52897
0.579106 -1.80342 -1.20484
0.153315 -2.19138 -3.28958
0.629297 -1.67013 -1.20821
-0.0799172 -3.55048 -2.17114
0.398653 -1.47849 -0.664088
0.188684 -2.58816 -1.3801
0.152537 -3.39766 -2.35682
0.0804688 -3.0952 -1.81396
0.648502 -1.44743 -1.84759
0.292021 -1.0597 -2.1343
-0.0202445 -0.851843 -2.24807
0.636629 -1.11767 -0.892143
0.544338 -1.3289 -0.778606
-0.0179464 -3.05128 -1.63864
0.272943 -1.35362 -2.45952
0.415871 -1.64782 -0.805828
0.0282206 -0.736646 -2.05988
0.218164 -1.53082 -2.69171
0.194985 -2.91886 -1.76405
0.270164 -1.87868 -2.91037
0.636318 -1.0901 -1.49955
0.487621 -2.2986 -1.5325
0.415432 -1.7626 -2.60569
0.470643 -1.73497 -2.4898
0.340062 -1.33453 -0.506235
0.49407 -0.845727 -1.55341
-0.0493136 -3.58551 -2.26529
0.529361 -2.52348 -1.96557
0.253717 -1.08596 -2.21185
0.452301 -0.604656 -1.27219
0.298887 -0.410443 -1.24199
0.665564 -1.83206 -2.02603
0.312676 -1.57788 -2.61033
0.545667 -1.9933 -2.49989
0.30675 -2.11464 -3.02235
0.603897 -2.1628 -2.38108
0.607143 -1.58047 -2.07958
0.492153 -2.70436 -2.14971
0.610594 -0.9178 -0.78755
0.577975 -0.931893 -1.46941
0.650411 -2.06919 -2.13039
0.608126 -0.824029 -1.16013
0.242523 -0.877904 -1.98972
0.533455 -2.42374 -2.67372
0.642576 -2.03719 -1.66957
0.296455 -1.70946 -0.712627
0.456381 -2.45391 -1.65517
0.538405 -2.03985 -2.54159
0.581716 -0.782751 -1.20406
0.615247 -2.3184 -2.06915
0.200147 -0.651612 -1.75596
0.0235537 -1.66284 -3.02943
0.635456 -2.22427 -2.04474
0.603353 -1.99516 -2.33797
0.645391 -1.9965 -2.16818
0.269896 -2.0727 -0.978873
0.461543 -0.847058 -1.62022
0.446269 -0.518346 -1.12183
0.615155 -1.74511 -2.17239
0.556776 -2.50356 -2.0594
0.3884 -1.35027 -2.29715
0.527381 -1.51648 -2.20967
0.245557 -2.17547 -1.04326
0.594627 -0.888074 -0.735296
0.55802 -2.44378 -1.9458
0.148952 -2.89074 -1.66375
0.363106 -1.81629 -0.871217
0.366995 -1.58073 -2.53548
0.345202 -0.985157 -1.97813
0.557115 -2.27269 -1.67563
0.21286 -2.7329 -1.56999
-0.0239356 -2.08672 -0.716208
0.0816001 -1.49683 -2.81821
0.520756 -1.4385 -0.807836
0.121976 -0.384929 -1.46475
0.486228 -2.18335 -1.39874
0.0288005 -2.34985 -3.55258
0.425876 -2.32329 -2.92817
0.04826 -1.64062 -0.442206
0.6177 -1.61521 -1.13067
-0.0146513 -0.516009 -1.81369
0.519674 -2.40621 -2.7188
0.00864084 -0.392404 -1.61016
0.441093 -2.38033 -2.91895
0.286965 -2.14807 -3.07388
0.55679 -0.923145 -1.51489
0.449161 -1.27984 -0.604768
0.53832 -0.657423 -1.11368
0.697221 -1.48249 -1.33105
0.643305 -0.964477 -0.928513
0.559505 -2.35623 -1.80473
0.562659 -0.655304 -0.770916
0.0393505 -3.02933 -1.68206
0.00362746 -2.54893 -1.14244
0.517058 -0.534912 -0.794858
0.223276 -1.34784 -0.399423
0.336986 -1.58289 -2.5807
0.586552 -2.45983 -2.23526
0.0316501 -2.74182 -1.3606
0.320814 -2.77585 -1.79541
0.0451912 -2.05439 -0.746317
0.595016 -2.37296 -2.01512
0.258405 -1.66222 -2.75432
-0.151109 -0.417922 -1.80852
0.570593 -0.66714 -0.91812
0.544684 -0.708809 -0.620251
0.563981 -1.30338 -1.93947
0.430225 -1.47094 -0.698627
-0.0333684 -3.43221 -2.08102
0.0320319 -2.11509 -0.784587
0.263192 -0.384101 -1.25721
0.00946816 -2.02563 -0.694236
0.471357 -0.506617 -1.01146
0.63803 -0.895634 -0.969356
0.19526 -2.2173 -1.02614
0.0158463 -2.05616 -0.723565
0.320892 -1.58524 -2.60529
0.688708 -1.59901 -1.37173
0.119727 -0.79604 -2.03564
0.120993 -1.80952 -0.620714
0.0486348 -2.36422 -3.53768
0.605517 -0.933979 -1.38343
0.139031 -2.22337 -0.974028
0.499507 -0.598888 -1.12858
0.184767 -0.844144 -2.0196
0.634614 -1.11177 -0.883945
0.594776 -0.753362 -1.05018
0.449366 -1.35752 -2.20836
0.557306 -1.12681 -1.768
0.613535 -1.47939 -1.98062
0.61041 -2.19212 -2.35253
0.635498 -1.30605 -0.964941
0.54776 -2.09745 -1.43494
0.667551 -1.27101 -1.59897
0.546693 -1.89057 -1.21829
0.57538 -1.62766 -1.04491
0.659766 -2.07721 -2.0035
0.500207 -1.55322 -2.29276
0.628618 -2.22904 -1.94482
0.0852771 -3.45266 -2.30462
-0.00715592 -3.33307 -1.98959
0.561733 -0.833118 -0.641592
-0.0336371 -3.39538 -2.03269
0.456452 -0.735775 -1.47416
0.546035 -0.605717 -0.771393
0.216566 -1.37965 -0.412465
0.301326 -1.58503 -2.63195
0.408715 -1.96475 -2.7597
0.524397 -1.77861 -2.41664
0.125363 -1.28931 -2.57198
0.69865 -1.37881 -1.52899
0.236909 -2.97962 -1.9109
0.558466 -0.71741 -0.6649
0.563387 -0.649828 -0.920042
0.653911 -1.58968 -1.94235
0.48137 -1.788 -2.50848
0.441284 -2.0893 -1.22249
0.505772 -1.69943 -2.3973
0.000876812 -1.55257 -2.95443
0.255831 -2.03039 -3.04029
0.454401 -1.87354 -1.04264
0.681792 -1.17407 -1.12033
0.148174 -1.16833 -2.42372
0.281231 -1.87928 -0.828321
0.306015 -2.05375 -2.98346
0.533335 -2.49003 -1.92342
0.0591283 -2.98115 -1.65123
0.444905 -1.17508 -0.542613
0.077711 -0.958447 -2.27215
0.454861 -2.26656 -1.43051
0.0531532 -2.27724 -3.47415
0.555503 -2.55301 -2.50945
0.589409 -0.725487 -0.988503
0.565777 -2.16802 -2.51911
0.683277 -1.89856 -1.76534
-0.021892 -2.22543 -0.831411
0.473337 -1.38506 -2.19346
0.633872 -1.98032 -1.55107
0.664405 -1.38302 -1.10141
0.123447 -0.993832 -2.26285
0.104715 -1.17118 -2.47445
0.535202 -2.28628 -1.63097
0.513084 -1.81957 -1.0901
0.602356 -1.60677 -2.11229
0.57736 -1.5204 -2.10563
0.0408849 -2.24948 -0.905282
0.153089 -0.804294 -2.00809
0.588263 -1.49776 -2.06085
0.0777322 -1.47325 -2.80056
0.114212 -2.13891 -3.30317
0.516131 -0.618972 -1.11361
0.470792 -1.44698 -0.737615
0.638213 -1.44004 -1.05365
0.667523 -1.50621 -1.82623
0.455794 -2.59692 -1.84673
0.136358 -2.37099 -3.42843
0.514003 -1.13504 -1.86787
0.525967 -2.69525 -2.384
0.634749 -1.33826 -1.79055
0.695623 -1.367 -1.25344
0.494169 -2.13891 -1.36619
0.27795 -0.495014 -1.42031
0.580315 -1.73135 -2.2574
0.523202 -0.555345 -0.872115
-0.0225355 -2.01862 -3.37243
0.555779 -1.47952 -0.89627
0.682556 -1.82554 -1.60146
0.379872 -2.01328 -2.84022
0.269719 -2.05329 -0.961705
0.201872 -1.6447 -2.81103
0.0515269 -2.59078 -1.22959
0.0892369 -3.12126 -1.85844
0.613493 -0.915446 -1.32094
0.0717572 -0.582938 -1.81384
0.606846 -2.16588 -2.36865
0.152848 -0.45851 -1.53979
0.639458 -1.61292 -1.18807
0.351192 -2.80547 -1.89593
0.353249 -2.13266 -2.95975
0.49535 -1.28069 -2.0545
0.513593 -2.26364 -2.69995
0.505299 -1.55122 -2.28152
0.0852134 -1.51829 -2.83398
0.232935 -1.52224 -0.517839
0.645836 -0.970807 -0.941363
0.648318 -1.83836 -1.43624
0.278508 -2.31306 -3.18705
0.143592 -2.4272 -1.16675
0.0976514 -2.19729 -3.36457
0.516075 -0.744904 -0.533776
0.0402627 -2.05662 -3.33142
0.338485 -2.95032 -2.07963
0.500299 -1.29014 -0.68381
0.693827 -1.68595 -1.79191
0.283062 -0.788611 -1.82704
0.338011 -1.86914 -2.80602
0.58902 -1.21873 -1.79407
0.512094 -2.62922 -2.08947
0.359592 -0.489372 -1.26869
0.582218 -0.702273 -0.961187
0.632083 -0.993535 -0.863045
0.488024 -1.90961 -2.5777
0.39895 -2.98483 -2.32829
0.299262 -2.14986 -3.05632
0.356431 -3.07453 -2.34798
0.204121 -1.24606 -2.43877
0.702291 -1.34319 -1.3346
0.522156 -2.69603 -2.33005
0.165102 -0.724789 -1.89464
0.564872 -2.42344 -1.94041
0.429249 -2.31944 -2.91943
0.43456 -1.39846 -0.657001
0.261736 -0.429418 -1.33843
0.610728 -2.30904 -1.98478
0.634169 -0.884273 -1.11888
0.342487 -2.54793 -1.55376
0.460885 -0.474416 -0.965614
0.442635 -2.57638 -1.78508
0.701167 -1.69211 -1.61897
0.0680661 -0.410545 -1.57045
0.657022 -1.00431 -1.002
0.488681 -2.22402 -1.4486
0.495427 -0.717314 -1.35899
0.234116 -2.78423 -1.6606
0.114 -1.3136 -2.60846
0.600376 -1.38713 -1.93329
0.386052 -1.23407 -0.500291
0.446163 -1.04497 -1.89028
0.628413 -1.14111 -1.59372
0.00336583 -1.83424 -3.19674
0.202834 -2.29878 -1.10939
0.0968029 -2.47812 -1.16654
-0.041394 -2.16737 -3.50573
-0.0848245 -0.602588 -1.99973
0.2378 -0.542964 -1.553
0.470254 -2.52432 -1.78124
0.465877 -1.04137 -0.510302
0.518967 -1.39611 -0.777303
0.646267 -1.21549 -1.62081
0.34154 -2.90381 -2.01616
0.419237 -2.97531 -2.40154
0.0189717 -3.12272 -1.76565
0.693057 -1.23177 -1.36264
0.545533 -1.19377 -1.86719
0.291363 -2.23584 -3.12157
0.253851 -2.26737 -1.13817
0.344856 -2.11538 -2.9628
0.159905 -2.02215 -0.822265
0.486327 -2.21184 -2.74643
0.705601 -1.59695 -1.58826
0.629169 -2.25661 -2.06153
0.649329 -2.14494 -1.97755
-0.109969 -3.70002 -2.33226
0.42181 -1.78391 -0.920296
0.295316 -1.57994 -0.618078
0.376414 -0.725726 -1.60542
0.233338 -1.04393 -2.19126
0.465241 -0.950239 -1.74511
0.496368 -1.63189 -0.907882
0.498213 -1.99265 -1.22449
0.62888 -1.60875 -2.03908
0.681319 -1.91596 -1.87593
0.561011 -1.30971 -1.95222
0.672055 -1.54035 -1.8336
0.162847 -3.22756 -2.11918
0.545123 -1.39952 -2.07098
0.503191 -0.549378 -0.990542
0.353108 -1.28701 -2.28732
0.539869 -0.65503 -1.1013
0.0786868 -1.94125 -0.684973
0.0470155 -0.824109 -2.1475
0.342678 -2.566 -1.57514
0.590823 -1.01468 -0.734469
0.506974 -1.26892 -0.682166
0.371924 -1.58671 -0.706994
0.645588 -1.18645 -1.58873
0.153965 -2.51941 -1.26861
0.091832 -2.0326 -0.76869
0.679176 -1.10706 -1.2531
0.150515 -2.47629 -1.22199
0.126395 -0.774831 -2.0021
0.265229 -2.35494 -1.23705
0.682542 -1.8056 -1.91166
0.509902 -0.794784 -0.519946
0.176296 -0.657077 -1.7928
0.628363 -1.851 -2.18976
0.0848457 -1.2763 -2.60295
-0.104624 -0.416068 -1.76169
0.454606 -2.89066 -2.38811
0.68863 -1.80959 -1.85196
0.24835 -1.49351 -2.62067
0.56005 -1.80641 -1.16684
0.335246 -0.836317 -1.81403
0.596254 -2.29008 -1.85159
0.364832 -0.703939 -1.59403
0.546106 -0.615269 -0.941301
0.530712 -2.66017 -2.28899
0.631319 -1.24772 -1.7076
0.229718 -2.66582 -1.51781
0.601635 -2.33926 -1.98454
0.339022 -0.559665 -1.42308
0.375 -2.55864 -1.62267
0.58349 -0.85673 -1.33513
0.203986 -1.06937 -2.25439
0.285926 -2.95146 -1.96494
0.414831 -1.96699 -1.06769
0.58139 -2.44855 -2.41284
0.395407 -0.427358 -1.06559
0.514491 -1.76282 -1.04336
0.553226 -0.983141 -1.60408
0.607002 -1.94203 -2.30364
0.249078 -2.8816 -1.80419
0.263786 -2.07672 -0.975529
