ply
format ascii 1.0
comment Created by Open3D
element vertex 400
property double x
property double y
property double z
end_header
-1.73124 0.723777 -0.262106
-2.56715 2.43449 0.599082
-1.56254 0.681304 0.266235
-1.0637 1.94882 0.697633
-2.26785 1.24851 -0.596584
-1.94292 0.903943 -0.280626
-0.825144 1.13286 0.667486
-1.94841 0.983122 0.197669
-2.65552 2.40154 0.551447
-2.5475 3.42075 0.615588
-1.45338 0.5133 -0.274117
-1.55225 1.03695 0.596107
-1.64814 2.15825 0.746008
-2.39431 2.13271 0.613435
-2.035 1.76559 0.668226
-1.45669 0.593193 -0.645042
-1.52331 0.557475 -0.154905
-2.07716 2.96779 0.686961
-0.84595 0.43837 0.454698
-1.59818 2.45302 0.722399
-1.95093 1.0724 0.338919
-2.07452 1.29934 0.437692
-2.05394 1.84637 0.678774
-1.45788 0.93914 0.583136
-0.921946 0.485984 0.473239
-2.11347 1.12342 0.145998
-1.0526 1.97568 0.693012
-2.88805 1.95594 -0.0343648
-1.52876 1.6578 0.74224
-2.90704 1.92418 -0.220886
-1.94815 0.971566 -0.635612
-1.84134 1.71411 0.709951
-0.933428 1.42375 0.697332
-2.21927 2.0591 0.664855
-1.11918 1.34125 0.715904
-1.34811 1.15854 0.685521
-2.83305 2.40329 0.441275
-2.81778 1.8215 -0.181083
-1.31097 0.473896 0.210787
-0.916431 1.21728 0.686921
-1.58507 1.78262 0.746757
-2.59069 1.54813 -0.422241
-2.1308 2.61091 0.710661
-2.00389 1.55932 0.622531
-2.43047 2.11772 0.593465
-0.719474 1.01294 0.638699
-2.60697 1.57803 -0.145369
-1.58205 1.42621 0.70878
-3.20541 2.27555 -0.440694
-1.59051 1.28783 0.675935
-2.33318 3.38844 0.63316
-0.982681 1.1599 0.689092
-1.65136 2.3169 0.737452
-2.58551 3.16897 0.628284
-2.04182 2.86734 0.697525
-2.11324 1.18178 0.258484
-2.12294 1.07106 -0.330805
-2.03347 1.06644 -0.712427
-1.24348 0.766325 0.562927
-1.13136 0.976146 0.660054
-1.83654 2.85338 0.693632
-2.43404 1.3791 -0.35995
-1.13707 1.31658 0.715062
-1.88021 0.91632 -0.641664
-2.63079 1.59174 -0.426185
-2.03066 2.65225 0.715284
-2.89437 1.89468 -0.324814
-1.75775 0.831901 0.245216
-1.88851 1.94259 0.727847
-2.68994 1.67835 -0.127787
-2.61458 1.61019 -0.0446162
-0.797566 1.04319 0.654605
-1.69681 0.70233 -0.0044833
-2.43398 3.41682 0.625235
-2.31196 2.17709 0.653269
-2.17383 1.12398 -0.383544
-1.40059 0.476265 -0.0139435
-1.26965 0.382777 -0.204427
-2.33041 1.52768 0.373638
-2.61547 1.57274 -0.295128
-2.69853 1.79466 0.132552
-3.04279 2.0942 -0.236951
-2.65106 1.89282 0.317878
-2.31006 1.34999 0.179763
-2.47701 2.37706 0.625332
-1.11192 0.593428 0.49688
-1.67968 0.721623 0.139933
-2.44663 1.75295 0.429313
-1.41497 0.569187 0.261959
-1.94816 0.919463 -0.384416
-2.90384 2.19362 0.252222
-2.04469 1.66207 0.638182
-1.00684 1.41525 0.708043
-2.00033 2.10875 0.722084
-2.73731 1.84413 0.129843
-1.43322 0.553592 0.200681
-2.41327 1.97428 0.559673
-1.6943 0.713267 -0.410648
-2.84108 1.85119 -0.666643
-2.38876 1.88025 0.539095
-2.58944 1.74369 0.255232
-2.46574 1.69894 0.370517
-1.27401 1.77756 0.737757
-1.73777 0.729514 -0.0602223
-1.25659 0.38359 0.0138163
-2.41739 1.50011 0.221342
-2.40283 2.16013 0.615781
-2.35268 1.29474 -0.198803
-2.37185 1.3543 0.0263195
-1.33184 1.88689 0.739745
-1.05498 0.568386 0.496854
-2.29774 2.09184 0.643574
-1.91791 2.63658 0.718825
-1.19117 1.49634 0.729293
-2.57916 1.53705 -0.21787
-2.00532 0.957974 -0.252393
-2.04162 1.9067 0.692473
-1.84673 2.45616 0.731969
-0.904947 1.89798 0.668332
-2.6655 1.64954 -0.602992
-1.16057 1.08577 0.683564
-1.3676 0.482077 -0.453661
-1.75675 1.82534 0.736125
-3.39085 2.51158 -0.581001
-3.05253 2.19893 -0.00130371
-0.64184 1.44099 0.633334
-1.51048 1.2354 0.679049
-1.61632 0.713376 -0.659201
-2.93286 2.19215 0.211166
-1.43614 0.56642 -0.602766
-3.06062 2.23866 0.0425913
-3.08178 2.14017 -0.259992
-1.70663 0.73141 0.0978353
-0.928211 0.956399 0.655142
-1.31602 0.45508 0.152523
-1.70184 1.1117 0.568727
-1.25543 0.637558 0.472867
-2.16525 1.99571 0.67138
-1.03531 0.390905 0.340054
-1.89904 2.81235 0.701464
-1.35023 2.34114 0.705811
-1.01532 0.314451 0.235642
-0.649953 1.09731 0.632087
-2.60307 1.56052 -0.260621
-2.56143 2.13366 0.527036
-1.5787 2.52372 0.71299
-2.0994 2.47186 0.717073
-0.960476 1.84023 0.685993
-2.36503 2.02305 0.599659
-2.72359 1.69295 -0.363329
-1.52932 0.697124 -0.802148
-1.16666 0.418599 0.27798
-0.905562 0.423498 0.429429
-2.12831 1.11454 0.0807454
-1.02684 1.14273 0.690373
-2.26221 3.25102 0.652003
-0.995451 1.90423 0.687903
-1.26094 0.380369 -0.250449
-0.893949 1.82592 0.672394
-1.17321 0.344871 0.080877
-1.27757 0.587415 0.414294
-1.29821 1.94523 0.733652
-0.926643 1.85309 0.677505
-2.61635 1.57418 -0.283117
-1.74937 1.22137 0.600629
-1.91397 0.917711 -0.53514
-0.855307 1.57492 0.679956
-3.39015 2.51175 -0.552339
-1.62037 0.697042 0.203439
-1.22651 1.97089 0.722982
-1.30076 0.426706 0.0883582
-1.93984 0.923901 -0.457076
-1.23462 0.761103 0.562655
-1.3041 0.499442 0.272162
-2.30844 1.25744 -0.107667
-1.95275 0.942057 0.0734799
-2.21398 1.24603 0.183222
-2.63424 1.91041 0.351418
-1.33264 0.938346 0.619919
-1.80585 1.72654 0.718576
-1.88472 0.985264 0.308052
-1.59009 1.51877 0.722714
-1.41794 1.25463 0.698232
-2.34418 1.73653 0.503379
-2.43456 1.41142 -0.0160744
-2.30075 1.87311 0.586614
-2.51538 3.2419 0.634322
-2.18276 3.1399 0.666677
-0.950506 0.524204 0.492968
-2.21543 3.21264 0.657562
-1.59426 0.615684 -0.0464346
-1.02015 0.356963 0.303267
-0.662388 1.12972 0.636725
-2.62929 1.58769 -0.310387
-2.84764 1.87681 -0.108467
-2.5854 1.60985 0.0517938
-2.44682 1.41447 -0.552687
-1.85632 1.05148 0.418925
-2.18586 2.70466 0.701881
-0.951823 0.430487 0.42115
-1.16216 0.407706 0.263268
-2.21766 1.31437 0.286047
-2.64366 1.65282 -0.0198626
-1.57007 1.74172 0.745442
-2.54799 1.54874 0.00869902
-2.74957 1.75743 -0.700314
-3.02031 2.05037 -0.324052
-1.39152 1.52466 0.736764
-1.4691 0.825304 0.50897
-2.31396 1.27809 -0.522917
-1.12285 1.58475 0.724339
-3.00031 2.0369 -0.248467
-2.27306 2.14039 0.660434
-1.87556 2.75682 0.706766
-0.857687 0.860003 0.630827
-2.11862 1.11198 -0.601903
-1.78038 1.91669 0.739655
-3.32545 2.42594 -0.560875
-2.79358 2.26888 0.414579
-1.24469 0.469301 0.285267
-2.75058 1.93655 0.224519
-2.12649 1.53741 0.549759
-1.02461 2.03223 0.681529
-2.31174 1.26678 -0.0695034
-1.93087 1.60052 0.662843
-1.47485 1.00958 0.610611
-2.13873 1.11795 -0.547218
-2.33595 1.30968 -0.577589
-1.99454 1.92271 0.706097
-1.45347 1.4562 0.727545
-2.33943 1.37963 0.173175
-2.3086 1.31743 0.11564
-1.12258 2.03218 0.701008
-1.90834 0.904041 -0.493646
-2.27252 1.28609 0.134416
-2.64505 1.62876 -0.60869
-3.18978 2.2523 -0.501373
-1.29924 0.433344 0.117642
-1.0769 1.1077 0.687585
-1.42934 1.06435 0.644481
-2.11313 1.21931 0.311999
-2.18449 2.25916 0.697394
-3.34175 2.45767 -0.432298
-2.01755 0.985359 -0.00296066
-2.69256 2.38669 0.527542
-2.04169 1.08712 0.222688
-1.61788 1.00256 0.548661
-1.72644 1.77866 0.735786
-1.42377 0.491545 -0.266106
-2.47052 1.51823 0.147322
-1.08733 0.340134 0.211575
-3.1629 2.22815 -0.692841
-1.25957 1.11622 0.68462
-1.97555 1.45145 0.594681
-2.90905 1.94445 -0.144857
-1.25642 1.75858 0.736515
-2.74116 1.71457 -0.44042
-1.4547 2.36567 0.717025
-2.08799 2.89171 0.694511
-1.56831 0.668084 0.231056
-1.66946 0.727321 -0.564712
-2.64238 1.89215 0.32772
-1.45786 0.540436 -0.43256
-1.57001 1.23098 0.664594
-2.20473 2.49667 0.703099
-3.01525 2.07716 -0.163759
-2.18885 1.14634 -0.0366355
-2.89285 2.07074 0.145008
-2.42722 1.40552 -0.00784994
-2.68391 1.66836 -0.597588
-0.781398 1.25868 0.666911
-1.26859 0.643577 0.471397
-1.81929 1.45531 0.659489
-3.19831 2.3018 -0.240064
-1.42314 2.17081 0.731758
-3.24245 2.31941 -0.514589
-0.822732 0.455948 0.470484
-3.16486 2.22318 -0.60893
-2.37638 2.65357 0.674689
-1.02275 0.951195 0.65693
-2.1233 1.35456 0.437634
-1.8165 0.799154 -0.319059
-2.83782 1.83734 -0.229427
-2.00432 1.00848 0.128828
-2.42456 2.29413 0.631979
-1.33436 0.423704 -0.135388
-1.21438 0.449081 0.282233
-1.1982 0.658384 0.512195
-2.72387 1.76344 0.0110407
-2.62391 2.68921 0.610374
-3.07321 2.13297 -0.241624
-2.6326 2.78991 0.615311
-2.36616 1.31867 -0.452018
-1.687 0.990789 0.500894
-2.64473 2.38135 0.552205
-1.80587 0.813559 -0.468181
-2.29358 2.07027 0.640944
-3.04619 2.19268 0.00352788
-0.982865 1.0726 0.678009
-1.33618 0.431672 -0.269432
-2.33763 1.95619 0.593975
-1.4016 0.601546 0.331123
-1.87059 2.2311 0.739264
-1.12412 0.315907 0.0802956
-2.12228 2.23918 0.708637
-1.98026 1.33082 0.532372
-1.43462 0.546377 -0.531825
-1.33085 0.675464 0.465745
-1.8065 1.86612 0.733257
-1.51273 0.563571 0.0294844
-1.94221 2.50262 0.727363
-2.47583 1.44623 -0.566824
-2.15349 1.16693 0.151452
-0.800776 0.933584 0.639869
-1.98957 0.945683 -0.107167
-1.84165 0.893184 0.218045
-2.99889 2.03209 -0.678868
-1.38499 2.02318 0.738123
-1.40702 2.23764 0.724242
-3.28904 2.38406 -0.698455
-1.75271 0.849607 -0.758552
-1.52398 0.57198 -0.336866
-2.12519 2.18037 0.704062
-0.821014 0.730656 0.594958
-1.12741 1.046 0.676367
-1.88458 0.951716 0.254323
-2.31692 2.60305 0.685328
-2.69518 2.68167 0.583332
-1.97388 2.91449 0.691948
-1.69 0.904407 0.424629
-2.04134 1.01962 0.0490399
-3.13754 2.21987 -0.236843
-1.43047 1.97507 0.744096
-3.01112 2.06706 -0.179855
-1.07794 1.76648 0.713015
-2.9113 2.04697 0.0765916
-1.94233 1.24288 0.503284
-2.40468 1.91346 0.542428
-2.32673 1.79576 0.542838
-2.47758 3.5547 0.606118
-1.25768 1.44653 0.730074
-0.906598 1.29142 0.689752
-1.6648 0.666348 -0.173684
-2.13991 1.09528 -0.408674
-1.86133 0.834025 -0.0684614
-1.26209 1.27768 0.712988
-1.58609 1.63105 0.736369
-2.2905 1.35733 0.229519
-2.22245 1.56944 0.501783
-2.13864 1.12329 0.0754352
-2.12668 1.24727 0.328589
-2.36292 2.98382 0.669345
-2.24521 1.22529 0.0497257
-1.17753 0.362389 0.135228
-2.31738 1.25695 -0.250466
-1.30588 0.450451 0.15861
-0.908293 1.71793 0.683777
-1.9772 0.994407 -0.628451
-1.89158 2.24956 0.737744
-1.07092 0.678233 0.557881
-1.02158 0.929508 0.651864
-1.02179 1.27191 0.702846
-1.85261 0.922566 0.255356
-1.52877 2.25925 0.734271
-0.999701 1.80159 0.69689
-1.5713 0.788862 0.407234
-1.48093 2.21735 0.733584
-1.88557 0.891362 -0.524259
-1.53337 2.05862 0.746492
-2.2374 1.47986 0.429597
-0.815146 0.499584 0.497974
-1.71463 0.735252 -0.443203
-2.45433 1.58643 0.27494
-2.45109 1.42816 -0.603335
-1.51232 0.665442 -0.746792
-2.68901 2.58976 0.572732
-2.19007 1.47148 0.46575
-2.57978 1.5344 -0.387968
-1.54052 1.43273 0.715804
-1.83847 0.811877 -0.251803
-2.21393 1.92774 0.640861
-1.6461 0.651874 -0.187071
-1.16661 0.389962 0.223139
-2.6087 2.34046 0.560864
-1.95591 0.99941 0.216473
-1.80079 2.38284 0.736443
-2.3373 1.9865 0.602784
-1.46615 0.516599 -0.191985
-1.94724 2.23407 0.733149
-1.55682 0.635045 0.17339
-2.18284 1.14092 -0.448266
-2.25237 2.66403 0.695444
-1.40681 1.62787 0.742979
-2.70877 2.15262 0.428959
-1.16983 0.323121 -0.0395223
-1.40597 1.40021 0.723534
-1.78976 0.797462 0.0807206
-2.55418 1.69149 0.248415
-2.08651 2.59928 0.714827
-1.26869 1.78356 0.737121
