ply
format ascii 1.0
comment Created by Open3D
element vertex 400
property double x
property double y
property double z
end_header
0.200966 -2.34004 0.440902
0.0435415 -3.6712 1.19729
0.615508 -2.09451 0.479362
1.05148 -2.69707 2.39826
0.206541 -2.32879 0.436462
0.608906 -0.860646 1.56597
0.757274 -1.22139 0.364867
0.999942 -2.1434 0.952826
0.96531 -2.23036 0.910973
1.11688 -2.53473 1.66349
0.562287 -3.51372 1.29428
1.05773 -2.85078 1.45827
0.707198 -3.40586 1.32383
0.602976 -0.942336 0.184357
0.165027 -2.00998 0.277546
0.757187 -1.09661 0.381682
0.867459 -1.15259 1.13255
0.789522 -1.38862 0.415114
0.746569 -3.37076 1.33375
0.215915 -3.91077 1.4139
0.323753 -2.98836 0.834365
0.904732 -1.22288 0.999997
0.994853 -2.81338 1.27789
-0.238739 -1.95739 0.221911
0.0494853 -2.02848 0.268397
0.610009 -2.64414 0.759496
0.798592 -3.3263 1.35354
0.180757 -1.99555 0.27411
1.03673 -1.84658 1.48308
0.885462 -1.60928 0.593065
1.09292 -2.89129 2.3369
1.051 -2.8896 1.46392
0.744283 -1.0736 0.363368
0.99691 -2.33748 2.28876
0.817622 -1.45431 0.462356
1.01791 -2.75591 1.29143
-0.0177141 -3.25474 0.917436
1.12031 -2.63818 1.71589
0.984894 -2.59377 1.12639
0.892245 -1.7567 0.629396
1.07554 -2.49434 2.09973
0.401316 -1.65231 0.196116
0.880962 -1.6315 1.88817
0.458195 -2.1811 0.440683
0.931198 -1.63925 1.72188
0.706767 -0.747257 0.964741
0.677639 -2.53018 0.739337
0.139945 -2.59736 0.562843
1.08406 -2.91663 2.40762
0.461661 -3.09565 0.955817
0.740804 -0.938434 0.410624
0.0640443 -3.00372 0.779147
0.299217 -1.21439 0.0284893
0.379051 -1.70868 0.208688
0.553452 -3.59534 1.34787
1.0885 -2.48573 1.37778
1.11969 -2.62542 1.8426
0.993761 -2.33927 1.0153
0.432839 -2.33004 0.503955
0.268622 -1.68227 0.165343
1.08741 -2.90836 2.38252
0.899495 -2.86195 1.15255
0.909268 -3.23206 1.42331
0.711523 -0.784983 0.464032
0.676742 -1.13642 0.259183
0.690211 -1.08218 1.69037
0.626157 -0.898847 0.218772
0.838004 -1.55709 0.505603
0.60948 -3.4956 1.31287
0.901199 -2.87546 1.16359
1.09432 -3.05157 2.43373
0.848212 -1.28145 0.53115
0.979658 -2.97836 1.35822
1.09577 -2.29021 1.70222
0.436856 -1.75573 0.248329
0.875088 -1.42683 0.569249
1.01739 -2.47486 1.13272
0.348812 -2.84117 0.754624
1.0663 -2.55983 2.21027
0.712476 -0.720646 0.766369
-0.177519 -1.84349 0.174507
0.34951 -1.10153 0.023278
0.837534 -1.70485 0.533823
0.0721792 -1.37575 0.021687
0.914524 -1.58047 1.703
0.661869 -1.20338 0.245472
1.07524 -2.38775 1.99149
1.02832 -2.08508 1.89048
1.08361 -2.59371 1.40137
0.937714 -1.68511 0.711208
0.350704 -1.87197 0.263772
1.08178 -2.0868 1.42452
-0.262162 -2.16069 0.312096
0.891381 -1.21786 0.736112
1.03421 -2.64509 1.26528
0.984006 -2.27388 0.966268
0.688447 -1.31223 0.28396
0.953737 -1.58427 0.764771
-0.210508 -1.86836 0.184449
0.896274 -3.24468 1.41377
0.970968 -2.20813 2.25099
0.849249 -1.39057 1.66297
0.13721 -2.95511 0.764411
0.898146 -1.40277 1.49484
0.870673 -3.01414 1.21579
1.07004 -2.08075 1.62067
1.04331 -1.83062 1.36259
0.15458 -1.7611 0.171092
1.0634 -2.84711 1.47401
1.01986 -3.20935 2.89359
0.382741 -2.56827 0.611188
0.477442 -3.55834 1.27631
1.00465 -1.71343 0.94263
-0.0158443 -2.24752 0.362901
0.565348 -1.28808 0.175723
0.635851 -1.39619 0.25057
0.847335 -2.40785 0.824663
0.576834 -2.28314 0.546997
1.04864 -2.18003 1.11128
1.06194 -2.39783 1.22829
0.530045 -1.1995 0.135941
0.84033 -3.36376 1.42924
0.215082 -1.62287 0.13061
0.0188556 -2.70969 0.604711
0.930991 -2.62253 1.05103
0.739713 -3.25917 1.24721
1.03962 -1.81896 1.1324
0.200092 -2.60367 0.578611
1.03364 -1.76031 1.26351
0.83203 -2.15527 0.685964
0.643028 -3.33124 1.21953
0.812389 -0.984709 1.02197
0.563618 -2.91088 0.891577
1.0841 -2.16354 1.32178
0.980889 -1.92286 0.847814
0.0855517 -2.81176 0.671716
0.896704 -1.63342 1.83883
1.01473 -2.26246 1.03217
0.879244 -1.4687 1.67229
0.70809 -1.00424 0.317116
1.11804 -2.63387 1.89057
0.0322677 -1.6653 0.116666
0.53894 -3.58362 1.33015
0.293828 -3.81783 1.37643
-0.00142287 -1.94802 0.227731
0.964786 -1.8428 1.86216
0.989447 -2.56084 1.11707
1.08758 -3.00329 2.44592
1.10087 -2.53793 1.47044
0.278476 -2.04552 0.318354
1.0223 -1.88146 1.64687
0.64413 -2.82174 0.885969
0.715804 -1.92631 0.478704
0.577674 -3.16337 1.06152
0.413128 -1.04859 0.0443497
1.006 -1.92055 0.920292
1.06285 -2.85251 1.4758
1.07834 -2.12623 1.27935
0.691129 -1.05674 1.64935
1.07734 -2.10268 1.58232
0.996926 -1.60212 1.28212
1.05274 -2.05592 1.11577
0.238179 -3.83504 1.3674
1.08139 -3.03057 1.67147
0.151278 -2.19168 0.358673
1.01501 -2.51657 2.38941
0.860536 -3.04991 1.22769
0.909777 -1.23488 0.954297
0.862656 -1.61894 1.92961
0.610693 -2.70456 0.794852
0.447409 -3.35479 1.11959
1.08541 -3.06124 1.71307
0.859953 -1.14885 1.174
1.11956 -2.58927 1.7696
0.953411 -1.75205 1.78892
1.10117 -2.58965 1.49235
0.878316 -1.44442 1.63979
0.658872 -2.79892 0.882066
1.07248 -2.42105 1.27864
0.716029 -0.994109 0.333641
0.399118 -2.06812 0.365362
0.311343 -3.22334 0.977207
0.549004 -2.4418 0.613953
1.12006 -2.69097 1.71382
-0.100878 -2.61515 0.541566
0.51641 -2.13493 0.444572
0.460462 -1.86668 0.301977
0.975797 -1.50072 0.949659
1.11153 -2.43214 1.59845
0.322386 -1.36667 0.0760988
0.921564 -3.31 1.50137
0.789363 -1.99778 0.57427
0.483527 -1.49605 0.179945
0.565703 -0.880133 0.150819
0.951831 -2.15009 2.25515
0.902822 -1.48656 0.629778
0.49368 -1.57653 0.210159
0.466606 -2.10308 0.407513
1.05638 -2.04229 1.13706
0.0966069 -2.64195 0.579304
0.66514 -1.75786 0.37628
0.390927 -1.51876 0.146689
0.994886 -2.35884 2.31659
1.0145 -2.08657 1.95507
-0.0166641 -2.26787 0.372624
0.937912 -1.90522 2.03434
0.993675 -2.02856 0.903824
0.895774 -1.18989 0.942248
0.0235819 -2.64491 0.570077
0.0706416 -2.76535 0.643107
1.10354 -2.3105 1.55941
1.1213 -3.03945 2.15483
0.913018 -1.24803 0.993916
0.918641 -1.56797 0.663401
1.03916 -1.91428 1.06222
0.610618 -2.57326 0.719764
0.985273 -1.67561 1.5278
1.00287 -2.87012 1.33142
0.296347 -2.05374 0.326789
0.348052 -2.7563 0.704936
0.273644 -1.29077 0.0398172
0.959604 -1.45816 1.24867
0.998739 -1.58158 1.15355
1.00319 -3.21515 2.96064
0.877698 -1.23907 0.642357
0.220199 -2.87628 0.73723
0.901672 -1.2651 1.19459
0.905287 -1.22206 0.977328
1.00775 -1.66605 1.3438
-0.161407 -1.77184 0.145883
0.747469 -0.939179 1.25767
0.0823015 -3.44121 1.05391
0.358515 -3.05156 0.885418
0.890169 -1.263 1.26508
0.912531 -1.34789 0.70944
0.768256 -1.34365 0.382029
0.536464 -2.07731 0.427807
0.803882 -0.941852 0.686141
0.552352 -2.68949 0.753069
0.0552934 -2.51003 0.502696
1.02626 -1.81031 1.49936
0.855922 -2.33812 0.799186
1.04704 -2.74388 2.45551
1.03319 -1.75685 1.18358
1.00117 -1.59269 1.15697
0.839855 -1.16747 0.554195
0.945804 -1.6116 0.734599
1.12016 -3.05896 1.9717
-0.0874053 -2.24822 0.357648
0.943524 -2.5433 1.02587
0.801893 -1.92871 0.560707
0.502197 -3.6465 1.35385
1.01194 -2.30703 2.2028
1.02988 -1.80452 1.45689
0.998709 -2.50246 1.10486
1.11308 -2.46212 1.61059
0.41297 -1.21906 0.0744796
0.656706 -3.03185 1.02683
0.520142 -2.19417 0.474433
1.09647 -2.47581 1.42095
0.811036 -1.0587 0.533894
0.90222 -1.21637 0.850628
0.604165 -2.91528 0.918072
0.706411 -1.0653 1.61893
0.231963 -2.95645 0.787667
0.980638 -3.07414 1.42802
0.376827 -3.52608 1.2047
0.744015 -0.827445 0.988542
0.486638 -2.87386 0.829493
-0.201096 -2.16129 0.312577
0.948303 -3.16987 1.43937
0.95724 -2.01736 0.817826
-0.125349 -2.70824 0.589593
-0.191398 -1.82009 0.164805
0.179534 -3.5807 1.17109
0.881004 -2.39291 0.857388
0.720794 -0.900574 0.384397
0.546046 -1.88806 0.351128
0.984856 -2.57454 1.1156
0.813177 -0.958607 0.732103
0.625467 -3.19874 1.11586
0.882298 -1.2723 0.637301
0.117987 -2.38649 0.448673
0.859106 -1.11118 1.06876
0.411817 -1.16075 0.0621052
0.526509 -1.94903 0.366522
1.04939 -2.05795 1.74156
0.510941 -2.49791 0.625287
0.443776 -1.23992 0.0938048
1.02439 -1.76381 1.04195
0.954658 -1.59254 0.766079
0.776844 -1.01619 0.458071
0.961463 -2.1615 0.876063
1.0793 -2.60015 1.38613
0.644366 -0.805556 0.276288
0.995435 -1.93226 1.84993
1.10393 -2.4336 1.47178
1.08966 -2.50327 1.39057
0.717367 -2.98188 1.04032
0.841799 -2.5382 0.888451
0.705328 -1.46545 0.326895
0.930472 -2.05691 0.781296
0.240332 -3.86442 1.38932
0.540932 -3.34135 1.15995
0.0491595 -2.81707 0.668817
0.993177 -2.38114 2.34385
0.115378 -2.12659 0.322094
0.969349 -1.55631 0.840736
0.919147 -1.477 1.52621
1.03118 -2.00273 1.01735
0.298124 -2.36215 0.475805
0.947069 -1.60283 1.60211
0.351511 -2.36464 0.492959
0.859559 -1.56767 1.87368
0.329432 -3.19572 0.965858
0.817009 -2.03126 0.616845
1.00378 -2.16013 2.08166
0.414917 -3.55757 1.24402
1.02125 -2.09071 1.93008
0.766237 -0.927637 1.14604
0.713084 -2.44857 0.721044
0.96728 -1.77495 1.76336
0.511643 -3.44613 1.21591
-0.115476 -2.65711 0.562822
0.465092 -2.94466 0.862762
0.518202 -3.71335 1.41278
0.460335 -2.23296 0.466627
0.929044 -1.7046 1.81862
0.762728 -0.847708 0.620288
1.08442 -2.24002 1.30464
0.587717 -1.14324 0.171488
0.262915 -1.53389 0.110881
0.306276 -2.05531 0.330226
1.03297 -2.43751 1.15435
1.06352 -2.91269 1.5189
0.46762 -2.72146 0.730738
0.853963 -1.49534 1.7954
0.975854 -3.0611 1.40943
0.983645 -1.77797 0.842157
0.803637 -0.933117 0.728843
0.961187 -1.54097 1.42428
0.843828 -2.15432 0.69901
1.03669 -2.16799 1.94876
0.709935 -1.86193 0.449133
0.946998 -2.6894 1.11518
0.668248 -1.82869 0.404182
0.93731 -1.9111 2.04315
0.964829 -1.79822 0.788304
0.748955 -2.27371 0.660381
1.00979 -1.66763 1.01886
0.713374 -0.782214 0.475628
1.06764 -2.06784 1.62077
0.998746 -2.30643 1.01186
0.573055 -2.28301 0.544861
1.03309 -2.44417 2.25201
0.677226 -0.798096 1.23709
1.02165 -2.51429 2.3622
0.999878 -2.14337 2.07867
-0.00468185 -2.61115 0.548482
1.0193 -3.04235 2.78714
0.26236 -1.38247 0.0625295
0.674743 -2.44327 0.690143
0.664477 -0.984567 1.61193
0.929458 -1.52446 0.698211
0.852712 -1.113 1.12473
0.752268 -2.76279 0.932037
0.810874 -1.23556 1.55732
0.776243 -0.964413 1.18493
0.733402 -0.951322 0.385529
0.838782 -1.12553 1.23981
0.810356 -0.946266 0.823051
0.385372 -2.16482 0.405547
0.590583 -0.825143 1.55712
1.08652 -2.16164 1.57963
0.32792 -2.63473 0.629672
-0.156345 -2.00129 0.241724
0.312065 -3.76194 1.34366
0.824148 -0.988408 0.738432
0.734131 -0.839521 1.0844
0.626204 -2.06917 0.474575
-0.115145 -1.77538 0.148662
0.637849 -3.33967 1.2217
0.657674 -0.809544 1.32982
0.287075 -3.05813 0.865287
1.07758 -2.09352 1.55938
0.0160028 -2.16276 0.325948
1.06193 -2.24987 1.18121
0.819369 -1.12065 0.518097
0.963999 -1.89622 1.93131
0.381163 -2.4631 0.554018
0.046904 -2.24829 0.370107
0.787145 -0.908935 0.636983
0.913445 -1.45722 1.51886
0.616498 -0.995748 0.195098
0.0705711 -2.23659 0.36754
0.622977 -2.47571 0.673682
0.704999 -0.740949 0.954347
0.495709 -0.930779 0.0866135
0.652345 -1.31601 0.249715
1.08269 -3.04772 1.69042
