ply
format ascii 1.0
comment Created by Open3D
element vertex 200
property double x
property double y
property double z
end_header
3.00427 1.02469 0.267381
3.77906 1.81808 0.204832
6.08018 5.35355 -0.193639
7.86719 1.68735 -1.75195
3.80421 1.58215 0.153825
1.10392 1.14727 0.613427
8.00156 3.82246 -1.00116
7.15519 5.05916 -0.518939
5.13513 6.76234 -0.0791724
3.47046 2.16423 0.335977
-0.537598 1.61479 0.226879
5.74876 0.0504307 -1.88943
0.678858 2.2868 0.639633
3.08141 1.72552 0.377268
11.1263 5.67883 -2.06919
6.52355 0.980829 -1.33935
1.51154 1.38087 0.611081
6.32991 5.60233 -0.260092
2.33947 3.91173 0.526188
0.610428 1.2967 0.622347
6.19675 6.09214 -0.23704
0.970015 1.00288 0.598757
1.3933 -0.706973 -0.633462
1.94405 3.60613 0.572316
1.22742 -0.379715 0.0771209
-0.470373 0.682077 -0.0240354
3.7426 0.266911 -0.265725
9.60239 4.695 -1.54688
2.95384 5.02532 0.36919
0.54084 -0.381453 -0.580988
7.90924 1.64022 -1.81592
1.98264 0.0946669 0.233827
6.08688 0.699432 -1.26567
3.82236 0.384637 -0.238598
3.03545 -0.420199 -0.45931
0.00260031 0.537863 0.379295
-0.0605679 0.0409385 -0.341778
2.22731 -0.76406 -0.891521
4.42972 -0.399098 -1.52701
-0.101994 0.0655426 -0.246589
4.52857 -0.382198 -1.77407
-0.551969 0.959421 0.0330201
0.653553 2.87432 0.591949
2.93132 -0.382831 -0.372976
1.86894 -0.745383 -0.566625
4.14977 1.27077 -0.0358757
-0.0695461 1.32059 0.49577
8.09255 4.69381 -0.89184
2.48687 3.75698 0.526987
0.14718 -0.178022 -0.166369
0.445182 2.37739 0.604326
11.5636 5.63886 -2.30305
1.25955 -0.579516 -0.151189
3.30772 0.097209 -0.179235
6.51978 3.63892 -0.436513
3.07603 2.49752 0.452132
4.13928 -0.425447 -1.21559
5.50236 7.54367 -0.226567
1.89255 3.85524 0.549709
3.11523 2.84267 0.459315
4.22014 -0.417493 -1.93611
2.77065 2.0939 0.485044
3.46027 -0.529521 -1.78056
8.15835 4.02637 -1.02847
9.43694 3.94597 -1.66003
-0.278083 0.300605 -0.0865971
-0.694672 1.39235 -0.235854
0.85813 -0.572745 -0.342164
1.57155 2.13865 0.648715
2.11181 -0.13148 0.0911444
1.92273 4.11965 0.519227
2.81257 1.1804 0.352049
5.25966 -0.0135826 -1.44698
7.50997 1.4728 -1.65428
7.30787 5.68373 -0.539014
-0.72258 1.83485 -0.516384
1.13583 0.308996 0.43825
7.63138 1.48643 -1.73048
7.64068 1.74559 -1.56119
4.7502 0.00402221 -1.00817
8.54436 3.71562 -1.27617
4.74045 1.21225 -0.283092
5.10968 4.08207 0.0423424
3.84949 -0.551334 -1.51393
3.07667 3.47571 0.468273
-0.242058 0.307326 0.0431264
6.52698 5.06721 -0.322458
2.59546 -0.563992 -0.433722
5.73656 1.34697 -0.683973
1.90216 -0.759757 -0.788036
6.80668 1.34088 -1.27839
0.406887 1.06821 0.580463
9.35462 5.31692 -1.31998
0.888697 0.983445 0.596957
2.12019 -0.606127 -0.316465
11.5066 5.81423 -2.22975
3.45694 -0.598183 -1.57388
5.3065 2.63648 -0.152653
4.83544 -0.228903 -1.46551
2.06189 -0.764239 -0.731867
2.7907 2.45059 0.503807
9.51528 5.51862 -1.35828
2.62218 -0.701262 -1.27996
-0.684179 1.33622 -0.207571
3.06189 2.68433 0.463898
0.0314811 0.484509 0.372576
0.482031 0.335446 0.433391
1.55842 -0.391083 0.0346011
8.61345 3.67948 -1.31932
2.0333 1.26397 0.528711
-0.437954 1.32854 0.296132
5.7367 6.80754 -0.184605
-0.484904 1.39222 0.26164
1.95364 3.1044 0.60579
3.65289 1.53401 0.190316
2.28808 -0.493525 -0.234395
1.69518 1.06911 0.550111
10.3619 4.62938 -1.94499
2.7226 0.572513 0.220886
3.05695 -0.696898 -1.16589
2.99439 2.06831 0.436859
-0.137234 0.865876 0.407353
0.151881 0.105679 0.239908
5.8322 4.01307 -0.167159
6.70982 3.86679 -0.475664
7.40398 5.24311 -0.589814
11.5419 5.86076 -2.23678
7.57997 2.31169 -1.24271
1.6406 1.88288 0.635634
3.35052 3.23155 0.423097
6.5421 4.21497 -0.379228
9.63542 3.79741 -1.81504
0.841107 1.55503 0.649429
0.172656 0.627996 0.460773
7.39993 2.31189 -1.14594
2.00861 -0.727438 -0.523512
2.16347 4.07817 0.519032
-0.180488 0.816261 0.374197
3.89955 3.87492 0.318443
-0.236249 0.249128 -0.0543007
-0.317676 0.420457 -0.38401
5.94364 2.97768 -0.325101
4.60177 -0.264671 -1.29558
2.80822 -0.67271 -1.38857
5.82504 0.0721061 -1.94023
2.87135 2.8293 0.502092
5.33131 0.56496 -0.888493
0.792169 0.743816 0.556855
-0.0462988 1.91324 0.511779
-0.685799 1.36537 -0.299636
-0.19617 1.72138 0.457826
5.34111 4.72196 -0.00565418
4.87892 6.76337 -0.042691
11.9545 6.25372 -2.35631
3.56465 5.37759 0.275994
6.73685 0.553565 -1.98397
5.58491 5.46823 -0.0738907
1.52576 -0.711293 -0.439614
1.06371 1.00771 0.59675
5.70339 0.619338 -1.07636
1.1475 -0.132537 0.250883
4.13698 5.14883 0.223047
4.0377 -0.504644 -1.42301
1.4476 1.48472 0.626299
2.50561 0.189622 0.140854
3.2024 0.452414 0.0281154
4.63583 6.38908 0.0340079
0.454627 2.72596 0.57557
0.263051 2.31506 0.573977
3.64212 0.692035 -0.0365752
2.38578 2.16122 0.557223
2.77878 2.92078 0.518103
3.50302 4.47112 0.363223
1.66081 2.57153 0.642025
1.33871 0.938292 0.568748
0.223921 -0.239189 -0.289399
-0.438847 0.904184 0.196553
5.58599 1.76895 -0.461426
3.5165 0.355938 -0.12852
8.3225 3.55279 -1.21218
5.1383 -0.190289 -2.14075
4.90674 1.12969 -0.384223
-0.186669 0.16467 -0.14651
2.44697 2.88808 0.564712
4.54841 2.98476 0.129925
4.07878 0.541685 -0.27189
8.13631 3.61024 -1.10982
4.50907 0.314424 -0.601242
0.894129 -0.582931 -0.331422
3.08241 5.10494 0.350439
4.6907 -0.299274 -1.49815
3.86565 -0.512075 -1.18343
2.88064 -0.619236 -0.663651
-0.32113 0.507585 0.122465
6.07713 4.84389 -0.199042
2.86109 -0.646672 -1.46785
4.50229 4.20424 0.19099
0.56741 1.66596 0.63733
-0.038376 2.05275 0.507913
-0.665401 1.24568 -0.201499
