ply
format ascii 1.0
comment Created by Open3D
element vertex 400
property double x
property double y
property double z
end_header
0.300538 -2.25399 0.734677
-0.0842452 -3.67819 1.17344
0.395819 -1.92099 1.07178
-0.892138 -2.66973 2.4916
0.304065 -2.24118 0.735568
-0.843145 -0.900835 1.42876
0.34007 -1.03312 1.00768
0.179643 -1.94102 1.64381
0.221276 -2.02677 1.60606
-0.275661 -2.3904 2.15627
0.0307163 -3.41197 1.64165
-0.0485206 -2.67763 2.04946
0.044769 -3.27684 1.76432
0.35385 -0.77817 0.744852
0.341028 -1.92315 0.573987
0.294481 -0.916169 0.997735
-0.282025 -1.05214 1.47549
0.353729 -1.19247 1.08481
0.0455228 -3.23486 1.79775
-0.130451 -3.89611 1.46397
0.182906 -2.90143 1.13116
-0.134272 -1.09069 1.45132
0.0673523 -2.63114 1.90012
0.190805 -1.96561 0.193832
0.300648 -1.9684 0.4735
0.291603 -2.48945 1.28765
0.0413012 -3.1822 1.84553
0.347545 -1.90491 0.583582
-0.330345 -1.72538 1.89687
0.300859 -1.40574 1.288
-0.772263 -2.83627 2.52473
-0.0467198 -2.71729 2.05221
0.298464 -0.894696 0.974195
-0.913511 -2.32317 2.33761
0.342673 -1.25524 1.14204
0.0519684 -2.57235 1.91815
0.0225064 -3.25391 0.920243
-0.292951 -2.49623 2.20054
0.137209 -2.40125 1.78371
0.309804 -1.55047 1.33354
-0.677009 -2.42596 2.33318
0.429125 -1.50982 0.682577
-0.801088 -1.6178 1.93496
0.378571 -2.03753 0.93085
-0.63425 -1.5883 1.89583
-0.313576 -0.679796 1.19507
0.311235 -2.36052 1.31861
0.232894 -2.5334 0.781247
-0.830342 -2.8731 2.55625
0.1691 -2.98743 1.32531
0.222745 -0.773115 0.975058
0.115163 -2.97298 0.884124
0.416054 -1.09167 0.447485
0.422311 -1.57119 0.678115
0.00134661 -3.50015 1.67286
-0.0570136 -2.30875 1.98201
-0.404586 -2.50273 2.2615
0.172461 -2.13918 1.69846
0.350211 -2.19569 0.962655
0.402228 -1.56717 0.558317
-0.809457 -2.86067 2.54534
0.14289 -2.6831 1.76316
0.00877271 -3.07455 1.96109
0.125412 -0.641388 0.954297
0.372222 -0.956448 0.873652
-0.856779 -1.11076 1.5928
0.324199 -0.735791 0.775477
0.340772 -1.35485 1.19611
0.031892 -3.38556 1.68858
0.137625 -2.69722 1.77212
-0.814201 -3.00351 2.59782
0.254721 -1.09222 1.17723
0.0330804 -2.8046 1.95147
-0.379497 -2.16732 2.1218
0.42666 -1.60757 0.754165
0.270831 -1.23022 1.24051
0.116931 -2.28024 1.79719
0.225625 -2.74261 1.09112
-0.759211 -2.50714 2.39016
-0.148298 -0.623848 1.09686
0.230777 -1.83435 0.205704
0.415277 -0.970313 0.47128
0.353409 -1.50052 1.23146
0.35842 -1.30187 0.273926
-0.64045 -1.53345 1.86355
0.393866 -1.02224 0.863908
-0.611407 -2.30817 2.26319
-0.622305 -2.01542 2.12831
-0.0523922 -2.41678 2.00545
0.24286 -1.48256 1.40277
0.403159 -1.74263 0.705374
-0.199715 -1.93546 1.94123
0.153945 -2.17925 0.248704
0.0836107 -1.05058 1.30725
0.0540315 -2.45838 1.90276
0.193503 -2.07185 1.65604
0.400375 -1.12541 0.921777
0.179253 -1.38988 1.42846
0.213429 -1.86786 0.18616
0.0141376 -3.08848 1.94708
-0.925472 -2.20032 2.27764
-0.683597 -1.36215 1.76001
0.149032 -2.906 0.932087
-0.514684 -1.33697 1.71946
0.113783 -2.84524 1.79247
-0.374014 -1.96133 2.02839
-0.228485 -1.69081 1.8399
0.364899 -1.67197 0.475395
-0.0602835 -2.675 2.06163
-1.20131 -3.24049 2.7873
0.29534 -2.45193 1.0084
0.0184256 -3.47326 1.56679
0.0830035 -1.52682 1.57976
0.244881 -2.20822 0.497068
0.430455 -1.11723 0.759051
0.425824 -1.21404 0.872485
0.28539 -2.2135 1.4882
0.36757 -2.12111 1.10022
0.0758123 -1.98711 1.76997
0.0364596 -2.20937 1.87172
0.426128 -1.03544 0.696055
0.00512798 -3.2187 1.9245
0.392551 -1.51862 0.486553
0.169888 -2.6773 0.715274
0.184086 -2.43121 1.70423
0.0883618 -3.1171 1.73228
-0.0366099 -1.64687 1.71995
0.248505 -2.5267 0.841393
-0.165911 -1.61143 1.77181
0.333637 -1.95527 1.3688
0.0858113 -3.20619 1.64647
-0.254778 -0.889038 1.34861
0.224345 -2.77569 1.35315
-0.091775 -1.99328 1.90307
0.205431 -1.71932 1.54274
0.168701 -2.76814 0.820654
-0.751295 -1.60848 1.92401
0.14844 -2.06289 1.71354
-0.658307 -1.4308 1.80172
0.304057 -0.830583 0.910018
-0.444172 -2.51825 2.28531
0.331494 -1.60289 0.329752
0.00690171 -3.48997 1.6499
-0.086085 -3.78219 1.49812
0.291973 -1.89817 0.397931
-0.687743 -1.79526 2.02445
0.139017 -2.36722 1.7781
-0.83976 -2.96077 2.59109
-0.117404 -2.36919 2.04654
0.36694 -1.93478 0.696429
-0.468022 -1.78636 1.97156
0.243649 -2.66942 1.40602
0.400178 -1.73484 1.13243
0.148836 -3.03872 1.4871
0.413136 -0.906824 0.528364
0.154467 -1.72144 1.60008
-0.0607116 -2.68057 2.06284
-0.0675186 -1.9528 1.87147
-0.827702 -1.08017 1.56935
-0.332468 -1.97488 2.01866
-0.238126 -1.47193 1.72661
0.0428263 -1.86795 1.75754
-0.0995186 -3.81125 1.44863
-0.174741 -2.87501 2.20257
0.310923 -2.11238 0.629424
-0.946378 -2.5048 2.42962
0.107938 -2.88374 1.795
-0.0899588 -1.09422 1.43454
-0.847965 -1.61642 1.93822
0.276844 -2.55229 1.31476
0.0875807 -3.263 1.43298
-0.200743 -2.90945 2.2313
-0.321764 -1.05651 1.48926
-0.35137 -2.45747 2.21959
-0.653119 -1.70053 1.96483
-0.123037 -2.42183 2.06532
-0.637064 -1.40302 1.78112
0.248015 -2.64333 1.41331
0.00411351 -2.23634 1.90929
0.291048 -0.821322 0.923573
0.387613 -1.93314 0.826219
0.114054 -3.15036 1.2264
0.337363 -2.28973 1.13317
-0.278111 -2.54651 2.20702
0.14542 -2.60751 0.567658
0.390321 -1.97936 0.975723
0.419398 -1.71572 0.817387
0.0106385 -1.33147 1.5275
-0.248236 -2.28403 2.10416
0.424077 -1.23859 0.513367
-0.0327468 -3.15751 2.02203
0.370099 -1.79885 1.25347
0.441443 -1.33735 0.721779
0.349888 -0.723042 0.687159
-0.952278 -2.15017 2.25489
0.246778 -1.28932 1.3032
0.440415 -1.41626 0.75734
0.391224 -1.9559 0.910018
0.0229066 -1.85711 1.76929
0.210179 -2.58931 0.759015
0.42233 -1.57128 1.01331
0.433177 -1.37736 0.629438
-0.932853 -2.34819 2.35293
-0.68338 -2.02976 2.14904
0.241295 -2.22933 0.50421
-0.831385 -1.88695 2.09674
0.189893 -1.82549 1.59714
-0.0973212 -1.0529 1.40997
0.185417 -2.60905 0.692505
0.174703 -2.72326 0.786826
-0.24898 -2.16388 2.06
-0.566849 -2.94432 2.47962
-0.119007 -1.1118 1.45904
0.245662 -1.36821 1.34543
0.0469205 -1.72794 1.69843
0.308075 -2.41564 1.25792
-0.434784 -1.58116 1.85027
0.0395132 -2.69128 1.94203
0.369964 -1.93942 0.717105
0.246472 -2.6543 1.0532
0.413792 -1.17283 0.442507
-0.26262 -1.33858 1.65695
-0.132688 -1.43299 1.66087
-1.26471 -3.26002 2.80745
0.162683 -1.06057 1.2518
0.190459 -2.80582 0.977787
-0.291214 -1.16036 1.55219
-0.114874 -1.08644 1.44034
-0.269844 -1.53944 1.77605
0.244661 -1.75756 0.194652
-0.497018 -0.896208 1.40438
-0.00164267 -3.42737 1.10116
0.171019 -2.96071 1.19561
-0.357159 -1.17155 1.57731
0.148552 -1.16584 1.33101
0.361005 -1.1499 1.04353
0.399394 -1.91675 0.976019
0.0172647 -0.800965 1.16716
0.282073 -2.54633 1.24186
0.223705 -2.46216 0.66613
-0.358092 -1.69567 1.89076
0.29363 -2.14089 1.47258
-0.93133 -2.72403 2.5233
-0.0987593 -1.59653 1.73096
-0.131718 -1.44352 1.66628
0.202735 -0.988585 1.16493
0.208215 -1.41361 1.41061
-0.406173 -2.93646 2.38994
0.216831 -2.22602 0.433464
0.191482 -2.34857 1.69074
0.370135 -1.72762 1.24727
-0.0144054 -3.56281 1.6396
-0.840889 -2.27768 2.303
-0.321644 -1.683 1.87177
0.139073 -2.30725 1.77136
-0.250398 -2.31411 2.11594
0.429964 -1.07444 0.568259
0.18169 -2.888 1.51795
0.381349 -2.0395 1.00251
-0.0926979 -2.30359 2.00894
0.179697 -0.888713 1.11425
-0.00955292 -1.06321 1.37354
0.221363 -2.77364 1.40166
-0.792611 -1.08009 1.56843
0.172829 -2.887 1.02479
-0.00209717 -2.90625 2.00123
0.0254895 -3.45705 1.44038
-0.296818 -0.750718 1.2505
0.232894 -2.75041 1.25099
0.181601 -2.16464 0.301157
-0.00263128 -3.00762 1.99333
0.243843 -1.81129 1.5214
0.116513 -2.70976 0.584417
0.226863 -1.81401 0.18558
-0.0223447 -3.55373 1.26317
0.269115 -2.19558 1.53111
0.226519 -0.738041 0.939321
0.421909 -1.72198 0.918143
0.141592 -2.38127 1.77546
-0.0135288 -0.821409 1.20053
0.13314 -3.06858 1.56025
0.177409 -1.09048 1.25806
0.267587 -2.32033 0.674537
-0.241743 -1.00525 1.4304
0.425421 -1.0171 0.552547
0.415082 -1.78748 0.918093
-0.492346 -1.96238 2.06787
0.324316 -2.3546 1.11457
0.432765 -1.08953 0.60727
0.0198455 -1.58464 1.65365
0.180626 -1.39775 1.43111
0.218162 -0.845478 1.04093
0.2321 -1.95672 1.57524
-0.0397489 -2.42179 1.99509
0.260107 -0.650373 0.806116
-0.640932 -1.87143 2.0576
-0.143229 -2.26877 2.03454
-0.0630191 -2.32713 1.99197
0.185416 -2.82698 1.56915
0.261001 -2.34899 1.53446
0.409749 -1.27413 0.980092
0.272675 -1.85048 1.48608
-0.109892 -3.84204 1.46573
0.092521 -3.23267 1.53102
0.155868 -2.78189 0.788919
-0.951326 -2.37396 2.36836
0.309463 -2.0537 0.57096
0.11456 -1.37034 1.47568
-0.513306 -1.40737 1.76395
0.10368 -1.80802 1.68214
0.320688 -2.25598 0.838296
-0.533864 -1.53193 1.84416
0.331071 -2.24753 0.892807
-0.814462 -1.55993 1.9001
0.125104 -3.11774 1.23212
0.354765 -1.83021 1.30325
-0.777941 -2.12138 2.21395
0.0172154 -3.48342 1.49716
-0.657924 -2.02837 2.14291
-0.396042 -0.864122 1.36289
0.32265 -2.27087 1.32776
-0.619235 -1.71524 1.96724
0.0575684 -3.34847 1.54934
0.131096 -2.65443 0.571972
0.212349 -2.82843 1.2596
-0.0406702 -3.63142 1.69251
0.370372 -2.09044 0.953244
-0.701468 -1.66556 1.95193
0.0311259 -0.711504 1.08532
-0.0578764 -2.0639 1.90598
0.408085 -0.972385 0.754815
0.409009 -1.4186 0.504485
0.371962 -1.93894 0.727528
0.0962542 -2.24377 1.81584
-0.0821507 -2.74431 2.09377
0.270393 -2.59484 1.16306
-0.768282 -1.48064 1.84559
0.00832457 -2.89225 1.98594
0.175298 -1.57913 1.52105
-0.0214797 -0.79892 1.18702
-0.391095 -1.44315 1.75824
0.327657 -1.95332 1.38525
-0.647494 -2.10121 2.17674
0.406639 -1.67035 1.10321
0.153365 -2.50061 1.75976
0.417641 -1.64238 1.04028
-0.837712 -1.89401 2.10149
0.217725 -1.59532 1.48103
0.34711 -2.08566 1.30244
0.00884043 -1.49286 1.61556
0.115667 -0.639973 0.961269
-0.378431 -1.94959 2.0245
0.169467 -2.10599 1.69618
0.367631 -2.12161 1.0959
-0.838936 -2.41086 2.36574
-0.546834 -0.775724 1.31347
-0.92069 -2.49697 2.42135
-0.781367 -2.10588 2.20668
0.182489 -2.58064 0.652638
-1.15246 -3.0652 2.70914
0.412172 -1.26674 0.457661
0.330174 -2.27086 1.27881
-0.825988 -1.01228 1.51732
0.210015 -1.32895 1.3657
-0.291987 -1.0168 1.4532
0.23902 -2.59271 1.51272
-0.649713 -1.20791 1.65173
-0.415475 -0.902515 1.39627
0.244004 -0.783626 0.95808
-0.393444 -1.04912 1.50068
-0.095532 -0.823622 1.24179
0.371206 -2.03501 0.84874
-0.852839 -0.870139 1.40349
-0.311239 -2.02862 2.03378
0.271119 -2.53195 0.98058
0.22253 -1.98993 0.280495
-0.063751 -3.71934 1.48912
-0.00646549 -0.848115 1.21742
-0.380135 -0.778785 1.29176
0.398461 -1.89337 1.07481
0.264319 -1.74978 0.236046
0.083699 -3.21587 1.64437
-0.632059 -0.805149 1.34483
0.157189 -2.98191 1.12553
-0.31507 -1.96269 2.00605
0.269792 -2.11373 0.493363
0.0396559 -2.06086 1.8265
0.212478 -0.943612 1.12254
-0.733768 -1.85672 2.06617
0.317124 -2.3433 0.963065
0.267608 -2.19433 0.554343
0.0433442 -0.766446 1.12347
-0.514581 -1.38878 1.75251
0.364216 -0.827484 0.769587
0.277691 -2.17684 0.571547
0.32867 -2.31243 1.23114
-0.307089 -0.672679 1.18744
0.385358 -0.779612 0.602731
0.41405 -1.13305 0.874394
-0.186026 -2.89388 2.21567
