ply
format ascii 1.0
comment Created by Open3D
element vertex 250
property double x
property double y
property double z
end_header
-0.538404 -0.632978 -1.10615
-1.52083 -2.4621 -0.907185
-1.26323 -2.14801 0.0701399
-0.262525 -0.836694 0.180667
-0.669561 -1.23873 0.326528
-0.548533 -0.871634 0.388743
-0.219138 -0.625225 0.220608
-2.36452 -2.8689 0.0088506
-0.543483 0.0200493 -1.26354
-0.88199 1.58792 -0.0965346
-0.126419 -0.451939 0.162769
-0.385401 0.391982 -1.09132
-3.16266 -3.43212 -0.229346
-0.210702 -0.229814 -0.794713
-0.541748 -1.21907 0.246235
-0.894237 -1.84742 -0.712183
-0.0962734 0.677865 -0.131055
-0.501384 -1.4759 -0.328046
-0.504131 -0.501033 -1.10979
-0.164563 -0.890858 -0.183518
-1.22431 -2.02719 -1.03816
-0.00974354 -0.341041 -0.0494444
-0.700991 1.48612 -0.12762
-0.37812 0.502567 0.257831
-0.383605 -1.27556 -0.365744
-0.381954 -0.433944 -0.978279
-0.655746 1.67202 -0.846629
-0.186656 0.109851 0.23253
-4.44113 -4.13467 -0.556217
-0.173381 0.20846 0.202193
-1.03936 1.34544 -1.65099
-1.05564 1.76521 -0.155935
-0.154003 0.872423 -0.508358
-0.436082 0.527082 0.279628
-0.455648 -0.320906 -1.10198
-0.0556592 0.634284 -0.346503
-0.287135 -1.14092 -0.222501
-3.70453 -4.0233 -1.37135
-4.0858 -4.24967 -1.34161
-0.927407 -1.98655 -0.164604
-4.78564 -4.56945 -1.17106
-0.543107 1.31329 -1.03018
-0.625326 -1.65231 -0.310745
-1.16453 -2.22299 -0.201818
-0.0934488 0.632111 -0.0917107
-3.24248 -3.67923 -0.557506
-0.491402 -1.33265 0.103828
-3.34993 -3.81954 -0.827035
-4.07456 -4.20749 -1.5799
-0.345304 0.206674 -1.04101
-0.0491495 0.482349 -0.485231
-2.3902 -2.96456 -1.47365
-4.66373 -4.37137 -2.1601
-3.13949 -3.68277 -0.713868
-1.05417 -1.80059 0.230641
-2.578 -3.08895 -0.117974
-0.39066 0.346925 0.309829
-0.217609 0.163461 0.246867
-0.374451 0.035453 -1.06598
-0.062071 -0.527224 0.00267873
-4.84398 -4.39243 -0.742867
-3.20824 -3.75616 -0.965654
-3.04627 -3.61038 -0.63187
-2.89704 -3.29339 -0.19268
-0.203159 -0.970909 -0.233008
-4.04251 -4.22426 -1.16024
-0.164752 -0.601399 -0.563132
-0.58829 -1.31478 -0.783356
-0.284313 0.841825 -0.854172
-4.52806 -4.35535 -1.99937
-2.80054 -3.45931 -0.570343
0.0339432 0.0345115 -0.179313
-1.57584 -2.51699 -0.123188
-0.179755 0.481848 -0.781387
-0.339871 -0.573235 0.332669
-0.0444401 -0.0532445 0.0932974
-2.56433 -3.31665 -1.06091
-4.28733 -4.35786 -1.33237
-0.536928 1.54926 -0.693452
-0.907516 -1.57843 -1.02819
-0.4727 1.15273 -0.0223598
-0.120435 -0.760557 -0.0626807
-0.427218 0.33172 -1.14516
-0.027044 -0.480221 -0.147189
-0.0375903 -0.427576 -0.339312
-0.0261757 0.0939829 0.045073
-0.788119 -1.52094 0.247332
-0.771092 -1.48623 -0.914826
-0.601046 1.63848 -0.551632
-0.582463 -1.05193 0.351713
-2.0384 -2.85589 -0.187859
-3.08059 -3.58589 -0.52204
-0.298549 -0.949655 0.159351
-0.0457574 0.27412 -0.54004
-1.62759 -2.65693 -0.428217
-0.506665 -0.53494 0.427239
-0.0905843 -0.515347 0.0817362
0.0238109 -0.135447 -0.252009
-0.604036 1.61488 -0.445028
-0.789569 -1.49879 -0.930849
-0.153116 0.627081 -0.690218
-1.81023 -2.80729 -0.625932
-1.07012 -2.15432 -0.298105
-0.109075 -0.166421 -0.63765
-0.569724 -0.906942 -1.0273
-0.390427 -1.22987 0.0495232
-0.750069 -1.51516 -0.85681
-1.31642 -1.93233 0.28155
-0.748574 1.73432 -0.392439
-2.39483 -2.91039 -0.0177985
-0.624751 -1.63616 -0.119888
-1.08356 -2.15346 -0.521818
-1.01925 -1.5603 -1.18422
-2.0893 -2.93112 -0.270292
-1.85486 -2.82175 -0.779275
-0.400847 0.358156 -1.11204
-3.18633 -3.49818 -0.298664
-0.702931 1.64787 -1.01074
-1.47146 -2.14615 0.208042
-2.863 -3.28902 -1.63191
-1.94431 -2.71952 -1.19797
-0.303858 1.209 -0.49351
-1.49382 -2.45567 -0.119701
-3.77583 -4.0412 -1.49383
-0.25797 1.12755 -0.418174
-3.79798 -4.02308 -1.6028
-0.681351 1.56722 -1.05929
-0.747084 0.861831 -1.45953
-0.564295 1.56452 -0.427726
-1.57854 -2.541 -0.864709
-0.256112 0.733906 -0.846915
-0.485264 -1.34155 -0.557033
-0.556662 0.981291 -1.20733
-3.67768 -3.83496 -0.501796
-3.45889 -3.90274 -1.12465
-0.641673 0.727008 -1.36436
-0.197005 -0.956102 -0.102258
-0.240161 -1.02598 -0.310396
-1.99106 -2.8457 -1.05287
-4.40979 -4.41381 -1.51767
-0.0408636 0.584942 -0.319425
-1.54922 -2.42611 -0.0142847
-0.995011 -1.59216 -1.13089
-3.86273 -3.86575 -0.449026
-0.828134 -1.8433 -0.0573713
-1.72003 -2.67395 -0.235539
-0.0833995 -0.61118 -0.00410334
-0.974024 -2.05233 -0.432289
-0.421905 1.0462 0.0154913
-4.46751 -4.30362 -0.802317
-4.59628 -4.46739 -1.80079
-2.04276 -2.75098 -0.0390465
-0.230833 0.810339 -0.00625971
-0.0549532 0.241585 0.0571089
-2.08727 -3.01769 -0.698048
-0.402485 0.428894 0.293426
-0.00635034 -0.344653 -0.070758
-0.689325 -1.1126 0.3871
-0.167081 0.750222 -0.662207
-0.895594 -1.94385 -0.514353
-0.447821 1.28019 -0.170097
-0.0174222 0.404586 -0.407402
-0.352827 0.558187 -1.03342
-1.282 -2.3347 -0.232418
-0.201641 1.00487 -0.314165
-0.237616 1.08219 -0.488065
-1.0507 -2.07172 -0.655543
-2.30925 -2.98066 -0.147318
-0.0282703 0.454331 -0.422436
-1.88989 -2.8588 -0.738976
-4.65274 -4.50891 -1.15325
-2.26703 -3.14077 -0.593587
-2.46421 -3.24435 -1.04676
-0.484337 -0.428653 -1.10777
-0.286965 -1.12374 -0.0715788
-0.268223 -0.631936 -0.736034
-0.578008 -1.5357 -0.48122
-0.383858 -1.12956 0.140848
-0.900863 -1.74211 -0.862003
-0.722073 1.02346 -1.39635
-0.463337 -1.35804 0.0228015
-0.745821 -1.8011 -0.345307
-1.34539 -2.35842 -0.153854
0.00962971 -0.275179 -0.229041
-3.81429 -4.10396 -1.21358
-2.95479 -3.56091 -0.628863
-0.122676 -0.111012 -0.675646
-0.602209 1.04331 -1.24586
-0.351583 1.18877 -0.748469
-2.70206 -3.156 -0.130871
-0.766128 1.49428 -1.2532
-0.742054 0.758732 -1.47007
-0.168961 -0.0561471 -0.764909
-4.21764 -4.15917 -0.703474
-3.46716 -3.77274 -0.542302
-0.413718 1.29489 -0.782574
-1.21786 -2.20868 -0.767518
-0.0961308 0.738812 -0.222338
-0.299015 0.913164 -0.00350409
-0.23863 0.22647 0.248989
-1.8997 0.940095 -2.49859
-0.934354 -0.0799572 -1.65031
-3.81289 -0.410097 -3.79429
-4.4564 0.831119 -4.31112
-7.06926 0.860928 -5.92163
-6.43969 0.988852 -5.54598
-1.50522 0.77198 -2.1854
-3.95819 0.540349 -3.98131
-3.55183 -0.193627 -3.6504
-1.7521 -0.178769 -2.34249
-1.01662 0.447174 -1.76263
-2.42152 -0.0885374 -2.86774
-1.16584 0.652551 -1.8944
-1.43087 0.54883 -2.13038
-3.87592 -0.382445 -3.84067
-3.45668 -0.0688822 -3.60126
-1.43089 1.06469 -2.09083
-4.98902 0.0346394 -4.61243
-3.44157 1.13713 -3.62331
-4.08024 0.483893 -4.05978
-6.25822 0.305099 -5.41616
-1.42593 0.56092 -2.12602
-3.70666 1.15365 -3.804
-2.74613 1.18702 -3.12441
-6.72818 0.21595 -5.69143
-7.12373 0.795621 -5.95294
-1.97336 0.564887 -2.5713
-4.37498 -0.487354 -4.15191
-6.11334 0.859685 -5.3486
-0.808539 -0.150195 -1.51782
-5.06495 0.0490544 -4.66159
-0.835819 -0.0471162 -1.55965
-0.983242 -0.10143 -1.69339
-6.43587 0.962338 -5.54384
-5.35491 0.729896 -4.88072
-5.05091 -0.336563 -4.6071
-3.90537 1.16095 -3.93784
-3.0678 1.21056 -3.35507
-2.79884 1.33339 -3.1471
-1.11302 0.0811771 -1.83399
-2.56896 0.555941 -3.0201
-6.46603 -0.104882 -5.50495
-5.0976 1.22618 -4.71111
-7.41564 0.624806 -6.12007
-2.56777 -0.0851243 -2.97529
-5.55737 1.00041 -5.00659
-1.26117 -0.212489 -1.92754
-6.35288 0.34459 -5.47574
-6.53874 0.735123 -5.60373
-3.02151 0.590167 -3.34469
