ply
format ascii 1.0
comment Created by Open3D
element vertex 250
property double x
property double y
property double z
end_header
-0.141038 0.583963 1.24627
0.548992 2.52145 1.59335
0.70272 2.32414 0.564949
0.459411 0.765146 0.0714819
0.504822 1.35347 0.051527
0.336929 1.04161 -0.115295
0.345956 0.605894 -0.0283351
0.467947 3.59099 0.841082
-0.643405 0.139677 1.20782
-1.74268 -0.376558 -0.36056
0.272146 0.414837 -0.0238969
-0.766838 -0.180917 0.934015
0.286116 4.49653 1.23848
-0.144081 0.145025 0.828846
0.559341 1.22987 0.121674
0.570358 1.70205 1.22375
-0.575505 -0.387066 -0.0701365
0.64873 1.24933 0.74539
-0.213022 0.473551 1.21127
0.486919 0.654298 0.434961
0.409394 1.9973 1.59041
0.22638 0.215019 0.146175
-1.5556 -0.452405 -0.302752
-0.557038 0.0118848 -0.389349
0.576606 1.02638 0.722518
-0.151548 0.366076 1.06501
-1.80924 -0.747923 0.331219
-0.154218 0.115047 -0.252901
-0.136045 5.83053 1.76488
-0.222074 0.0362066 -0.25253
-2.0019 -0.414474 1.19869
-1.99773 -0.372375 -0.353687
-0.832264 -0.543449 0.235089
-0.608686 0.0436909 -0.416854
-0.307472 0.324108 1.15125
-0.562591 -0.432384 0.148373
0.575173 0.897257 0.545662
0.105402 5.04926 2.50699
0.0182845 5.48319 2.5471
0.762633 1.92459 0.740215
-0.185508 6.24171 2.48199
-1.51664 -0.63935 0.60991
0.695368 1.45752 0.780901
0.764967 2.2444 0.846181
-0.532699 -0.352132 -0.0945636
0.340011 4.6482 1.62476
0.644061 1.23653 0.290471
0.311581 4.76395 1.92421
-0.0544219 5.40044 2.76285
-0.597256 -0.0824682 0.939223
-0.479035 -0.367912 0.325104
0.207148 3.37579 2.2879
-0.453396 5.8276 3.37028
0.378484 4.54271 1.77463
0.628382 1.97894 0.309061
0.455549 3.86491 1.02788
-0.443448 0.130888 -0.393939
-0.210137 0.106714 -0.281906
-0.499845 0.0434933 1.01294
0.335188 0.383128 0.150625
-0.260712 6.25744 2.02136
0.331915 4.59051 2.03741
0.406406 4.44353 1.67445
0.372416 4.21777 1.16111
0.507816 0.724225 0.505818
0.0672534 5.47091 2.36581
0.200436 0.394102 0.714458
0.379915 1.12044 1.13519
-0.97029 -0.495906 0.575959
-0.340323 5.7485 3.21073
0.475832 4.17663 1.56987
-0.0396532 -0.08299 0.161358
0.716307 2.75357 0.859316
-0.628283 -0.329459 0.609732
0.251738 0.684835 -0.149695
0.0279053 0.0856142 -0.0735242
0.428752 3.81219 1.99622
-0.0372962 5.70394 2.57117
-1.61001 -0.727435 0.219232
0.303104 1.47732 1.44839
-1.14302 -0.388473 -0.308735
0.448881 0.562406 0.28122
-0.763128 -0.12209 1.00334
0.293542 0.297226 0.280174
0.208519 0.233201 0.448892
-0.0750613 -0.031525 -0.0701534
0.61024 1.60595 0.209997
0.352371 1.33961 1.31212
-1.68668 -0.708428 0.0581593
0.435082 1.17451 -0.0273658
0.635274 3.30096 1.02301
0.389099 4.4753 1.5625
0.511432 0.859773 0.124885
-0.33975 -0.248479 0.437843
0.717381 2.82058 1.1922
0.132821 0.803286 -0.249986
0.324287 0.412504 0.0717427
0.0595267 0.0185158 0.280241
-1.64942 -0.669906 -0.0370132
0.345609 1.35817 1.33124
-0.694905 -0.423784 0.480199
0.660966 3.01298 1.42642
0.758834 2.11119 0.917706
-0.0883311 0.0602817 0.659359
0.0500572 0.797786 1.2504
0.626814 1.08503 0.311884
0.399268 1.35399 1.2648
0.557776 2.26819 0.300561
-1.82018 -0.628152 -0.120801
0.471678 3.6347 0.878843
0.724385 1.48482 0.59355
0.702181 2.07606 1.13168
0.18266 1.51776 1.59337
0.637579 3.3704 1.1241
0.609191 3.02485 1.57773
-0.757391 -0.151973 0.963769
0.302843 4.54248 1.32414
-1.85807 -0.730113 0.495654
0.591209 2.50529 0.434065
0.0892766 3.90293 2.53707
0.388386 2.94272 1.94956
-1.16942 -0.643819 0.124576
0.728128 2.65414 0.837574
0.0447444 5.0893 2.62996
-1.06479 -0.610963 0.0756996
-0.00591247 5.0725 2.72918
-1.79633 -0.704371 0.565315
-1.42125 -0.285101 1.1532
-1.58329 -0.663881 -0.0393014
0.57564 2.62317 1.57601
-0.872924 -0.446568 0.600047
0.51549 1.10599 0.925516
-1.32613 -0.452707 0.875721
0.171921 5.08234 1.61997
0.235493 4.83878 2.23402
-1.23459 -0.258505 1.10033
0.528872 0.736248 0.376339
0.506089 0.771468 0.596128
0.477673 3.08692 1.8476
-0.118223 5.79381 2.7657
-0.511804 -0.406507 0.13663
0.692183 2.69748 0.728555
0.232814 1.53069 1.55136
0.0812867 5.25012 1.57984
0.749358 1.78071 0.595311
0.70827 2.93858 1.01345
0.379397 0.451212 0.1816
0.722085 1.9479 1.01584
-1.02511 -0.35073 -0.314509
-0.0849272 5.90894 2.04957
-0.264216 5.91029 3.05366
0.588824 3.26691 0.850235
-0.733703 -0.346663 -0.226886
-0.197063 -0.101912 -0.124196
0.610705 3.33892 1.55857
-0.513279 0.0841085 -0.401887
0.226741 0.210555 0.167594
0.414375 1.29975 -0.0428214
-0.786194 -0.486396 0.417834
0.679859 1.804 1.06234
-1.2484 -0.517747 -0.204449
-0.385979 -0.32638 0.272885
-0.851453 -0.299667 0.83021
0.759706 2.39695 0.90875
-0.91774 -0.553849 0.0112402
-1.03353 -0.61108 0.15557
0.637695 1.97282 1.23574
0.551771 3.59009 1.02249
-0.43188 -0.353051 0.272952
0.620685 3.08257 1.55016
-0.136118 6.10778 2.44637
0.600322 3.57195 1.49565
0.447085 3.69441 1.96095
-0.251001 0.413047 1.18822
0.594781 0.916236 0.396236
0.116682 0.456095 0.889603
0.607945 1.31396 0.909916
0.57886 1.03434 0.195373
0.459283 1.60993 1.33669
-1.50655 -0.394256 1.04573
0.66389 1.21572 0.375155
0.713703 1.6352 0.858025
0.750787 2.47489 0.840926
0.154563 0.122804 0.29884
0.122765 5.21379 2.38022
0.432896 4.34452 1.65652
-0.144945 0.0274701 0.679784
-1.40892 -0.466082 0.894994
-1.24053 -0.64621 0.374834
0.417735 3.9974 1.06062
-1.84176 -0.633409 0.772704
-1.34656 -0.225154 1.19312
-0.233802 0.00909897 0.749693
-0.000157467 5.65062 1.91116
0.259733 4.878 1.63906
-1.36494 -0.674511 0.37723
0.600107 2.16223 1.38389
-0.638092 -0.444249 -0.000421497
-0.852053 -0.36102 -0.258767
-0.268693 0.0825639 -0.30202
-2.46614 0.315173 2.13412
-0.914703 0.417137 1.61004
-3.05437 2.3415 3.78037
-4.47871 1.92508 3.92062
-6.58534 3.52843 5.474
-6.17674 3.05342 5.07246
-2.01663 0.19146 1.87994
-3.86887 1.8058 3.68524
-3.00402 2.03787 3.5779
-1.53645 0.950464 2.3076
-1.36937 0.119574 1.56552
-2.15879 1.28611 2.78946
-1.64335 0.07324 1.63334
-1.79616 0.289521 1.89132
-3.12599 2.36149 3.81725
-3.01907 1.89729 3.49399
-2.15587 -0.0317616 1.70406
-4.32993 2.76942 4.44388
-3.87396 1.11209 3.16568
-3.92669 1.91696 3.77766
-5.54035 3.38064 5.14481
-1.80057 0.279004 1.88361
-4.10096 1.2627 3.33593
-3.33974 0.662436 2.66825
-5.8488 3.7322 5.4378
-6.58175 3.60438 5.52331
-2.263 0.594891 2.31296
-3.45021 2.73758 4.14946
-5.82493 2.93246 4.91838
-0.752626 0.39478 1.50259
-4.40131 2.8069 4.48735
-0.853194 0.34096 1.51298
-0.941127 0.458616 1.65788
-6.15483 3.06793 5.07805
-5.12694 2.54443 4.50218
-4.10537 3.05337 4.54678
-4.26715 1.37916 3.46347
-3.62007 0.840688 2.88473
-3.48416 0.603713 2.64798
-1.18772 0.410594 1.74059
-2.74916 0.954148 2.74979
-5.40546 3.77911 5.35017
-5.2733 2.07016 4.19408
-6.69018 3.89718 5.73505
-2.28161 1.37127 2.89256
-5.48173 2.49731 4.5459
-1.09693 0.689533 1.91634
-5.64433 3.41397 5.19114
-6.07409 3.27749 5.202
-3.14437 1.20421 3.05412
