ply
format ascii 1.0
comment Created by Open3D
element vertex 250
property double x
property double y
property double z
end_header
1.26034 0.363649 0.439789
2.39049 -0.938944 1.61301
1.50805 -1.45883 1.34618
0.325043 -0.568932 0.610148
0.650274 -1.03407 0.772803
0.416196 -0.891879 0.493041
0.206932 -0.503877 0.436901
2.56183 -2.23346 1.50676
1.17031 0.711591 -0.127726
0.240757 0.171668 -1.79479
0.12415 -0.350217 0.329634
0.839926 0.788805 -0.406775
3.45686 -2.65779 1.67951
0.710981 0.431031 0.193638
0.600534 -0.898251 0.820218
1.63251 -0.551909 1.32294
-0.0468127 0.288751 -0.632753
0.99994 -0.518532 1.12629
1.19898 0.430274 0.337841
0.493653 -0.252698 0.739485
2.1273 -0.531273 1.3706
0.137207 -0.0853682 0.304524
0.157269 0.254303 -1.62075
-0.0291361 -0.222136 -0.641742
0.878516 -0.358166 1.00394
1.00898 0.414355 0.318588
0.512984 0.903916 -1.69181
-0.0388716 -0.240029 -0.204581
4.79853 -3.31056 1.77277
-0.0586859 -0.175077 -0.283378
1.38463 1.21907 -1.48758
0.352586 0.189807 -2.02344
0.171104 0.621214 -0.792517
-0.0073372 -0.260662 -0.691503
1.1061 0.512129 0.198092
0.0689864 0.462818 -0.553643
0.680359 -0.37302 0.911926
4.72962 -2.25337 2.08425
5.05627 -2.55324 2.1139
1.35995 -1.04512 1.37544
5.5564 -3.16081 2.07106
0.648499 0.980543 -1.30344
1.13145 -0.657824 1.2267
1.62536 -1.22147 1.48483
-0.0597613 0.243546 -0.594829
3.78965 -2.52915 1.8982
0.684647 -0.800567 0.958411
4.07532 -2.42338 2.00348
5.18257 -2.34667 2.10598
0.833724 0.705712 -0.229195
0.194096 0.52152 -0.401085
3.52217 -1.12275 1.7341
6.0189 -2.25638 2.05107
3.81172 -2.3549 1.96316
1.15476 -1.35458 1.11275
2.86039 -2.32188 1.62131
-0.0065496 -0.323504 -0.51407
-0.0407274 -0.24858 -0.267518
0.92044 0.650389 -0.0870351
0.197737 -0.218117 0.441759
5.28348 -3.46363 1.84323
4.03861 -2.21958 2.02414
3.67187 -2.34534 1.93149
3.19948 -2.5003 1.66981
0.575761 -0.26199 0.798806
4.90541 -2.66352 2.09166
0.643191 0.144498 0.520929
1.29704 -0.151961 0.991462
0.48846 0.812945 -0.787173
5.81594 -2.30593 2.08025
3.41011 -2.21326 1.89941
0.0755997 0.169625 0.00286747
1.9636 -1.59868 1.55634
0.472275 0.684824 -0.427817
0.210988 -0.635845 0.325523
-0.0094426 -0.114449 0.0180735
3.498 -1.65804 1.92779
5.22955 -2.70269 2.12003
0.367543 0.803141 -1.54572
1.75839 -0.218296 1.11022
0.0228129 0.174264 -1.23363
0.348853 -0.278717 0.630475
0.921296 0.788146 -0.366052
0.250749 -0.0665614 0.430932
0.361485 0.096316 0.399272
-0.0360832 -0.015992 -0.0999589
0.868218 -1.13213 0.979823
1.56183 -0.203901 1.07679
0.300979 0.690282 -1.66826
0.516493 -0.943433 0.642417
2.44074 -1.90623 1.65998
3.62213 -2.44034 1.88311
0.39752 -0.61036 0.696999
0.286211 0.493461 -0.208466
2.2303 -1.43617 1.68964
0.26351 -0.782819 0.207751
0.166401 -0.290482 0.410366
0.177452 0.161862 0.157267
0.244361 0.597277 -1.6596
1.58888 -0.205353 1.08145
0.354188 0.678104 -0.554799
2.52964 -1.42896 1.76313
1.5956 -1.0734 1.47547
0.521346 0.383219 0.16593
1.31467 0.190321 0.661735
0.614245 -0.669972 0.917228
1.51915 -0.24838 1.10586
1.35367 -1.57626 1.10866
0.282777 0.522913 -1.83544
2.61254 -2.24284 1.53304
1.0087 -0.800898 1.19282
1.74304 -0.905416 1.49192
1.93097 -0.148101 1.06074
2.55074 -1.8945 1.71297
2.661 -1.33743 1.77211
0.873875 0.78518 -0.381345
3.53618 -2.63898 1.73504
0.655683 0.999143 -1.67421
1.57481 -1.67383 1.23802
4.06026 -1.35751 1.83003
2.9546 -1.02129 1.68481
0.173245 0.649271 -1.16017
1.88355 -1.53748 1.53771
4.86247 -2.20096 2.08129
0.117046 0.585852 -1.07511
4.94054 -2.12106 2.06663
0.693379 1.02012 -1.58779
1.19413 1.05253 -0.947269
0.219342 0.586819 -1.59895
2.42956 -1.02954 1.65332
0.494883 0.784273 -0.679325
1.09003 -0.284557 1.03749
0.864552 0.996048 -0.995432
4.11909 -2.85263 1.83837
4.36272 -2.27654 2.06013
1.09777 0.98589 -0.790368
0.486358 -0.355711 0.774805
0.6666 -0.239964 0.839476
2.93622 -1.20282 1.76145
5.44966 -2.64104 2.13481
0.0558897 0.432145 -0.505951
1.85047 -1.6382 1.47593
1.88969 -0.188283 1.09433
4.23091 -3.00053 1.77836
1.17942 -1.0274 1.28074
2.18413 -1.64046 1.6439
0.242037 -0.253157 0.507782
1.57822 -0.883248 1.4411
-0.00654805 0.133909 -1.12018
5.01884 -3.19102 1.93703
5.77618 -2.5354 2.12925
2.32158 -1.98809 1.54921
-0.0639997 0.167736 -0.82325
-0.065565 0.0111552 -0.245401
2.83816 -1.58969 1.83527
-0.0117338 -0.288248 -0.590608
0.148916 -0.0682288 0.311451
0.590561 -1.04763 0.645451
0.311172 0.691931 -0.67355
1.53975 -0.740682 1.38772
0.0584329 0.346949 -1.32083
0.14564 0.450097 -0.32584
0.731879 0.818454 -0.546358
1.76276 -1.29746 1.53546
0.0475842 0.491086 -0.951679
0.15848 0.635155 -1.01847
1.77755 -0.755477 1.44752
2.65029 -2.12184 1.64695
0.14831 0.473554 -0.373388
2.67261 -1.39997 1.78542
5.43054 -3.08468 2.07416
2.9412 -1.80738 1.85444
3.39494 -1.59195 1.90629
1.16211 0.464198 0.281939
0.582208 -0.484766 0.881074
0.834339 0.215176 0.520201
1.16784 -0.459536 1.16147
0.523863 -0.702887 0.821352
1.69892 -0.401661 1.24173
1.0897 1.07254 -1.08668
0.721473 -0.731611 1.00185
1.28434 -0.745212 1.30943
1.76764 -1.39993 1.52038
0.214482 0.0878542 0.273048
4.73623 -2.46158 2.09113
3.58866 -2.283 1.92764
0.538525 0.425149 0.114494
0.903494 1.02413 -1.06684
0.371181 0.816514 -1.13689
2.97866 -2.39953 1.62741
0.896189 1.10211 -1.54031
1.22707 1.02743 -0.852132
0.611362 0.489965 0.0543774
4.73299 -3.08824 1.90883
3.97192 -2.69014 1.88039
0.406648 0.84792 -1.25539
2.00881 -0.802497 1.50705
-0.0084631 0.381342 -0.677515
-0.0458647 0.166081 -0.945306
-0.0450638 -0.239167 -0.333162
2.65461 1.29329 -1.41988
1.72375 0.775971 -0.171732
5.24672 0.841896 -0.930638
5.67334 1.34448 -2.26752
8.56811 1.2572 -3.28455
7.83879 1.33503 -3.15853
2.22219 1.19474 -1.12787
5.19064 1.24397 -1.82206
4.90389 0.940424 -1.02269
2.77726 0.857836 -0.374244
1.69917 1.0048 -0.665984
3.56419 0.952204 -0.696704
1.82952 1.10191 -0.901329
2.19908 1.11253 -0.901906
5.31333 0.855065 -0.978377
4.76758 0.994907 -1.09673
2.02405 1.26152 -1.36542
6.48121 1.02577 -1.7629
4.41787 1.44048 -2.16178
5.34475 1.22225 -1.81771
7.82578 1.08936 -2.48268
2.18925 1.1159 -0.910938
4.71828 1.44983 -2.2752
3.58722 1.42902 -1.94986
8.36517 1.02947 -2.58293
8.64631 1.23063 -3.24728
2.86288 1.18103 -1.11082
5.90077 0.802669 -1.07375
7.5162 1.30513 -2.9194
1.5706 0.713297 -0.0671759
6.56282 1.0298 -1.80428
1.58622 0.767744 -0.166725
1.79232 0.776764 -0.169802
7.84243 1.32608 -3.13345
6.71108 1.28791 -2.51635
6.6316 0.860088 -1.46028
4.94395 1.45381 -2.35586
3.95775 1.4505 -2.08941
3.59699 1.47044 -2.10121
1.92055 0.88291 -0.375343
3.57768 1.21942 -1.32018
8.15223 0.907959 -2.20041
6.2734 1.46198 -2.86192
9.0127 1.15017 -3.20714
3.73643 0.961519 -0.753381
6.8577 1.37551 -2.83389
2.17232 0.776713 -0.169745
7.92019 1.10056 -2.5536
8.02093 1.24027 -2.97046
4.0987 1.25008 -1.51748
