ply
format ascii 1.0
comment Created by Open3D
element vertex 400
property double x
property double y
property double z
end_header
-1.35703 1.82103 -0.743554
-2.14805 3.13911 -0.667068
-1.59331 1.40142 -0.70213
-3.0678 2.10144 0.551325
-1.35455 1.80795 -0.743598
-1.55827 0.714042 0.791008
-1.27897 0.61022 -0.436193
-2.13058 1.33758 -0.416461
-2.12154 1.41482 -0.483276
-2.71369 1.75358 -0.0179857
-2.52997 2.74311 -0.641977
-2.70862 1.9828 -0.322832
-2.61052 2.58327 -0.60368
-0.956958 0.435782 -0.424133
-1.11346 1.54323 -0.72313
-1.23333 0.517099 -0.364777
-1.6865 0.68529 0.222972
-1.39847 0.73479 -0.477807
-2.6308 2.53579 -0.58901
-2.48382 3.2814 -0.634779
-1.90939 2.35492 -0.734765
-1.68499 0.685637 0.0683807
-2.56113 1.94457 -0.443982
-0.75051 1.71974 -0.645639
-1.02701 1.62161 -0.71051
-1.95164 1.9035 -0.712885
-2.66146 2.47623 -0.564807
-1.118 1.5221 -0.7234
-2.275 1.21743 0.162619
-1.64885 0.89647 -0.450767
-3.15498 2.2139 0.399808
-2.72251 2.01836 -0.334067
-1.20507 0.501966 -0.366668
-2.82171 1.82474 0.63587
-1.47003 0.781752 -0.474536
-2.56079 1.88989 -0.41192
-1.79459 2.77928 -0.700253
-2.78447 1.84544 -0.0214098
-2.39039 1.74103 -0.470419
-1.73367 1.0167 -0.48884
-2.8636 1.85481 0.383166
-1.10797 1.10833 -0.688214
-2.24682 1.24017 0.645646
-1.48982 1.5495 -0.735396
-2.21332 1.17584 0.487608
-1.31141 0.419157 0.30519
-1.94656 1.77077 -0.694908
-1.47498 2.08729 -0.741843
-3.19122 2.25643 0.450804
-2.11831 2.38995 -0.714617
-1.16627 0.410298 -0.263676
-1.68805 2.50197 -0.72399
-0.764783 0.783227 -0.605592
-1.1204 1.16823 -0.697686
-2.5824 2.82527 -0.631343
-2.54003 1.66018 -0.232362
-2.83646 1.86751 0.0927391
-2.23791 1.50958 -0.451125
-1.56253 1.69607 -0.743134
-1.00315 1.20008 -0.695004
-3.17882 2.24178 0.432326
-2.45015 2.00579 -0.549327
-2.7395 2.35669 -0.489838
-1.10235 0.320692 -0.140626
-1.13155 0.563656 -0.467425
-1.77312 0.871407 0.7756
-0.972218 0.397162 -0.380675
-1.54957 0.861085 -0.4897
-2.56756 2.70657 -0.629627
-2.46229 2.01812 -0.546508
-3.26875 2.36237 0.408841
-1.45157 0.646528 -0.344448
-2.6564 2.1021 -0.447025
-2.61057 1.58455 0.132121
-1.20371 1.18171 -0.699807
-1.552 0.754088 -0.3851
-2.36788 1.6312 -0.418783
-1.82968 2.20576 -0.74181
-2.93487 1.93885 0.449891
-1.21383 0.345526 0.146606
-0.728004 1.58392 -0.649341
-0.753481 0.665029 -0.571025
-1.62516 0.983711 -0.533037
-0.653375 1.03759 -0.628398
-2.16659 1.13482 0.502528
-1.14226 0.621002 -0.506017
-2.7684 1.74475 0.339577
-2.55644 1.51021 0.403443
-2.59309 1.75314 -0.26036
-1.77599 0.955228 -0.397652
-1.19315 1.32567 -0.718224
-2.38591 1.36442 -0.00843164
-0.860219 1.91435 -0.655734
-1.55181 0.623401 -0.151227
-2.51426 1.78753 -0.387656
-2.17997 1.45189 -0.460644
-1.22704 0.700326 -0.529565
-1.76994 0.88074 -0.30984
-0.717421 1.62472 -0.643977
-2.73039 2.3716 -0.500509
-2.729 1.72923 0.669248
-2.01631 1.01404 0.571486
-1.71766 2.41841 -0.732638
-1.98282 0.953492 0.410174
-2.52153 2.15688 -0.55771
-2.46382 1.41547 0.164689
-2.21824 1.17108 0.0654277
-0.950427 1.3284 -0.69762
-2.71867 1.98062 -0.309135
-3.48819 2.64314 0.747847
-1.67412 1.9375 -0.747978
-2.47459 2.82208 -0.656501
-1.94609 0.996809 -0.229797
-1.11271 1.85361 -0.713638
-1.0712 0.724986 -0.580137
-1.20657 0.787648 -0.583296
-2.06577 1.59937 -0.608582
-1.67455 1.5877 -0.720958
-2.25665 1.37786 -0.310131
-2.41346 1.56944 -0.313131
-0.987667 0.666153 -0.564776
-2.74462 2.50046 -0.527747
-0.920142 1.17574 -0.684114
-1.44756 2.25482 -0.727177
-2.32615 1.77553 -0.534415
-2.53827 2.43101 -0.610159
-2.10516 1.10656 -0.124797
-1.53181 2.06168 -0.746303
-2.1354 1.09699 0.0154123
-1.88264 1.37637 -0.607689
-2.48092 2.53575 -0.642558
-1.52133 0.55821 0.219089
-2.08965 2.17126 -0.710478
-2.3735 1.39729 -0.131784
-1.97359 1.15015 -0.40052
-1.5738 2.31299 -0.733318
-2.23737 1.22031 0.598716
-2.2292 1.44184 -0.406854
-2.07733 1.06014 0.536226
-1.12609 0.457024 -0.365392
-2.86071 1.88704 0.130233
-0.789218 1.31015 -0.669706
-2.55798 2.82001 -0.637476
-2.48782 3.15484 -0.643759
-0.934355 1.57784 -0.695716
-2.39052 1.35049 0.505901
-2.37562 1.71039 -0.464462
-3.24845 2.33161 0.443003
-2.61432 1.71699 -0.180221
-1.2358 1.51614 -0.732906
-2.35349 1.29387 0.290084
-2.11187 2.05415 -0.694647
-1.59949 1.21252 -0.650883
-2.28606 2.40272 -0.684352
-0.790162 0.592518 -0.544744
-2.02533 1.15207 -0.343876
-2.72136 1.9856 -0.309939
-2.33368 1.36087 -0.149507
-1.74423 0.840771 0.751981
-2.46134 1.41881 0.120113
-2.04774 0.999248 0.112787
-2.20894 1.27978 -0.250592
-2.44761 3.19792 -0.645416
-2.90126 2.16283 -0.228948
-1.21736 1.71318 -0.733504
-2.95828 1.97928 0.635395
-2.53431 2.19358 -0.561371
-1.67316 0.680681 0.0226284
-2.24612 1.25121 0.691334
-1.99412 1.9591 -0.710499
-2.29264 2.64128 -0.689719
-2.9365 2.19486 -0.208465
-1.69799 0.697038 0.261931
-2.78756 1.82113 0.0469832
-2.30944 1.26789 0.487715
-2.64664 1.76265 -0.185238
-2.05138 1.0336 0.519821
-2.11185 2.02692 -0.691234
-2.45461 1.59411 -0.283412
-1.13551 0.448699 -0.34864
-1.36108 1.47637 -0.733275
-2.06529 2.5811 -0.717149
-1.75115 1.7442 -0.729375
-2.80585 1.88626 -0.0472347
-1.28492 2.2339 -0.707929
-1.51733 1.48107 -0.725527
-1.29401 1.26817 -0.710635
-1.83601 0.84912 -0.119353
-2.63601 1.66033 -0.025271
-0.869614 0.900676 -0.640354
-2.81804 2.42998 -0.461915
-1.73107 1.25002 -0.620371
-1.09804 0.935228 -0.651143
-0.885995 0.400225 -0.415008
-2.69119 1.69596 0.70411
-1.62681 0.799935 -0.367674
-1.15413 0.999765 -0.664681
-1.44793 1.4755 -0.730148
-2.21569 1.27238 -0.227095
-1.46771 2.15104 -0.737336
-1.44124 1.08451 -0.64864
-1.02027 0.997716 -0.666758
-2.84196 1.84953 0.65037
-2.57582 1.53545 0.461347
-1.1252 1.87239 -0.714436
-2.4749 1.45765 0.631049
-2.05428 1.2393 -0.404223
-1.63753 0.650594 0.0364069
-1.40777 2.19291 -0.728312
-1.52928 2.27817 -0.732796
-2.56001 1.56023 -0.000989366
-3.15713 2.26773 0.169587
-1.69941 0.69899 0.0496243
-1.68926 0.862799 -0.380143
-2.11341 1.16365 -0.228164
-1.9037 1.83791 -0.714551
-2.18232 1.1247 0.29181
-2.61607 1.99763 -0.426233
-1.25711 1.51442 -0.733931
-1.77015 2.12755 -0.745237
-0.782605 0.860325 -0.624446
-1.94189 0.899948 0.159365
-1.98162 0.95004 0.0119778
-3.5083 2.67399 0.8066
-1.50733 0.624354 -0.237525
-1.73635 2.30253 -0.740551
-1.78957 0.768986 0.215945
-1.67471 0.679008 0.0492687
-2.11167 1.05835 0.133506
-0.696915 1.51162 -0.64505
-1.55898 0.61882 0.457314
-2.0146 2.90158 -0.69401
-1.98683 2.39707 -0.728768
-1.81192 0.79156 0.279944
-1.61161 0.706076 -0.238718
-1.34756 0.703612 -0.480172
-1.50072 1.42043 -0.718514
-1.34289 0.445687 -0.0458392
-1.92306 1.97034 -0.724689
-1.34416 2.05263 -0.732098
-2.25879 1.1992 0.19571
-2.03107 1.53367 -0.600604
-3.1105 2.15482 0.579903
-2.09704 1.07457 -0.0511156
-1.98983 0.958173 0.00921016
-1.40694 0.568132 -0.270585
-1.76162 0.899076 -0.346106
-3.08087 2.23782 0.00463396
-1.05477 1.89387 -0.700556
-2.29062 1.70023 -0.522807
-1.70517 1.18555 -0.603507
-2.56698 2.89606 -0.6368
-2.78114 1.77088 0.572667
-2.23973 1.18199 0.161211
-2.35235 1.65648 -0.45051
-2.65556 1.68587 -0.028997
-0.876565 0.733165 -0.596911
-2.27574 2.24611 -0.673598
-1.55917 1.53263 -0.728052
-2.56175 1.65866 -0.192973
-1.32875 0.494701 -0.230989
-1.61198 0.644654 -0.0555097
-2.13528 2.15807 -0.70001
-1.7459 0.831087 0.718282
-1.8028 2.37096 -0.737089
-2.72995 2.19372 -0.431481
-2.34958 2.83667 -0.677721
-1.38558 0.466329 0.279539
-1.9854 2.17098 -0.727303
-0.90835 1.87994 -0.670868
-2.75076 2.2898 -0.457471
-1.98176 1.22995 -0.463401
-1.32751 2.33257 -0.703369
-0.702752 1.57119 -0.643456
-2.20357 2.98399 -0.682061
-2.10063 1.5766 -0.582242
-1.12251 0.385668 -0.263753
-1.39238 1.24808 -0.699848
-2.37721 1.72335 -0.470826
-1.37831 0.464924 -0.0165908
-2.36329 2.4165 -0.666081
-1.52279 0.646384 -0.25818
-1.31566 1.90678 -0.737409
-1.63315 0.641814 0.189538
-0.845121 0.685229 -0.580529
-1.41019 1.31071 -0.709696
-2.49323 1.43974 0.283466
-1.75058 1.81263 -0.735831
-0.918338 0.736612 -0.597651
-2.02839 1.04964 -0.172984
-1.77479 0.886993 -0.312735
-1.24927 0.462179 -0.267733
-2.07319 1.35457 -0.480637
-2.5855 1.75683 -0.275229
-0.972904 0.328306 -0.29349
-2.44703 1.39967 0.44691
-2.57279 1.63416 -0.132155
-2.55428 1.6764 -0.229749
-2.30791 2.17572 -0.654412
-2.14624 1.72021 -0.612337
-1.32523 0.820947 -0.567175
-1.96105 1.26703 -0.505968
-2.47185 3.22509 -0.640681
-2.37834 2.58727 -0.672507
-1.54634 2.33727 -0.72912
-2.86261 1.87472 0.66387
-1.14484 1.67383 -0.725998
-1.80491 0.868965 -0.236124
-2.04523 1.00722 0.397771
-2.12442 1.22603 -0.304895
-1.45824 1.79132 -0.748162
-2.15541 1.10838 0.398052
-1.5088 1.76695 -0.748004
-2.19626 1.199 0.667808
-2.06243 2.54634 -0.718732
-1.78639 1.27094 -0.606245
-2.65671 1.63064 0.538453
-2.41071 2.84924 -0.66808
-2.57143 1.52856 0.436432
-1.51767 0.571147 0.362615
-1.93103 1.6822 -0.682081
-2.31835 1.27142 0.451961
-2.42578 2.69981 -0.665321
-1.30115 2.28033 -0.705318
-2.01401 2.2469 -0.725884
-2.63493 2.95379 -0.621067
-1.52549 1.59523 -0.737496
-2.28375 1.25226 0.540844
-1.2405 0.379351 -0.0487259
-2.39856 1.4525 -0.181456
-1.02491 0.598081 -0.523137
-0.910472 1.07395 -0.672235
-1.2671 1.51081 -0.734198
-2.37399 1.59853 -0.387144
-2.76726 2.04295 -0.300825
-1.86038 2.03827 -0.737179
-2.12524 1.1262 0.635448
-2.71215 2.18165 -0.440194
-1.91132 1.0341 -0.33981
-1.35849 0.449687 -0.00533647
-2.05874 1.00756 0.271018
-1.8974 1.37213 -0.599068
-2.625 1.58468 0.413194
-1.55391 1.15825 -0.645223
-2.3965 1.83457 -0.514227
-1.48665 1.14497 -0.657976
-2.48096 1.46479 0.636033
-1.88066 1.04722 -0.390326
-1.85667 1.51002 -0.662898
-1.9654 0.97718 -0.145084
-1.10791 0.32037 -0.129924
-2.45648 1.4068 0.171283
-2.22621 1.48023 -0.440297
-1.67057 1.58922 -0.721773
-2.87867 1.87807 0.546692
-1.43455 0.543849 0.521801
-2.95005 1.96689 0.611554
-2.64515 1.61905 0.544543
-1.36144 2.17736 -0.724245
-3.36781 2.48654 0.733468
-0.823316 0.944024 -0.644154
-1.88472 1.69232 -0.696448
-1.67552 0.790375 0.759695
-1.69504 0.831346 -0.333244
-1.65452 0.660897 0.238079
-2.19215 1.95768 -0.655412
-1.87192 0.888667 0.561757
-1.55896 0.603833 0.376504
-1.15453 0.418324 -0.289137
-1.7016 0.707429 0.334056
-1.41241 0.479648 0.0673841
-1.40999 1.56976 -0.739742
-1.52477 0.694628 0.80426
-2.49244 1.45888 0.0885747
-1.66815 2.02541 -0.748875
-0.842595 1.71171 -0.66939
-2.46322 3.09259 -0.650743
-1.40248 0.483471 -0.0275539
-1.42684 0.505382 0.358308
-1.58865 1.37433 -0.69731
-0.735792 1.48855 -0.655859
-2.48147 2.54584 -0.643264
-1.46657 0.587173 0.600606
-1.92468 2.43812 -0.731094
-2.44713 1.40579 0.104662
-1.0845 1.75998 -0.7144
-2.32878 1.44222 -0.285686
-1.35447 0.534319 -0.274875
-2.44431 1.40992 0.540699
-1.60187 1.84205 -0.748308
-1.1653 1.82005 -0.723531
-1.29331 0.417305 -0.0685678
-2.02897 0.993215 0.401962
-0.995214 0.472396 -0.442761
-1.1776 1.79671 -0.726289
-1.85065 1.74318 -0.712383
-1.30259 0.41265 0.299643
-0.823644 0.463816 -0.475464
-1.18483 0.715415 -0.5515
-2.91825 2.18021 -0.220945
