ply
format ascii 1.0
comment Created by Open3D
element vertex 250
property double x
property double y
property double z
end_header
0.0905645 0.46211 1.30091
-1.50241 0.219685 2.62533
-1.77691 -0.269178 1.72764
-0.787022 -0.0257764 0.426085
-1.18157 -0.280332 0.784029
-0.91256 -0.348091 0.507763
-0.632823 -0.0866663 0.282168
-2.29072 -0.809573 2.81404
0.725084 0.336868 1.11941
1.43671 -1.11522 -0.0293883
-0.460952 -0.0409816 0.180465
0.937064 0.230045 0.749763
-2.59335 -1.07364 3.73582
0.244815 0.388218 0.719813
-1.12887 -0.145103 0.738132
-1.1239 0.365677 1.8229
0.646265 -0.216236 -0.146726
-1.03888 0.307415 1.16769
0.201722 0.44627 1.22351
-0.642393 0.278949 0.603246
-1.08216 0.373098 2.31861
-0.260006 0.133839 0.182572
1.35783 -0.929875 -0.0886818
0.305248 -0.59599 -0.116814
-0.85642 0.350853 1.02539
0.180904 0.436948 1.03324
1.89797 -0.533712 0.235179
-0.0222079 -0.310883 -0.0619386
-2.93943 -1.59432 5.09375
0.0763686 -0.315557 -0.0948197
2.07594 -0.235712 1.11854
1.62734 -1.26658 0.0472205
1.01581 -0.100322 0.0364164
0.317345 -0.659669 -0.101509
0.346514 0.418364 1.10899
0.72306 -0.0449786 -0.0253174
-0.825267 0.293477 0.816362
-2.44816 -0.606664 5.04277
-2.63387 -0.831395 5.37819
-1.53327 0.0641165 1.57434
-2.95645 -1.34365 5.88282
1.68841 -0.224682 0.423997
-1.18991 0.263596 1.31619
-1.69937 -0.0114385 1.85757
0.586466 -0.222327 -0.15276
-2.62079 -0.858082 4.09345
-1.15076 0.0132566 0.838916
-2.5883 -0.732525 4.38851
-2.47102 -0.696503 5.49637
0.751868 0.290798 0.771873
0.669303 0.0914358 0.119159
-1.57373 0.0765736 3.76707
-2.26523 -0.73574 6.3129
-2.54542 -0.688736 4.1201
-1.58205 -0.323419 1.3413
-2.3962 -0.820233 3.12843
0.146989 -0.584828 -0.0730541
0.0169122 -0.359773 -0.0727606
0.622734 0.340173 0.87993
-0.44187 0.125574 0.266097
-3.03419 -1.69716 5.58774
-2.46824 -0.567022 4.34975
-2.53361 -0.691993 3.97691
-2.51076 -0.944664 3.47564
-0.681097 0.305887 0.693376
-2.71224 -0.914662 5.22872
-0.194858 0.407569 0.70842
-0.654004 0.458735 1.43186
1.18288 0.0173232 0.345857
-2.34547 -0.735569 6.11781
-2.45289 -0.596411 3.70982
0.123492 0.119415 0.0706119
-1.96663 -0.264973 2.21266
0.835051 0.169722 0.385928
-0.642645 -0.258899 0.27342
-0.0924972 -0.0703244 -0.00361041
-2.08225 -0.179712 3.78595
-2.71891 -0.950124 5.55446
1.70588 -0.495993 0.115466
-0.727035 0.453857 1.90725
1.00819 -0.713992 -0.162792
-0.600005 0.19756 0.444796
0.917535 0.250681 0.836208
-0.323734 0.224337 0.312854
-0.175669 0.312507 0.413335
0.0563397 -0.0767231 -0.0498892
-1.37013 -0.228592 1.0325
-0.717746 0.457514 1.7076
1.70833 -0.656183 0.0347357
-1.0426 -0.292161 0.630206
-2.19194 -0.457154 2.70793
-2.5701 -0.790094 3.9232
-0.8687 -0.00274696 0.511588
0.523262 0.194559 0.239211
-1.9178 -0.0774881 2.49153
-0.652087 -0.450334 0.312064
-0.47277 0.054034 0.23246
0.0200123 0.21054 0.194148
1.63137 -0.713474 -0.0174799
-0.718705 0.457437 1.73507
0.906896 0.0880077 0.250742
-1.92823 -0.04647 2.7981
-1.59501 0.092478 1.82278
0.208286 0.34988 0.529521
-0.180693 0.482402 1.3918
-1.04059 0.0860867 0.759753
-0.774404 0.448334 1.67085
-1.70597 -0.503807 1.54336
1.71157 -0.890362 -0.00324155
-2.30968 -0.802632 2.86828
-1.27884 0.14624 1.19369
-1.47342 0.214128 1.96646
-0.621882 0.457384 2.06878
-2.20822 -0.421464 2.82415
-1.85562 0.0157018 2.92685
0.920561 0.241955 0.787155
-2.61045 -1.02858 3.82188
1.96834 -0.463905 0.376302
-1.83803 -0.504793 1.78361
-1.73606 -0.07275 4.31954
-1.53983 0.162886 3.19588
1.29936 -0.330131 -0.0160631
-1.92136 -0.226588 2.12912
-2.39356 -0.581244 5.1723
1.18783 -0.313931 -0.0574721
-2.31858 -0.539319 5.2452
1.92534 -0.392897 0.425669
1.55006 0.0258868 1.01377
1.57752 -0.677811 -0.033056
-1.58849 0.177937 2.6723
1.08659 0.0692725 0.368774
-0.803699 0.410192 1.23747
1.5048 -0.0213612 0.682331
-2.75804 -1.16111 4.41917
-2.49256 -0.610267 4.67705
1.37971 0.0918534 0.943253
-0.739183 0.228514 0.603977
-0.683878 0.342248 0.788565
-1.72142 0.0842503 3.19382
-2.65981 -0.912963 5.77263
0.666173 -0.0338257 -0.0304583
-1.95007 -0.339318 2.09008
-0.678672 0.454298 2.03395
-2.80219 -1.31872 4.52493
-1.47568 0.0272081 1.38148
-2.03056 -0.253702 2.44468
-0.507738 0.14137 0.320515
-1.44234 0.209044 1.79544
0.895408 -0.663848 -0.174125
-2.94806 -1.41333 5.33245
-2.5427 -0.866201 6.09185
-2.1833 -0.582496 2.57608
0.698112 -0.432587 -0.188363
0.1757 -0.153488 -0.101072
-2.0515 -0.139464 3.11807
0.225446 -0.610783 -0.0903381
-0.251787 0.150091 0.194703
-1.10684 -0.372003 0.706696
0.996276 0.0207883 0.190443
-1.31124 0.279719 1.74574
1.19347 -0.650375 -0.144986
0.560314 0.0945022 0.0841854
1.04411 0.165444 0.621681
-1.77056 -0.043472 2.00289
1.02562 -0.293394 -0.105533
1.18607 -0.242832 -0.00953081
-1.33459 0.290374 1.99005
-2.30396 -0.64006 2.91904
0.610856 0.0790337 0.0792311
-1.90654 -0.0217522 2.94196
-2.9223 -1.27589 5.75678
-2.20139 -0.293357 3.22863
-2.03446 -0.137851 3.67911
0.260485 0.435943 1.17795
-0.891862 0.199018 0.717795
-0.122064 0.443101 0.895429
-1.00278 0.36074 1.33728
-1.00555 0.00420429 0.657224
-0.954433 0.414531 1.87264
1.65084 -0.0459082 0.889551
-1.13016 0.0900602 0.879837
-1.29003 0.243828 1.48184
-1.82926 -0.128786 2.00826
-0.109175 0.232379 0.249713
-2.59479 -0.754211 5.05592
-2.49857 -0.642461 3.89239
0.276077 0.344052 0.537848
1.58018 -0.052626 0.709625
1.42185 -0.208466 0.178575
-2.43894 -0.882227 3.24836
1.9727 -0.317269 0.630965
1.46866 0.0696412 1.06095
0.372725 0.34449 0.599324
-2.89318 -1.33451 5.04288
-2.69541 -1.00224 4.27542
1.53289 -0.269054 0.195447
-1.38062 0.277899 2.22871
0.746583 -0.182329 -0.117851
0.786913 -0.518282 -0.18826
0.0699617 -0.397215 -0.0869153
2.23687 -0.238333 2.38228
0.869937 0.309062 1.6585
1.90052 -0.444143 5.02929
3.25806 -1.02184 5.24184
4.29066 -2.01141 7.95775
4.16225 -1.80999 7.25292
1.90562 -0.0765285 2.00009
2.80898 -0.753014 4.83246
1.99122 -0.407238 4.67414
1.20311 0.145722 2.6684
1.37849 0.141579 1.55566
1.59768 -0.0685295 3.3968
1.63029 0.0417007 1.64748
1.68416 0.0191456 2.01254
1.95215 -0.47241 5.08781
2.06465 -0.406875 4.52704
2.09719 -0.173428 1.76758
2.77846 -0.976159 6.12318
3.09089 -0.778401 4.01327
2.81025 -0.77835 4.98608
3.50704 -1.5282 7.34564
1.69173 0.0162553 2.00141
3.21631 -0.87304 4.29347
2.82701 -0.575397 3.22322
3.60548 -1.68366 7.86595
4.25547 -2.01175 8.04126
1.96408 -0.126755 2.6365
2.05822 -0.622986 5.65614
3.92971 -1.64301 6.96975
0.732797 0.34691 1.52406
2.82114 -1.00797 6.19772
0.843518 0.317601 1.52346
0.877665 0.305405 1.72657
4.13857 -1.79974 7.26043
3.52779 -1.31626 6.23309
2.4665 -0.903198 6.32068
3.30517 -0.943259 4.50471
2.98825 -0.684647 3.5686
2.96528 -0.648957 3.20961
1.11398 0.232555 1.82041
2.23008 -0.299022 3.31164
3.22094 -1.49478 7.71467
3.84043 -1.38909 5.745
4.21737 -2.07271 8.4116
1.66629 -0.11423 3.55857
3.83415 -1.4803 6.32922
0.925089 0.274662 2.10235
3.57745 -1.57592 7.42832
3.98508 -1.76583 7.46313
2.4579 -0.45305 3.79714
