ply
format ascii 1.0
comment Created by Open3D
element vertex 400
property double x
property double y
property double z
end_header
-1.33851 -1.9979 0.552767
-2.67058 -1.98867 0.46592
-2.4806 -2.35457 0.580315
-1.74271 -2.88407 0.20895
-2.80015 -2.26237 0.472475
-0.889221 -0.819939 0.616413
-2.70247 -2.20207 0.503149
-1.88423 -1.23312 0.556811
-2.3559 -1.28911 0.304487
-1.23244 -1.48203 0.68047
-1.24427 -0.819838 0.589762
-1.46833 -2.00854 0.59928
-3.6555 -2.38049 -0.0406516
-2.03794 -2.31048 0.615225
-2.83085 -2.28646 0.463445
-2.76475 -2.46377 0.507646
-1.67621 -2.8139 0.22102
-1.0511 -2.16244 0.262832
-2.51206 -2.02732 0.547725
-3.27813 -1.91298 -0.012636
-1.30338 -1.98898 0.540781
-1.65427 -0.760073 0.375219
-2.08215 -2.1587 0.646119
-1.84218 -1.01377 0.453291
-1.77836 -1.32558 0.634628
-1.67307 -1.97137 0.660834
-2.91507 -1.89001 0.272915
-2.44994 -1.9339 0.552901
-2.14726 -0.837165 0.0622608
-2.22475 -1.39592 0.460956
-1.60697 -1.83008 0.682365
-2.1269 -3.33172 0.0839477
-1.91354 -1.07675 0.453545
-1.63056 -2.40958 0.470537
-0.993829 -2.29745 0.0914289
-1.06048 -1.14744 0.673251
-2.63844 -1.35708 0.125285
-2.41045 -1.60234 0.457024
-1.57367 -0.927273 0.535025
-0.800956 -0.852844 0.608635
-1.67759 -0.912301 0.476045
-2.44975 -2.25339 0.589161
-2.6389 -2.22438 0.531164
-1.35589 -2.09744 0.511316
-0.589238 -1.6397 0.223389
-1.29491 -1.06222 0.666271
-1.89583 -1.82551 0.684366
-2.49157 -2.42159 0.573902
-1.26413 -1.62113 0.660607
-1.34201 -0.644093 0.451247
-2.67495 -1.48497 0.197905
-1.80309 -1.82706 0.690624
-1.65123 -1.65562 0.703097
-1.45907 -2.17388 0.520438
-2.17077 -2.80471 0.450172
-2.26736 -2.72874 0.503007
-1.99751 -2.79097 0.402966
-0.748026 -0.690284 0.569638
-1.24178 -1.96704 0.52101
-1.14127 -1.32975 0.68035
-0.785041 -1.60868 0.422256
-2.00027 -3.11984 0.180376
-1.42233 -1.5779 0.698544
-1.50191 -2.08645 0.578979
-1.03501 -1.24556 0.664574
-1.95117 -2.65964 0.459428
-1.58159 -0.891586 0.510107
-0.848694 -1.8053 0.35175
-1.80339 -0.987753 0.457979
-0.900525 -1.84868 0.365454
-1.75824 -1.80518 0.693262
-0.874758 -0.688082 0.57905
-2.64024 -1.68938 0.356707
-2.78305 -1.46527 0.087059
-0.848907 -1.10574 0.624029
-2.07922 -2.63186 0.508693
-1.17484 -0.45864 0.37727
-1.4739 -0.55295 0.301503
-1.98251 -1.30228 0.54339
-2.49414 -1.35344 0.245394
-0.943299 -0.964371 0.645468
-2.10379 -1.49201 0.56775
-1.2952 -2.16349 0.440252
-1.35494 -1.02723 0.647335
-0.683357 -0.586823 0.530669
-1.62846 -1.1004 0.600659
-2.98973 -2.34271 0.399897
-2.87652 -1.80837 0.255372
-1.55502 -0.396183 0.0624658
-2.22824 -2.26254 0.623442
-1.43656 -1.27462 0.693643
-3.43653 -2.15291 0.0107622
-2.84607 -1.50811 0.0653791
-0.905009 -1.59018 0.514427
-2.78152 -2.15357 0.457137
-2.65734 -1.24703 0.0035426
-1.06687 -1.93925 0.431533
-2.28026 -3.6294 -0.0792384
-0.957822 -1.30531 0.633122
-1.00409 -1.31393 0.647187
-0.793221 -0.852279 0.606952
-1.68473 -1.38166 0.674615
-0.897846 -1.71663 0.444784
-1.17724 -0.615401 0.495116
-0.661027 -1.5161 0.374731
-0.962853 -2.27058 0.0839265
-1.68289 -1.3691 0.672296
-2.42266 -1.16949 0.150197
-0.727111 -2.09887 -0.0224294
-2.63376 -1.44176 0.199121
-2.23636 -1.37873 0.444438
-0.569559 -1.46419 0.323551
-1.09202 -0.99062 0.660777
-2.09571 -1.95117 0.657553
-1.13752 -2.36123 0.174818
-0.438115 -1.5381 0.129613
-2.66901 -1.52508 0.232391
-0.90031 -0.99932 0.640589
-1.5755 -1.15339 0.6381
-1.94437 -1.8857 0.678349
-2.8086 -1.8374 0.320263
-2.23244 -3.47301 0.0283338
-1.14885 -1.7791 0.563317
-1.03686 -1.84364 0.467709
-1.36409 -1.65174 0.677825
-1.53357 -1.09995 0.630683
-2.35821 -1.28956 0.303087
-0.887711 -0.654719 0.566697
-1.98094 -3.09832 0.186054
-1.05924 -1.33558 0.660183
-1.69204 -1.0395 0.54566
-2.66255 -1.76429 0.380664
-0.906801 -1.8005 0.401509
-0.512229 -1.88666 -0.0935714
-1.92004 -1.07128 0.4461
-0.952927 -1.92067 0.359083
-1.53628 -0.444198 0.138452
-1.05262 -0.644239 0.544218
-1.53804 -2.64055 0.263899
-0.60099 -1.5667 0.287573
-0.564138 -0.897892 0.525317
-1.90112 -0.767173 0.20446
-1.12983 -2.31917 0.203944
-1.05574 -0.717191 0.57893
-0.518732 -1.59471 0.1801
-3.10104 -1.86566 0.111638
-2.26397 -2.52805 0.569645
-3.45481 -2.1611 -2.12132e-05
-1.91436 -3.19666 0.0622254
-1.03734 -1.01382 0.661541
-0.914816 -1.49201 0.561054
-1.52146 -2.2272 0.520629
-1.21412 -2.12188 0.41551
-1.90321 -0.748274 0.183042
-2.52561 -1.1627 0.0477368
-2.09667 -3.19413 0.176423
-2.31095 -2.18606 0.618443
-0.475155 -1.00037 0.452661
-1.82253 -0.710983 0.209806
-2.03599 -1.70925 0.649859
-1.71453 -2.35072 0.53424
-2.06661 -0.690803 -0.0360695
-1.4765 -1.00752 0.61053
-1.77297 -1.83902 0.690271
-1.12362 -2.12257 0.351383
-3.13212 -2.36114 0.32773
-2.10644 -2.21768 0.636495
-1.16646 -0.433343 0.358744
-1.12642 -2.47739 0.0574524
-2.34858 -3.36119 0.175214
-2.18742 -2.28 0.623612
-0.987633 -1.72802 0.498461
-2.31896 -2.4574 0.58639
-1.99812 -0.786695 0.142892
-2.34924 -2.6267 0.545052
-2.55801 -2.58717 0.544656
-0.553494 -0.973996 0.508785
-0.992958 -0.912602 0.642718
-1.56589 -0.665055 0.348158
-1.41767 -0.828873 0.541418
-3.05585 -2.24469 0.335282
-2.189 -2.32245 0.616279
-2.46158 -2.10611 0.577699
-2.21117 -2.47221 0.582599
-0.940864 -2.22233 0.105635
-1.51624 -0.936035 0.56314
-2.20982 -1.99768 0.636919
-0.523629 -1.43885 0.29492
-1.26362 -2.55641 0.116199
-2.9798 -1.9473 0.256651
-2.27828 -2.92228 0.418494
-2.86109 -2.12274 0.406905
-1.22867 -0.504016 0.391716
-1.09544 -0.827846 0.617835
-1.59978 -2.17936 0.572983
-2.19269 -3.57167 -0.0847255
-2.45989 -1.31874 0.245995
-2.63493 -2.24291 0.534757
-2.80793 -1.74303 0.267951
-0.530643 -1.8592 -0.0396263
-1.60074 -1.33547 0.681785
-0.734858 -0.833712 0.591162
-0.989443 -1.36393 0.632528
-3.1732 -1.9528 0.10823
-0.639231 -1.65024 0.267251
-1.6778 -0.691898 0.299021
-1.67121 -2.41642 0.484375
-2.24668 -3.31554 0.161489
-1.23179 -2.59571 0.0489176
-2.00255 -1.86078 0.670853
-0.716745 -0.634635 0.550058
-1.87559 -1.88147 0.683914
-2.36303 -3.4362 0.12689
-2.44498 -2.13803 0.58576
-1.58046 -0.744565 0.406608
-1.30737 -2.56217 0.150133
-1.86922 -1.85651 0.685674
-1.76493 -1.094 0.541736
-0.924778 -0.955962 0.641897
-2.74843 -2.48558 0.512985
-2.1859 -1.13226 0.312046
-1.2316 -0.46463 0.355866
-1.72734 -2.53372 0.442451
-2.78657 -1.94091 0.383082
-1.16845 -2.22968 0.307698
-1.43915 -2.84729 0.00236174
-2.27168 -1.26058 0.345634
-1.69019 -2.76503 0.267909
-0.99599 -1.676 0.528739
-1.44902 -2.55336 0.269436
-1.47721 -0.620814 0.362505
-1.75393 -3.02103 0.102106
-2.45042 -1.3729 0.294086
-2.88351 -2.33898 0.449642
-0.710435 -0.590905 0.535492
-1.56879 -1.86148 0.670486
-1.54845 -0.737077 0.418671
-0.997943 -1.93055 0.387487
-1.4163 -2.30919 0.420693
-0.638542 -1.91811 0.0439184
-2.01513 -3.37161 -0.024282
-0.960711 -2.14786 0.191845
-1.5783 -2.01973 0.627776
-1.01322 -2.12945 0.255739
-2.14319 -1.40693 0.512129
-1.16921 -2.51766 0.0619921
-1.06648 -1.22748 0.672784
-1.73554 -2.54729 0.43813
-1.48459 -1.33933 0.69807
-1.42391 -0.683135 0.442062
-2.17072 -2.81974 0.442691
-1.5811 -2.93028 0.0486631
-1.36628 -1.15702 0.679897
-1.36403 -2.59415 0.17037
-1.90617 -3.28163 -0.0210435
-1.28391 -1.36481 0.698975
-1.57748 -1.426 0.698989
-1.82549 -2.75567 0.350018
-3.02615 -2.25084 0.354763
-1.16334 -1.72127 0.593694
-1.8744 -2.19686 0.629495
-1.60227 -0.959903 0.541241
-2.84145 -1.763 0.254778
-1.04872 -1.29348 0.663012
-2.30284 -1.64248 0.531476
-0.740881 -2.11489 -0.0213193
-2.11944 -2.44026 0.585598
-0.586242 -1.45037 0.34731
-1.71876 -0.950074 0.479341
-1.10918 -2.06549 0.380119
-1.33717 -1.11851 0.67482
-0.685872 -1.73317 0.253229
-1.85264 -3.21688 -0.00128693
-0.434833 -1.79241 -0.108456
-2.14735 -2.14051 0.643651
-1.91887 -2.36375 0.582967
-0.498584 -0.798016 0.499048
-1.20362 -1.70041 0.617665
-1.22513 -0.91983 0.633497
-0.947199 -1.56743 0.548877
-1.75841 -0.962614 0.466238
-1.76806 -0.535166 0.0535633
-2.50379 -1.87894 0.514569
-0.73531 -0.59461 0.539324
-1.5517 -2.1882 0.551897
-1.38081 -1.39879 0.704787
-1.42706 -2.54748 0.258179
-0.96797 -1.30997 0.63583
-1.1093 -1.51139 0.640009
-3.27376 -2.1079 0.120152
-1.76281 -1.40877 0.662276
-2.04041 -1.42248 0.568945
-1.89033 -2.12091 0.650043
-2.40068 -2.36883 0.592548
-2.50694 -1.80352 0.487932
-1.12119 -0.516207 0.444912
-2.77524 -1.40406 0.0399232
-1.7025 -2.86233 0.199765
-1.43671 -2.13446 0.530422
-0.594269 -1.10617 0.502979
-2.9033 -1.99751 0.333747
-2.3713 -2.03655 0.598036
-0.627523 -1.01611 0.542019
-1.10325 -1.838 0.511259
-0.446136 -1.37049 0.259133
-1.4029 -1.92281 0.609972
-0.965369 -1.47679 0.59165
-3.29865 -2.09272 0.0908562
-1.0204 -1.09404 0.665812
-1.2089 -1.59514 0.651019
-0.536406 -1.51337 0.258716
-2.47163 -2.19076 0.581744
-0.880815 -0.997205 0.636311
-1.47139 -0.501972 0.251433
-1.60842 -0.936201 0.524871
-1.75437 -2.03875 0.655587
-2.23961 -0.957007 0.10666
-1.67238 -2.84464 0.19362
-0.621243 -1.91371 0.0264246
-1.57228 -2.55228 0.350555
-1.83432 -2.2486 0.607235
-1.65132 -2.80854 0.208469
-1.60188 -0.966613 0.545144
-2.39131 -3.70743 -0.0796344
-2.44168 -1.35832 0.290197
-1.93145 -1.98717 0.672572
-2.74052 -1.83679 0.36544
-1.80159 -0.692715 0.207423
-1.24613 -2.21392 0.375962
-2.32256 -1.71741 0.548255
-2.00552 -2.7292 0.440485
-0.989589 -0.846711 0.627982
-2.35699 -3.38203 0.163964
-0.906108 -2.22411 0.0663266
-1.68238 -0.604269 0.206963
-0.657514 -1.14958 0.529305
-0.595771 -1.78661 0.111539
-0.623529 -1.35182 0.431088
-0.595539 -0.862641 0.542761
-2.38575 -2.02195 0.591848
-1.6403 -2.29127 0.536249
-2.77338 -1.50265 0.127032
-2.34021 -2.86868 0.456402
-1.28694 -0.902646 0.615897
-1.64298 -1.21065 0.638411
-2.13366 -1.98706 0.651514
-1.95438 -1.71195 0.669694
-2.91566 -2.22116 0.406982
-1.56887 -2.09871 0.596317
-3.71811 -2.34934 -0.11552
-1.91179 -0.647183 0.060493
-2.38033 -1.40795 0.368586
-0.742761 -0.781709 0.586906
-2.39903 -2.63392 0.544041
-1.71967 -1.96514 0.668265
-0.701497 -1.8476 0.179336
-1.80319 -0.939588 0.424335
-1.40202 -0.644557 0.423104
-1.43831 -0.694391 0.443483
-1.93979 -1.24289 0.535237
-2.43295 -1.09315 0.0660579
-0.857962 -0.529878 0.511351
-1.88895 -2.61003 0.464258
-0.839575 -1.98843 0.206221
-1.00801 -0.432709 0.419201
-1.71134 -3.04526 0.0479701
-0.752769 -1.73419 0.316388
-1.85818 -1.92382 0.681043
-1.99947 -2.783 0.408319
-3.21842 -2.29185 0.25004
-1.2661 -0.565347 0.424879
-0.803423 -1.231 0.585244
-1.68722 -2.75794 0.271402
-0.871379 -1.46556 0.547357
-1.48032 -0.738182 0.455165
-1.01742 -1.90206 0.419965
-1.71371 -1.83047 0.69032
-2.70382 -1.71926 0.329455
-2.34239 -2.75281 0.503262
-1.76388 -1.65192 0.695623
-2.00455 -0.604649 -0.0870448
-1.56748 -1.5674 0.706315
-0.782165 -1.32503 0.547647
-2.22803 -3.51834 -0.0133997
-2.61209 -2.56673 0.539692
-2.64555 -2.27545 0.534417
-2.19412 -2.49903 0.574121
-1.60661 -2.07099 0.61746
-1.41156 -0.545457 0.332595
-2.67836 -2.4497 0.532282
-1.31546 -2.44695 0.253802
-2.0516 -2.82934 0.400647
-2.15965 -2.37279 0.605764
-3.09857 -2.18982 0.288054
-2.07206 -1.69213 0.636559
-2.27277 -1.26402 0.347295
-1.35446 -2.61493 0.144073
-1.75137 -1.71857 0.697518
-1.34455 -1.68333 0.666491
-1.55756 -2.061 0.607419
