ply
format ascii 1.0
comment Created by Open3D
element vertex 400
property double x
property double y
property double z
end_header
1.62495 1.71146 -0.720561
1.85558 2.80367 0.0114977
2.08287 2.7523 -0.347335
2.61244 2.01434 -0.718428
2.10489 2.95763 -0.0651985
0.521878 1.18728 -0.401229
2.02378 2.88076 -0.105577
1.05006 2.06729 -0.068166
1.29309 2.35192 0.318094
1.10524 1.60923 -0.605955
0.587114 1.477 -0.204808
1.62978 1.84709 -0.693856
2.58754 3.44845 0.666251
1.96296 2.38546 -0.571304
2.13446 2.98285 -0.0555113
2.25402 2.9745 -0.208466
2.53678 1.95333 -0.725131
1.86827 1.34527 -0.741523
1.82444 2.71494 -0.144925
2.11922 3.07189 0.691512
1.61818 1.67418 -0.725188
0.703415 1.71092 0.181777
1.82443 2.41642 -0.495151
0.90844 1.94751 0.093684
1.07458 2.02936 -0.222363
1.59727 2.04717 -0.61643
1.90367 2.90141 0.319552
1.73302 2.65082 -0.132944
0.997895 1.98654 0.611025
1.28682 2.33385 0.0884691
1.45622 1.98083 -0.594058
3.1133 2.34532 -0.661765
0.972522 2.01777 0.0976901
2.06023 1.97991 -0.72223
2.06083 1.23045 -0.716461
0.79808 1.40984 -0.51954
1.48209 2.51343 0.552091
1.49217 2.52062 0.08089
0.754422 1.74652 -0.0551227
0.540927 1.11287 -0.456314
0.786352 1.80354 0.0460288
1.98756 2.71558 -0.318418
2.0195 2.84378 -0.16833
1.73318 1.72015 -0.732326
1.37417 0.85477 -0.683192
0.763159 1.59397 -0.354778
1.49362 2.22772 -0.448756
2.14489 2.76827 -0.370822
1.23855 1.64671 -0.645622
0.520676 1.46542 0.0298772
1.56029 2.59963 0.455048
1.47824 2.15191 -0.50033
1.30343 2.00342 -0.499357
1.80898 1.82397 -0.725412
2.48678 2.4887 -0.635288
2.40967 2.58643 -0.586367
2.47329 2.31519 -0.681669
0.413921 1.02439 -0.373924
1.60032 1.6085 -0.731036
0.96197 1.50905 -0.575316
1.27693 1.11679 -0.710399
2.86569 2.25442 -0.687326
1.20584 1.79439 -0.571727
1.71136 1.877 -0.701668
0.882438 1.39813 -0.575199
2.32617 2.28464 -0.679097
0.737582 1.7356 -0.0156955
1.48933 1.16466 -0.727026
0.878211 1.91293 0.0839768
1.5271 1.22211 -0.732495
1.45167 2.11175 -0.513679
0.425895 1.13694 -0.316112
1.65028 2.67934 0.2232
1.61473 2.63359 0.597329
0.756116 1.19853 -0.569673
2.29658 2.4145 -0.636023
0.37489 1.25859 0.0913301
0.537068 1.48978 0.24728
1.1302 2.15459 -0.0441237
1.39779 2.44979 0.396832
0.638551 1.26912 -0.466951
1.29772 2.29808 -0.0955656
1.81621 1.64248 -0.745454
0.751557 1.63061 -0.293884
0.335625 0.934555 -0.326973
0.877406 1.85145 -0.160703
2.23752 3.09492 0.0407384
1.83711 2.84778 0.353496
0.534657 1.41654 0.535247
1.9458 2.54498 -0.457994
0.951513 1.75967 -0.409509
2.33551 3.25393 0.634203
1.67136 2.68282 0.62275
1.23263 1.26256 -0.706341
2.01696 2.91813 -0.00926838
1.45179 2.45258 0.70265
1.59572 1.4104 -0.741326
3.47144 2.43822 -0.618543
0.937859 1.32527 -0.621428
0.944962 1.37306 -0.61255
0.540154 1.10535 -0.458709
1.08874 1.97765 -0.325492
1.37433 1.24015 -0.723904
0.450122 1.34252 -0.0691806
1.20351 0.973616 -0.692513
2.0371 1.19633 -0.713207
1.0789 1.97309 -0.318485
1.27792 2.31423 0.520376
1.90919 0.916785 -0.670019
1.51676 2.55876 0.455199
1.28211 2.33298 0.114546
1.1714 0.86235 -0.676101
0.675081 1.40756 -0.41654
1.64356 2.40332 -0.392694
2.09462 1.40413 -0.735474
1.31221 0.664011 -0.641645
1.57641 2.61768 0.40764
0.664525 1.2351 -0.50247
0.896155 1.83274 -0.240148
1.55512 2.27495 -0.450334
1.8195 2.8265 0.259139
3.27716 2.42829 -0.640316
1.40514 1.52281 -0.713447
1.49164 1.38886 -0.73411
1.2707 1.74513 -0.623121
0.848114 1.78541 -0.229154
1.29452 2.35325 0.32001
0.405492 1.13694 -0.284219
2.84165 2.23761 -0.690245
0.965018 1.4298 -0.604989
0.862235 1.86931 -0.0595739
1.7055 2.72134 0.179963
1.46887 1.23843 -0.730759
1.73217 0.666724 -0.621051
0.972525 2.01879 0.108944
1.59941 1.27419 -0.737783
0.534904 1.44558 0.448142
0.431936 1.26492 -0.180629
2.34714 1.83145 -0.737858
1.28149 0.886202 -0.6862
0.586357 0.875673 -0.538332
0.831005 1.83728 0.422397
2.04302 1.40598 -0.73888
0.477305 1.29562 -0.240091
1.34708 0.766355 -0.665338
1.99076 2.97594 0.538746
2.20455 2.58747 -0.534838
2.35057 3.26534 0.646869
2.97776 2.13326 -0.685148
0.686495 1.36467 -0.456021
1.12696 1.27987 -0.685324
1.86353 1.88513 -0.721007
1.78119 1.55481 -0.747695
0.825889 1.82559 0.448036
1.33843 2.34988 0.647698
2.9452 2.3456 -0.673479
1.89513 2.60188 -0.37486
0.697119 0.778401 -0.582685
0.768862 1.76465 0.407417
1.43217 2.31307 -0.29615
1.99043 2.07482 -0.695857
0.91032 1.84709 0.713407
0.770935 1.71309 -0.197219
1.48421 2.12778 -0.521117
1.80058 1.44561 -0.747937
2.31018 3.18308 0.153753
1.88314 2.44098 -0.505691
0.361333 1.23847 0.112887
2.25082 1.35299 -0.71611
3.12529 2.58448 -0.630205
1.95463 2.51279 -0.487247
1.37036 1.34529 -0.722657
2.14393 2.63243 -0.483859
0.892659 1.89216 0.504675
2.31354 2.6624 -0.524137
2.31057 2.83461 -0.399711
0.658023 0.869467 -0.570016
0.603011 1.30255 -0.414292
0.622901 1.60805 0.204235
0.644391 1.60215 -0.0884432
2.19584 3.1047 0.168502
1.99477 2.51668 -0.502498
1.86932 2.69837 -0.230764
2.14269 2.54069 -0.542485
1.98184 1.18135 -0.715426
0.739435 1.71284 -0.108095
1.71029 2.49721 -0.344297
1.15736 0.80512 -0.666151
2.30899 1.51104 -0.72856
1.97018 2.95692 0.334772
2.61872 2.58184 -0.617922
2.02742 2.95641 0.0814484
0.414282 1.31841 0.0853436
0.558118 1.36517 -0.303076
1.80799 1.97115 -0.694954
3.41208 2.35228 -0.629576
1.36286 2.41577 0.396627
2.03294 2.8449 -0.18212
1.765 2.78596 0.342981
1.68445 0.705392 -0.636257
1.03342 1.90279 -0.349456
0.523654 1.04492 -0.467442
0.992821 1.36055 -0.634507
2.07741 3.04859 0.533668
1.36855 0.920916 -0.694479
0.686769 1.68293 0.281512
2.0651 2.02253 -0.715115
3.07827 2.48395 -0.648621
2.37151 1.45599 -0.716552
1.54611 2.31722 -0.403478
0.371631 0.979749 -0.347895
1.53865 2.21841 -0.486542
3.21559 2.58364 -0.626313
1.8901 2.69291 -0.260725
0.663676 1.66135 0.130435
2.30334 1.5662 -0.733562
1.51553 2.2102 -0.478488
0.921387 1.93754 -0.0475994
0.630446 1.25029 -0.469482
2.26758 2.96643 -0.231305
1.13054 2.18762 0.306173
0.399017 1.29721 0.13185
2.1944 2.06666 -0.716052
1.87321 2.85427 0.151949
1.92042 1.47771 -0.748195
2.63989 1.64655 -0.705736
1.23583 2.29643 0.261153
2.47367 1.98155 -0.726855
1.31205 1.35994 -0.71388
2.25691 1.74547 -0.742686
0.564977 1.53304 0.171866
2.78441 1.99055 -0.705746
1.38366 2.43966 0.330809
2.1939 3.02859 -0.0456806
0.340664 0.960676 -0.318885
1.48338 1.94689 -0.620455
0.646565 1.63897 0.109643
1.60023 1.32826 -0.740297
1.96808 1.75741 -0.743921
1.70876 0.847889 -0.670838
3.1851 2.20164 -0.661073
1.87808 1.23049 -0.729229
1.6412 1.95683 -0.664621
1.83811 1.30456 -0.738947
1.25869 2.29143 0.00599686
2.28919 1.39768 -0.718061
0.867508 1.42645 -0.556227
2.20935 2.07348 -0.715684
1.01157 1.81235 -0.420983
0.570589 1.53646 0.0578046
2.50335 2.48711 -0.637543
2.70837 1.80301 -0.709004
0.847716 1.67558 -0.376129
2.32881 1.62937 -0.735526
3.09072 2.09708 -0.672852
1.00348 1.64524 -0.534704
1.09869 1.90479 -0.418522
2.44444 2.13672 -0.712592
2.187 3.08999 0.136795
1.34271 1.5419 -0.698766
1.83489 2.23637 -0.606347
0.783355 1.77882 -0.061533
1.79355 2.8109 0.35907
0.926129 1.41607 -0.591199
1.47345 2.47187 -0.0456336
1.92433 0.93144 -0.671929
2.10048 2.45922 -0.574487
1.15017 0.886445 -0.677648
0.822975 1.84586 0.0453958
1.73538 1.43929 -0.746938
0.81312 1.64256 -0.367837
1.45318 0.96586 -0.702708
3.01773 2.05179 -0.681208
1.64782 0.579417 -0.602097
1.81969 2.46817 -0.451715
2.00712 2.2755 -0.634662
0.504641 0.791959 -0.502596
1.31883 1.5852 -0.685155
0.647792 1.49717 -0.2953
1.20216 1.31247 -0.698231
0.846036 1.87498 0.0682161
0.688938 1.61429 0.578574
1.71316 2.66957 -0.0514269
0.345553 0.984367 -0.31101
1.81904 1.92086 -0.708505
1.04377 1.73583 -0.507354
2.25431 1.72023 -0.742772
0.94197 1.33597 -0.6206
1.1325 1.48819 -0.6536
2.21856 3.1631 0.497972
1.12948 2.0421 -0.291283
1.2285 2.23439 -0.0933418
1.76212 2.24912 -0.574944
2.07722 2.69229 -0.403071
1.66257 2.64789 0.00668784
0.382349 1.25505 -0.0121068
1.5849 2.5944 0.65736
2.5926 1.97223 -0.721174
1.76706 1.80411 -0.723937
0.779715 0.920725 -0.611611
1.96329 2.93752 0.2169
1.78656 2.62129 -0.255503
0.688191 0.955439 -0.577557
1.47477 1.46648 -0.728885
1.10556 0.711072 -0.645414
1.54168 1.78403 -0.691269
1.10607 1.33609 -0.674071
2.2239 3.16747 0.538719
0.750349 1.36409 -0.507619
1.21307 1.59097 -0.653458
1.24094 0.808838 -0.671424
1.94102 2.72137 -0.270917
0.662004 1.21602 -0.508135
0.518223 1.45514 0.306918
0.772209 1.77241 -0.0350309
1.66931 2.12381 -0.605762
1.09151 2.10511 0.565883
2.57616 1.94086 -0.723038
1.71122 0.823732 -0.664917
2.23348 1.89108 -0.737877
1.88431 2.19861 -0.63652
2.53484 1.92502 -0.726021
0.787073 1.78142 -0.0678426
3.55451 2.54423 -0.601752
1.37188 2.42812 0.336479
1.64272 2.2759 -0.50344
1.78642 2.79089 0.193465
0.751394 1.74291 0.407765
1.88421 1.57584 -0.749739
1.5319 2.50807 -0.0850969
2.40298 2.33174 -0.673311
0.553644 1.28266 -0.372611
3.14993 2.58909 -0.628458
1.99793 1.13229 -0.705902
0.658673 1.62798 0.392711
0.812863 0.994227 -0.620306
1.55645 0.825935 -0.674289
1.02962 0.945729 -0.668971
0.552144 0.906036 -0.517341
1.77931 2.62839 -0.236604
1.92781 2.00376 -0.704666
1.62523 2.6508 0.545539
2.56309 2.6458 -0.586964
0.650976 1.53861 -0.243356
0.954759 1.89887 -0.235262
1.68277 2.43795 -0.387391
1.4126 2.25373 -0.352326
2.11937 3.01745 0.0594731
1.72296 1.94462 -0.686585
2.60755 3.4599 0.766072
0.802134 1.75684 0.589527
1.36606 2.42222 0.225555
0.482552 1.04192 -0.434479
2.3275 2.70545 -0.502138
1.59506 2.08975 -0.595268
1.59009 0.959008 -0.699863
0.853893 1.88889 0.131752
0.543933 1.50265 0.0795535
0.581593 1.55111 0.0583694
1.07733 2.10535 -0.0300219
1.25633 2.26977 0.623189
0.322249 1.06559 -0.197538
2.2723 2.22668 -0.68882
1.71707 1.11093 -0.720245
0.307359 1.13336 -0.00876896
2.82593 1.93067 -0.700884
1.43227 1.05469 -0.714431
1.57368 2.20832 -0.514387
2.4641 2.31837 -0.68049
2.30252 3.20775 0.286477
0.45553 1.37592 0.0499435
0.875758 1.15866 -0.627617
2.46544 1.97972 -0.727275
1.10487 1.23207 -0.684131
0.619283 1.59922 0.0492184
1.56252 1.35696 -0.739277
1.46821 2.07597 -0.546509
1.69872 2.72436 0.259321
2.44107 2.65413 -0.561069
1.3205 2.0953 -0.435898
0.853182 1.75602 0.761501
1.21426 1.92062 -0.499405
0.971701 1.13549 -0.658675
3.33608 2.41029 -0.635682
2.30352 2.8753 -0.358936
2.06244 2.85856 -0.19284
2.16732 2.52583 -0.558424
1.69425 1.98335 -0.668796
0.505998 1.45102 0.197873
2.21705 2.91101 -0.262055
2.15435 1.60806 -0.745214
2.51512 2.36582 -0.672166
2.03869 2.49375 -0.534908
2.17888 3.10951 0.250688
1.42949 2.3347 -0.260151
1.2381 2.29869 0.258804
2.3583 1.61109 -0.732105
1.37461 2.09533 -0.476815
1.30047 1.72741 -0.640667
1.68357 1.93499 -0.681233
