ply
format ascii 1.0
comment Created by Open3D
element vertex 400
property double x
property double y
property double z
end_header
-1.00237 -1.51442 0.539933
-2.15438 -1.76067 2.26596
-0.67724 -1.2862 0.929308
-1.47038 -0.428705 1.75221
-1.69608 -1.94582 0.628448
-1.19641 -1.67469 0.659398
-0.75405 -0.408786 1.29386
-1.02565 -1.59011 1.10521
-2.16301 -1.86048 2.23233
-2.98507 -1.49289 2.72596
-0.78803 -1.30286 0.364004
-0.81436 -1.13913 1.37087
-1.71054 -0.928636 2.03534
-1.8643 -1.6686 2.09705
-1.47093 -1.40846 1.88618
-1.04217 -1.34037 0.0847467
-0.77637 -1.34128 0.503432
-2.49388 -1.14551 2.46224
-0.27071 -0.633483 0.799978
-1.96663 -0.810585 2.13744
-1.0316 -1.54951 1.26722
-1.19402 -1.5966 1.48616
-1.53738 -1.40484 1.93684
-0.72354 -1.07516 1.2915
-0.31321 -0.6916 0.856568
-1.19541 -1.72058 1.16651
-1.49399 -0.412045 1.75777
-2.10963 -2.28021 1.58675
-1.26778 -0.940042 1.77352
-2.17856 -2.33365 1.41778
-1.43239 -1.71478 0.388619
-1.37777 -1.22986 1.84985
-1.00328 -0.43533 1.47937
-1.75013 -1.51194 2.06354
-0.95078 -0.631015 1.50395
-0.84354 -0.90026 1.45173
-2.24559 -2.04608 2.18348
-2.05794 -2.26807 1.3825
-0.49109 -1.1054 0.724282
-0.82976 -0.472206 1.37186
-1.38031 -0.962068 1.84851
-1.91193 -2.15437 0.994928
-2.18527 -1.2826 2.33275
-1.31316 -1.43694 1.74511
-1.86679 -1.70988 2.0822
-0.65061 -0.341844 1.18805
-1.8014 -2.12193 1.24899
-1.09464 -1.05384 1.65242
-2.63207 -2.56357 1.46537
-0.99419 -1.10134 1.56325
-2.91732 -1.29327 2.67261
-0.7894 -0.549641 1.36404
-1.85071 -0.893302 2.10137
-2.76938 -1.59036 2.63121
-2.39768 -1.13526 2.41651
-1.18895 -1.68929 1.28914
-1.39051 -1.81256 0.737965
-1.56427 -1.78397 0.387749
-0.55474 -0.916128 1.14165
-0.66885 -0.742137 1.29244
-2.35765 -0.942842 2.35549
-1.71357 -2.03757 0.93167
-0.93276 -0.654434 1.49643
-1.37831 -1.66445 0.341214
-1.957 -2.18242 1.02152
-2.20358 -1.17574 2.33056
-2.20349 -2.34412 1.31242
-0.84488 -1.43847 1.02901
-1.57075 -1.21526 1.98136
-1.89039 -2.17368 1.3306
-1.77959 -2.10641 1.35159
-0.67992 -0.406692 1.23498
-0.85021 -1.4491 0.741416
-2.96027 -1.38381 2.70402
-1.87021 -1.57285 2.13075
-1.4695 -1.85576 0.729861
-0.6186 -1.22349 0.555949
-0.61487 -1.14944 0.317894
-1.45842 -1.79381 1.59984
-1.87301 -2.15332 1.12087
-1.86075 -2.11471 1.60812
-2.35159 -2.42343 1.51572
-1.84492 -2.01759 1.79931
-1.40071 -1.84715 1.34804
-2.07903 -1.68492 2.23958
-0.42092 -0.843105 0.973354
-0.79196 -1.40673 0.869218
-1.63988 -1.84058 1.77938
-0.56207 -1.17362 0.837518
-1.26232 -1.69102 0.579212
-2.17152 -2.19394 1.94396
-1.39901 -1.44801 1.81564
-1.00142 -0.506147 1.50298
-1.73183 -1.2816 2.08034
-1.91001 -2.13985 1.63812
-0.58207 -1.20396 0.782647
-1.75873 -1.73423 1.98348
-1.06226 -1.50345 0.399105
-2.32948 -2.35404 0.987446
-1.68517 -1.73729 1.91681
-1.73993 -2.00507 1.66227
-1.62598 -1.88097 1.70929
-1.33494 -0.666929 1.76075
-0.90728 -1.48967 0.716504
-0.50453 -1.10477 0.501282
-1.52377 -1.90626 1.47898
-1.88778 -1.66956 2.11372
-1.54907 -1.9572 1.01031
-1.49016 -1.92768 1.23449
-1.43573 -0.694662 1.82688
-0.39122 -0.794873 0.94765
-1.80021 -1.58197 2.07995
-2.17192 -1.07123 2.29823
-1.087 -0.659193 1.60427
-1.7986 -2.11617 1.16142
-1.23755 -1.71677 0.723795
-1.58022 -1.37597 1.97303
-2.00093 -1.04628 2.20919
-1.41839 -0.29376 1.66427
-2.09982 -2.22709 0.905705
-0.75494 -0.739245 1.36991
-0.83859 -1.25486 0.175037
-1.44723 -1.11726 1.90188
-2.93085 -2.70259 1.49986
-2.32459 -2.37205 1.76717
-1.00729 -0.161312 1.35973
-0.93616 -1.0374 1.52193
-1.17521 -1.46519 0.167507
-2.19504 -2.2281 1.9155
-0.99517 -1.32121 0.103457
-2.33774 -2.36343 1.82482
-2.40806 -2.45263 1.52681
-0.82531 -1.43625 0.844498
-0.6247 -0.553353 1.22843
-0.5049 -1.12347 0.667212
-0.91376 -1.26763 1.41906
-0.49161 -0.972944 1.00891
-1.68485 -1.47512 2.02662
-0.31525 -0.84338 0.727768
-2.32787 -1.01176 2.35904
-1.84312 -0.603664 2.01016
-0.29927 -0.858647 0.5987
-0.71575 -0.255181 1.20359
-1.84351 -2.13945 1.14164
-1.93279 -1.84096 2.06552
-2.02883 -0.77564 2.15686
-2.05878 -1.28637 2.26681
-1.3684 -0.358758 1.66683
-1.7733 -1.67001 2.02785
-2.02555 -2.23673 1.14464
-1.22007 -1.40691 0.016313
-0.38916 -0.971261 0.72028
-0.27938 -0.697957 0.786515
-1.22263 -1.74656 1.11046
-0.78057 -0.596013 1.36833
-2.78021 -1.25694 2.60814
-1.42719 -0.375955 1.70646
-0.63455 -1.14844 0.275333
-1.35324 -0.300655 1.63205
-0.42574 -1.02482 0.519978
-0.48134 -1.01525 0.941527
-1.48365 -0.648778 1.83994
-1.37866 -0.324406 1.65701
-1.86836 -2.15204 1.132
-0.99838 -1.28103 1.50831
-1.33118 -1.68081 0.441213
-1.12956 -0.325312 1.51411
-2.91656 -2.69768 1.52423
-0.73054 -1.34681 0.897361
-1.50039 -0.575295 1.82464
-0.51053 -1.12535 0.59566
-1.30122 -1.69259 0.517143
-0.54912 -0.908986 1.13682
-0.4812 -1.08344 0.786628
-1.46519 -1.91083 1.06
-1.05333 -1.62272 0.981528
-1.29617 -1.78068 1.27945
-1.8407 -1.99219 1.83177
-0.68613 -0.950111 1.29122
-1.37887 -1.19152 1.85402
-0.96296 -1.51244 1.18449
-1.16786 -1.03635 1.70864
-0.92943 -0.941209 1.52396
-1.57383 -1.73578 1.80949
-1.56929 -1.97964 1.24009
-1.64243 -1.64788 1.93211
-2.81834 -1.50412 2.65217
-2.66639 -1.20653 2.55
-0.34015 -0.706492 0.898019
-2.73782 -1.22095 2.58364
-0.78221 -1.37875 0.640363
-0.30245 -0.842737 0.677062
-0.74292 -0.258299 1.22548
-1.89542 -2.16505 1.11813
-2.07322 -2.27217 1.47723
-1.72682 -2.06445 1.42643
-1.842 -2.06919 0.786522
-0.95988 -1.45248 1.30229
-2.27774 -1.31315 2.38188
-0.29626 -0.741698 0.794208
-0.38656 -0.971833 0.70162
-1.30363 -1.75206 1.39938
-1.80786 -2.11996 1.39948
-1.34386 -0.95813 1.82494
-1.69073 -2.05023 1.35236
-2.25288 -2.29484 0.89297
-2.35444 -2.42562 1.41572
-1.13678 -0.842772 1.67368
-0.6651 -1.12522 1.17896
-1.69125 -1.97176 0.716377
-1.15494 -0.572417 1.62338
-2.30222 -2.39878 1.46908
-1.8296 -1.54375 2.11037
-2.27438 -1.0024 2.33231
-0.54425 -0.513515 1.14598
-1.56035 -1.8379 0.524192
-1.5269 -1.11652 1.95256
-2.83811 -2.65846 1.46154
-2.13843 -2.04582 2.08938
-0.44022 -1.0322 0.769184
-1.9435 -2.11559 1.76449
-1.3488 -1.57041 1.70363
-1.5439 -0.372801 1.76682
-1.45456 -1.90607 1.09766
-1.31748 -1.35084 1.7801
-0.77241 -1.06977 1.35139
-1.54105 -1.84764 0.578625
-1.74877 -1.99292 0.689648
-1.58018 -1.32491 1.98021
-1.09203 -0.920526 1.65001
-1.4336 -1.86882 1.36331
-1.40476 -1.86329 1.27806
-1.54847 -0.463721 1.80792
-1.29794 -1.67277 0.468974
-1.36334 -1.83384 1.27074
-2.08194 -2.21354 0.886231
-2.64028 -2.5633 1.39904
-0.50133 -1.11794 0.623308
-0.7594 -0.653084 1.36245
-0.79556 -1.00756 1.39395
-1.19421 -1.67197 1.35195
-1.89953 -1.42387 2.17406
-2.80329 -2.6473 1.58987
-1.138 -1.68511 0.952275
-2.16771 -1.90314 2.2144
-1.11557 -1.64972 1.19743
-0.81834 -1.2175 1.33106
-1.40312 -1.09997 1.87268
-0.76112 -1.27879 0.353497
-1.58403 -1.96342 1.43737
-0.34377 -0.924669 0.6079
-2.71146 -2.57166 1.21785
-0.7949 -0.826233 1.40948
-1.23086 -1.44086 1.66495
-2.15814 -2.31937 1.49244
-1.31678 -0.655028 1.74662
-2.08512 -2.25944 1.09311
-1.87375 -0.695878 2.05706
-2.42675 -1.1738 2.43662
-0.68439 -1.30018 0.894681
-1.14765 -1.49872 0.267817
-1.83816 -2.00801 1.80524
-0.89107 -1.32357 0.24229
-0.94833 -1.0976 1.52246
-2.10237 -1.38302 2.29256
-2.29642 -2.39061 1.56352
-1.31733 -1.81374 1.03994
-2.11863 -2.22985 1.79353
-1.55907 -1.97288 1.24258
-2.11588 -2.23921 0.923524
-0.85533 -0.335543 1.33995
-0.49941 -0.98425 1.01369
-1.17887 -1.28085 1.68296
-2.55312 -2.52084 1.64684
-1.69544 -0.712226 1.97267
-2.71188 -2.59888 1.4316
-0.27442 -0.604555 0.815683
-2.66555 -2.56249 1.28769
-2.27563 -1.51225 2.38294
-0.63321 -0.644881 1.25121
-1.24832 -1.6295 1.52355
-1.10767 -1.58552 0.547089
-2.09857 -2.29036 1.35349
-1.0899 -1.64737 1.07202
-1.99724 -1.65448 2.19423
-0.62476 -1.19102 0.411706
-0.42004 -1.00869 0.749774
-0.48134 -0.907197 1.03769
-1.89857 -2.16456 1.49647
-2.37446 -1.74967 2.40622
-2.39148 -2.44353 1.53706
-2.45922 -1.73209 2.45864
-1.69808 -2.0012 0.808492
-0.8423 -1.29359 1.30219
-2.14382 -1.85508 2.22105
-1.19297 -1.59359 0.423734
-1.7825 -1.58377 2.06681
-2.31591 -2.36684 1.76685
-0.72045 -0.573266 1.31472
-0.69885 -1.2104 0.30139
-1.71506 -1.66133 1.98558
-0.55315 -1.14261 0.908003
-1.80867 -1.12432 2.1185
-0.39412 -0.985169 0.493971
-1.86774 -1.36768 2.15897
-1.15974 -1.48466 1.5578
-0.94237 -1.31438 0.154467
-0.53857 -1.03669 1.03901
-1.49076 -1.1551 1.93051
-0.68783 -1.30263 0.660961
-2.05687 -1.12673 2.25036
-1.88042 -2.09109 0.796223
-1.23568 -1.74721 1.20106
-0.5942 -0.439325 1.1731
-1.15214 -1.6835 0.838197
-0.92306 -1.50742 1.05481
-2.51311 -2.46165 1.09916
-1.56066 -0.711689 1.90108
-1.75388 -0.681191 1.99278
-2.86582 -2.65423 1.31586
-1.36114 -1.57622 0.179075
-0.87983 -1.36495 0.354918
-1.82026 -1.38583 2.12891
-0.44641 -0.516004 1.04707
-0.71974 -0.718498 1.3373
-0.96117 -1.52857 1.12326
-2.21848 -1.46642 2.35406
-2.39198 -1.82373 2.39751
-2.43077 -1.05925 2.41632
-0.80714 -1.32923 1.19836
-1.14473 -1.69169 1.01827
-2.47268 -2.48268 1.59694
-1.52327 -0.766369 1.89556
-2.29524 -2.39154 1.54413
-1.30914 -0.485662 1.68555
-2.13525 -2.26347 1.72888
-1.09367 -1.47459 1.48329
-1.71418 -1.74374 1.93882
-1.6021 -1.69849 1.86588
-3.0939 -1.39387 2.76163
-1.05384 -0.735179 1.5988
-0.89019 -0.443844 1.40571
-0.89941 -1.45224 0.572544
-1.4526 -1.83415 0.686813
-1.0187 -1.58301 0.788134
-0.9189 -0.784125 1.50813
-1.25628 -1.00246 1.77062
-1.37923 -1.81931 1.38898
-1.41418 -1.66128 1.70131
-1.23427 -1.75503 1.11251
-1.21176 -1.67552 1.38227
-2.55822 -1.41759 2.52598
-1.34979 -1.8353 1.16383
-0.41415 -1.01662 0.575458
-1.53748 -1.94042 0.94012
-0.49642 -1.11403 0.667756
-1.25747 -0.339715 1.59599
-1.45256 -1.73583 0.412434
-1.82826 -1.14002 2.13089
-0.4568 -0.773723 1.05394
-0.61706 -0.649923 1.23668
-0.88386 -0.557052 1.43676
-0.93109 -1.50511 1.10282
-1.78514 -0.790849 2.04165
-1.33571 -0.404366 1.66828
-0.69983 -1.24705 1.10101
-1.74271 -0.755643 2.00995
-1.29909 -1.65863 0.431356
-1.60845 -0.843628 1.96152
-1.376 -1.70855 1.60249
-0.29681 -0.582359 0.857197
-1.10028 -1.52217 0.386448
-1.57606 -1.91219 1.57343
-1.87963 -2.07727 0.750615
-1.16286 -1.39045 0.0448306
-2.31793 -1.84235 2.34491
-1.34384 -1.66005 1.61768
-1.88148 -2.14234 1.01518
-1.09061 -1.01144 1.65102
-1.08812 -1.59352 0.615805
-1.64922 -1.54318 1.98167
-0.89101 -1.43992 0.549825
-0.39213 -0.9864 0.660367
-2.09931 -1.82955 2.20074
-1.03125 -1.59046 1.13059
-1.92938 -1.01999 2.168
-1.73648 -1.65215 2.00688
-0.75165 -1.30223 0.438809
-1.82549 -1.19783 2.1338
-0.68334 -1.30588 0.827485
-1.51764 -1.86963 0.684614
-2.25602 -1.38791 2.37444
-1.22401 -0.830688 1.72999
-2.01959 -1.9916 2.02731
-0.46688 -1.04466 0.406424
-1.03929 -0.889646 1.60911
-0.90242 -1.5018 0.880864
-1.69362 -1.98537 1.62377
-2.16677 -1.24251 2.31992
-1.3396 -0.660431 1.76162
