ply
format ascii 1.0
comment Created by Open3D
element vertex 250
property double x
property double y
property double z
end_header
-0.634054 -1.14833 0.439789
-2.35426 -1.0264 1.61301
-2.0979 -0.0348027 1.34618
-0.632136 0.172455 0.610148
-1.19101 0.271386 0.772803
-0.924948 0.336359 0.493041
-0.502618 0.209972 0.436901
-3.39078 -0.232193 1.50676
-0.324364 -1.33071 -0.127726
-0.0488536 -0.291628 -1.79479
-0.335429 0.159854 0.329634
-0.0361481 -1.15169 -0.406775
-4.32371 -0.565032 1.67951
-0.197955 -0.807525 0.193638
-1.0598 0.210517 0.820218
-1.54462 -0.764098 1.32294
0.23728 -0.171077 -0.632753
-1.07372 -0.340407 1.12629
-0.543555 -1.15205 0.337841
-0.52775 -0.170381 0.739485
-1.8799 -1.12856 1.3706
-0.157385 -0.0366559 0.304524
0.0686138 -0.291025 -1.62075
-0.136472 0.177676 -0.641742
-0.874466 -0.367943 1.00394
-0.420462 -1.00645 0.318588
0.27643 -1.0019 -1.69181
-0.142239 0.197212 -0.204581
-5.73399 -1.05216 1.77277
-0.0823008 0.165295 -0.283378
-0.117074 -1.8411 -1.48758
-0.115102 -0.38353 -2.02344
0.318276 -0.560253 -0.792517
-0.179128 0.189504 -0.691503
-0.419998 -1.14426 0.198092
0.278481 -0.376042 -0.553643
-0.744851 -0.217321 0.911926
-4.93772 -1.75097 2.08425
-5.38073 -1.76991 2.1139
-1.70064 -0.222618 1.37544
-6.164 -1.69393 2.07106
0.23479 -1.15191 -1.30344
-1.26521 -0.334905 1.2267
-2.01302 -0.285593 1.48483
0.214471 -0.129956 -0.594829
-4.46806 -0.891308 1.8982
-1.0502 0.0819683 0.958411
-4.59527 -1.1681 2.00348
-5.32398 -2.00528 2.10598
-0.0905179 -1.08855 -0.229195
0.231524 -0.506017 -0.401085
-3.28445 -1.69665 1.7341
-5.85151 -2.6605 2.05107
-4.36046 -1.03012 1.96316
-1.77437 0.14129 1.11275
-3.66442 -0.380783 1.62131
-0.224121 0.233383 -0.51407
-0.146974 0.204571 -0.267518
-0.190955 -1.11074 -0.0870351
-0.294053 0.0144109 0.441759
-6.18515 -1.28683 1.84323
-4.4252 -1.28625 2.02414
-4.2548 -0.937998 1.93149
-4.03035 -0.494399 1.66981
-0.592379 -0.22187 0.798806
-5.35204 -1.58525 2.09166
-0.352629 -0.55698 0.520929
-1.0246 -0.80969 0.991462
0.229446 -0.920232 -0.787173
-5.74303 -2.48196 2.08025
-3.97632 -0.846295 1.89941
0.066486 -0.1734 0.00286747
-2.51891 -0.258041 1.55634
0.150295 -0.818193 -0.427817
-0.598801 0.300419 0.325523
-0.0742504 0.0876043 0.0180735
-3.64587 -1.30105 1.92779
-5.60894 -1.78676 2.12003
0.308015 -0.827799 -1.54572
-1.39773 -1.08901 1.11022
0.107092 -0.139354 -1.23363
-0.443759 -0.0495931 0.630475
-0.0941514 -1.20876 -0.366052
-0.224372 -0.13024 0.430932
-0.187503 -0.323714 0.399272
0.0142066 0.0368227 -0.0999589
-1.41446 0.186614 0.979823
-1.24856 -0.960199 1.07679
0.275279 -0.700927 -1.66826
-1.03232 0.301892 0.642417
-3.07377 -0.377956 1.65998
-4.28681 -0.835652 1.88311
-0.712679 0.1505 0.696999
0.146548 -0.551311 -0.208466
-2.59258 -0.561534 1.68964
-0.739866 0.367207 0.207751
-0.323065 0.0877386 0.410366
-0.0110233 -0.239931 0.157267
0.249549 -0.595128 -1.6596
-1.26872 -0.978304 1.08145
0.229043 -0.729941 -0.554799
-2.79915 -0.778301 1.76313
-1.88727 -0.369249 1.47547
-0.0976706 -0.639624 0.16593
-0.795033 -1.06419 0.661735
-0.908078 0.0394045 0.917228
-1.24983 -0.898569 1.10586
-2.07177 0.157392 1.10866
0.169802 -0.569709 -1.83544
-3.43327 -0.261417 1.53304
-1.27958 -0.146935 1.19282
-1.87274 -0.59229 1.49192
-1.47013 -1.26068 1.06074
-3.14326 -0.46403 1.71297
-2.82732 -0.935909 1.77211
-0.0627168 -1.17313 -0.381345
-4.3665 -0.63442 1.73504
0.242863 -1.17014 -1.67421
-2.29714 0.0700115 1.23802
-3.83095 -1.91113 1.83003
-2.81138 -1.36705 1.68481
0.336601 -0.581607 -1.16017
-2.41903 -0.244709 1.53771
-4.99461 -1.88197 2.08129
0.331496 -0.497024 -1.07511
-4.9933 -1.99367 2.06663
0.23104 -1.21163 -1.58779
-0.100127 -1.58863 -0.947269
0.259845 -0.570042 -1.59895
-2.44595 -0.989962 1.65332
0.20463 -0.9045 -0.679325
-0.971977 -0.569553 1.03749
0.0929815 -1.31564 -0.995432
-4.92975 -0.895525 1.83837
-4.69467 -1.47515 2.06013
-0.0791112 -1.47337 -0.790368
-0.595433 -0.0923812 0.774805
-0.641037 -0.301677 0.839476
-2.92674 -1.2257 1.76145
-5.72099 -1.986 2.13481
0.266053 -0.345093 -0.505951
-2.46687 -0.150098 1.47593
-1.46935 -1.20307 1.09433
-5.1134 -0.87001 1.77836
-1.56046 -0.10749 1.28074
-2.7044 -0.384433 1.6439
-0.350155 0.00786303 0.507782
-1.74052 -0.491419 1.4411
0.0993178 -0.0900575 -1.12018
-5.80525 -1.29246 1.93703
-5.87717 -2.29158 2.12925
-3.0474 -0.235814 1.54921
0.163862 -0.0733526 -0.82325
0.0542494 0.0384735 -0.245401
-3.13096 -0.8828 1.83527
-0.195525 0.21212 -0.590608
-0.153545 -0.0570544 0.311451
-1.15838 0.323197 0.645451
0.269237 -0.709301 -0.67355
-1.61251 -0.565024 1.38772
0.204012 -0.286648 -1.32083
0.215283 -0.42125 -0.32584
0.0612174 -1.09625 -0.546358
-2.1639 -0.329023 1.53546
0.313603 -0.380897 -0.951679
0.33706 -0.561185 -1.01847
-1.79112 -0.722713 1.44752
-3.37441 -0.373666 1.64695
0.229982 -0.439725 -0.373388
-2.87975 -0.899889 1.78542
-6.02117 -1.65877 2.07416
-3.35775 -0.801733 1.85444
-3.52626 -1.2749 1.90629
-0.493501 -1.14998 0.281939
-0.754465 -0.0689017 0.881074
-0.437814 -0.74212 0.520201
-1.15073 -0.500848 1.16147
-0.867443 0.126589 0.821352
-1.48534 -0.917303 1.24173
-0.012133 -1.52894 -1.08668
-1.02749 0.00716888 1.00185
-1.43511 -0.381218 1.30943
-2.23981 -0.260005 1.52038
-0.0895391 -0.213784 0.273048
-5.08962 -1.60842 2.09113
-4.15189 -0.923244 1.92764
-0.0801691 -0.681421 0.114494
0.0853029 -1.36304 -1.06684
0.314898 -0.839827 -1.13689
-3.80295 -0.409507 1.62741
0.145608 -1.41301 -1.54031
-0.141168 -1.59417 -0.852132
-0.0858403 -0.778756 0.0543774
-5.53045 -1.16301 1.90883
-4.71079 -0.906353 1.88039
0.312027 -0.887113 -1.25539
-1.98789 -0.852991 1.50705
0.275634 -0.263665 -0.677515
0.149868 -0.0850054 -0.945306
-0.137252 0.200982 -0.333162
-0.962598 -2.79159 -1.41988
-0.670178 -1.76757 -0.171732
-3.11468 -4.3053 -0.930638
-3.06097 -4.96235 -2.26752
-5.16959 -6.94754 -3.28455
-4.59886 -6.48687 -3.15853
-0.726517 -2.41613 -1.12787
-2.79072 -4.54996 -1.82206
-2.80259 -4.13255 -1.02269
-1.35724 -2.5704 -0.374244
-0.490995 -1.912 -0.665984
-1.84695 -3.19357 -0.696704
-0.514502 -2.07284 -0.901329
-0.768306 -2.34166 -0.901906
-3.15247 -4.36171 -0.978377
-2.66768 -4.07469 -1.09673
-0.539195 -2.32325 -1.36542
-3.85757 -5.30823 -1.7629
-2.10533 -4.14248 -2.16178
-2.91505 -4.64357 -1.81771
-4.76337 -6.30396 -2.48268
-0.758972 -2.3371 -0.910938
-2.31114 -4.36151 -2.2752
-1.52607 -3.54702 -1.94986
-5.18712 -6.64301 -2.58293
-5.24368 -6.98405 -3.24728
-1.18924 -2.85947 -1.11082
-3.6049 -4.74005 -1.07375
-4.39189 -6.23762 -2.9194
-0.606204 -1.61496 -0.0671759
-3.91244 -5.3688 -1.80428
-0.578748 -1.6645 -0.166725
-0.718107 -1.81662 -0.169802
-4.60775 -6.48312 -3.13345
-3.83476 -5.65614 -2.51635
-4.08108 -5.29742 -1.46028
-2.4679 -4.5239 -2.35586
-1.77289 -3.82421 -2.08941
-1.5037 -3.58322 -2.10121
-0.733723 -1.98235 -0.375343
-1.66754 -3.39206 -1.32018
-5.12247 -6.40652 -2.20041
-3.40219 -5.46974 -2.86192
-5.55965 -7.18623 -3.20714
-1.96216 -3.32195 -0.753381
-3.8765 -5.82176 -2.83389
-0.986846 -2.08528 -0.169745
-4.82221 -6.37864 -2.5536
-4.79465 -6.54866 -2.97046
-2.01428 -3.78216 -1.51748
