ply
format ascii 1.0
comment Created by Open3D
element vertex 250
property double x
property double y
property double z
end_header
-0.583914 1.16622 -0.461592
-2.36473 1.86213 0.371986
-2.08265 1.00732 0.928681
-0.825708 0.119172 0.324994
-1.20945 0.347655 0.711159
-0.850163 0.19745 0.670815
-0.617489 0.0496447 0.32224
-2.74591 1.9085 1.62457
0.071418 1.24122 -0.588703
1.63185 0.644123 0.480521
-0.448019 0.00975881 0.214261
0.431579 0.990304 -0.571133
-3.26361 2.69178 1.98434
-0.203754 0.694723 -0.452353
-1.19472 0.304078 0.56606
-1.78619 1.23323 0.0922568
0.684222 0.124599 -0.0475384
-1.44229 0.666484 0.113549
-0.453816 1.13634 -0.489495
-0.877793 0.289355 -0.0118823
-1.94288 1.70487 0.069427
-0.339115 0.0571483 -0.0241512
1.52168 0.534311 0.339474
0.515963 0.0872803 0.433809
-1.24744 0.593162 0.00359157
-0.395475 0.954555 -0.472917
1.71871 0.96647 -0.233235
0.114661 -0.0195477 0.295717
-3.89458 3.90025 2.59783
0.213037 -0.0143894 0.262311
1.42722 1.80187 -0.576659
1.81875 0.804462 0.54741
0.888584 0.40748 -0.296049
0.542945 0.115023 0.488012
-0.276539 1.08582 -0.519123
0.642761 0.238837 -0.235148
-1.12058 0.419465 0.0446791
-3.80493 3.8822 1.49736
-4.01235 4.15934 1.77605
-1.93387 0.903021 0.527519
-4.2997 4.58653 2.37275
1.35833 1.02157 -0.438546
-1.61253 0.7567 0.211828
-2.15732 1.11703 0.660887
0.637643 0.0987741 -0.0190272
-3.5001 2.98093 1.7957
-1.30796 0.366261 0.428129
-3.62967 3.24663 1.66726
-3.96626 4.30635 1.5891
0.243564 0.936356 -0.55639
0.493358 0.333333 -0.340607
-2.81193 2.91271 0.531494
-4.08921 5.13923 1.5466
-3.50584 3.0074 1.6104
-1.74931 0.727227 0.904224
-2.95249 2.16323 1.67478
0.360187 0.0701212 0.48406
0.169479 -0.00855515 0.325914
0.0745329 0.983302 -0.552589
-0.523388 0.0712265 0.0530813
-4.12814 4.33819 2.7291
-3.57087 3.22903 1.46841
-3.43981 2.87976 1.60889
-3.13915 2.46173 1.83358
-0.954844 0.354996 -0.0219579
-3.99261 4.00574 1.88297
-0.58152 0.525915 -0.301976
-1.26836 1.02446 -0.17354
0.87117 0.735203 -0.468672
-4.0831 4.9306 1.57715
-3.3025 2.64754 1.48969
0.0361655 0.09141 -0.157583
-2.43169 1.38772 0.9974
0.505066 0.62693 -0.476363
-0.56163 0.0633124 0.485121
-0.0527062 -0.0257395 0.100368
-3.1626 2.78789 0.962875
-4.11042 4.30952 1.91828
1.58723 0.782433 -0.194574
-1.5109 1.43856 -0.141085
1.17527 0.310609 0.273826
-0.752201 0.169872 0.0470905
0.374533 1.06024 -0.582724
-0.475363 0.141728 -0.0833725
-0.418607 0.273998 -0.221494
0.0943064 -0.0149367 0.0493227
-1.48378 0.502967 0.735519
-1.42786 1.25685 -0.148018
1.67685 0.732172 -0.047514
-1.02779 0.256406 0.668907
-2.74559 1.79379 1.26117
-3.41572 2.83161 1.71349
-0.936287 0.165917 0.334975
0.286303 0.377511 -0.379993
-2.56302 1.63517 0.805501
-0.516796 0.123712 0.665597
-0.511597 0.0397024 0.131
-0.131653 0.155612 -0.202172
1.6514 0.665114 0.0348646
-1.43917 1.28191 -0.14758
0.647014 0.539403 -0.428362
-2.70021 1.91018 0.780835
-2.09167 1.10656 0.524946
-0.148556 0.511615 -0.402954
-0.857405 1.15132 -0.376533
-1.20938 0.321409 0.318683
-1.45891 1.20421 -0.117855
-1.86864 0.896508 1.1183
1.77695 0.732528 0.167597
-2.78531 1.9509 1.62541
-1.60007 0.62927 0.354283
-2.08588 1.26448 0.366025
-1.48421 1.62445 -0.184584
-2.81658 1.89017 1.23443
-2.70948 2.0457 0.695608
0.398973 1.01727 -0.57582
-3.32707 2.75865 1.94926
1.70009 1.11151 -0.324659
-2.07294 1.07193 1.16975
-3.10911 3.3876 0.731573
-2.59493 2.38434 0.438781
1.23193 0.492898 -0.192241
-2.37466 1.32093 0.944615
-3.81689 4.01745 1.45298
1.14686 0.412837 -0.164528
-3.7956 4.10517 1.38555
1.6194 1.13152 -0.373808
0.925957 1.48084 -0.6171
1.59879 0.626462 0.0225246
-2.44142 1.88121 0.443496
0.76185 0.714727 -0.47982
-1.30458 0.799052 -0.0714058
1.03086 1.16555 -0.556126
-3.63477 3.27771 2.12818
-3.7016 3.52915 1.51768
0.784213 1.3458 -0.612853
-0.942856 0.263197 0.071754
-1.0065 0.436631 -0.0544867
-2.72133 2.32975 0.580922
-4.1566 4.52653 1.86133
0.59223 0.212342 -0.223683
-2.34436 1.29122 1.05975
-1.51826 1.57265 -0.16
-3.6572 3.38289 2.29069
-1.79786 0.750603 0.539582
-2.57903 1.57783 1.01145
-0.606019 0.0959013 0.0636941
-1.99211 1.11821 0.35883
1.06562 0.252922 0.270658
-4.05728 4.09122 2.43392
-4.19533 4.856 1.77331
-2.64344 1.69338 1.37367
0.820902 0.136146 0.132503
0.242914 -0.00878158 0.0745674
-2.89499 2.17583 0.913922
0.442945 0.0856927 0.478016
-0.342488 0.0688819 -0.0423111
-1.08366 0.316054 0.767255
0.770146 0.525139 -0.400464
-1.88617 1.1083 0.243362
1.30411 0.383249 0.144149
0.41263 0.262039 -0.301732
0.594801 0.919278 -0.552413
-2.26238 1.23081 0.717728
1.01954 0.30808 -0.121429
1.10187 0.446094 -0.22954
-2.00336 1.32419 0.242454
-2.85732 1.976 1.47302
0.463135 0.277596 -0.306782
-2.74548 2.04714 0.749696
-4.24626 4.47223 2.29709
-3.01083 2.24752 1.11346
-3.09571 2.69995 0.905912
-0.382575 1.11654 -0.502442
-1.1063 0.318689 0.157432
-0.603514 0.719222 -0.36266
-1.49522 0.828123 0.0504678
-1.11129 0.251063 0.380925
-1.67785 1.33194 -0.0177312
1.08489 1.41222 -0.589334
-1.33319 0.400104 0.349287
-1.75439 0.877236 0.268405
-2.28437 1.22751 0.819012
-0.270906 0.158075 -0.172911
-3.88296 3.86411 1.68978
-3.39507 2.80681 1.54972
-0.0918195 0.544129 -0.423513
1.09581 1.22199 -0.556088
1.21899 0.69821 -0.35152
-3.01295 2.268 1.74841
1.55452 1.32686 -0.461803
0.822954 1.48924 -0.626373
-0.033006 0.635032 -0.460903
-3.92749 3.83156 2.3401
-3.58246 3.14378 1.95743
1.32873 0.761929 -0.338037
-2.12958 1.53024 0.271596
0.746811 0.181778 -0.117255
0.926956 0.180187 0.177692
0.233414 0.00260675 0.340206
1.08189 3.02669 -0.635821
-0.00141157 1.79456 -0.618447
-0.145401 5.38343 -0.316963
1.13624 6.14438 -0.302748
1.32815 9.16354 0.216335
1.41706 8.43747 0.0793867
0.888205 2.53279 -0.658547
0.81454 5.56802 -0.379255
0.0548776 5.08198 -0.385769
-0.0457525 2.86931 -0.595041
0.531234 1.90388 -0.658327
0.0880348 3.71313 -0.548092
0.746331 2.09236 -0.66241
0.660589 2.45198 -0.66219
-0.113735 5.45989 -0.310604
0.173718 4.97199 -0.414205
1.17495 2.3999 -0.642331
0.373452 6.78237 -0.161418
1.37764 4.91457 -0.463685
0.765801 5.7141 -0.356336
0.722691 8.25022 0.0697888
0.67233 2.4448 -0.662416
1.41092 5.23164 -0.424246
1.38296 4.06163 -0.550253
0.662562 8.78849 0.175747
1.26628 9.2283 0.230112
0.712316 3.14878 -0.634514
-0.187452 6.04452 -0.212083
1.2679 8.06919 0.0141131
-0.0804003 1.61632 -0.600933
0.392604 6.87098 -0.148359
0.0246975 1.65921 -0.616226
-0.0195727 1.86072 -0.618025
1.39035 8.43454 0.0789784
1.09122 7.19865 -0.133956
0.00580089 6.84385 -0.109443
1.43076 5.4685 -0.393378
1.42705 4.45373 -0.511024
1.5322 4.10871 -0.535207
0.171977 2.04163 -0.641153
0.7419 3.8918 -0.577153
0.325453 8.48511 0.148393
1.57061 6.86892 -0.186315
1.11358 9.56591 0.301013
0.10085 3.89355 -0.532128
1.37393 7.4198 -0.0996465
-0.112027 2.22916 -0.607771
0.768024 8.35848 0.0869318
1.16978 8.56257 0.106393
0.805029 4.44345 -0.522036
