ply
format ascii 1.0
comment Created by Open3D
element vertex 400
property double x
property double y
property double z
end_header
-0.181459 1.8729 0.221537
-1.11477 2.91186 1.77602
-0.642953 1.57255 0.300436
-0.823198 1.35772 1.70147
0.0266677 2.60093 0.540626
-0.209879 2.12421 0.338344
-0.787216 0.915426 0.97573
-0.663401 2.03192 0.482798
-1.09637 2.99644 1.71541
-1.05285 3.16601 2.7273
-0.107481 1.55938 0.0877944
-0.929751 1.58025 0.691706
-1.018 1.94598 1.76289
-1.10216 2.6635 1.53248
-1.08075 2.21388 1.27897
0.252456 1.67757 0.109114
-0.237947 1.60677 0.130051
-1.02247 2.58528 2.42181
-0.640241 0.793221 0.274669
-0.959814 1.98821 2.05405
-0.792761 2.02397 0.588306
-0.905325 2.17743 0.789082
-1.09024 2.25144 1.35309
-0.898044 1.46861 0.619786
-0.675804 0.872364 0.303957
-0.649944 2.23714 0.568245
-0.813697 1.35612 1.72927
-0.633494 3.23347 1.145
-1.01757 1.69599 1.3132
-0.462624 3.2888 1.08254
0.133364 2.23677 0.34977
-1.07017 2.00954 1.28423
-0.824837 1.08987 1.23145
-1.10769 2.46778 1.51333
-0.900724 1.23424 1.10877
-0.949201 1.40279 0.872209
-1.04056 3.189 1.65657
-0.483218 3.16735 1.0124
-0.534551 1.29513 0.156695
-0.825227 1.01884 1.03655
-1.02854 1.78204 1.41925
-0.208759 2.94054 0.772217
-1.08633 2.52903 2.0703
-1.0434 2.13865 1.08263
-1.09428 2.6978 1.50618
-0.738823 0.791073 0.883155
-0.47613 2.89479 0.837313
-1.01744 1.68882 1.07332
-0.310159 3.71878 1.31205
-0.99851 1.66608 0.933954
-1.01195 2.95393 2.75253
-0.850078 1.06361 0.965392
-0.999094 1.99557 1.91268
-1.09409 3.12748 2.47867
-1.03003 2.52173 2.33604
-0.753266 2.22517 0.640639
-0.20008 2.35044 0.445944
0.189914 2.36164 0.407994
-0.831255 1.22652 0.505023
-0.877421 1.15715 0.748098
-0.969784 2.32854 2.37343
-0.23684 2.7324 0.658727
-0.906742 1.24412 1.08056
0.154157 2.15982 0.312994
-0.213032 2.99091 0.803358
-1.05965 2.44665 2.13558
-0.361762 3.29477 1.04225
-0.666534 1.80094 0.392692
-1.08379 2.11283 1.49373
-0.50887 2.99541 0.915166
-0.572338 2.88567 0.880949
-0.773723 0.867953 0.894921
-0.419949 1.77057 0.247346
-1.03054 3.05728 2.75333
-1.11394 2.58965 1.60139
-0.159995 2.42563 0.476144
-0.344407 1.43503 0.103648
-0.132236 1.3351 0.019007
-0.899033 2.49461 0.934272
-0.335564 2.93862 0.808195
-0.751936 2.9709 1.06246
-0.472855 3.4663 1.20897
-0.908818 2.90809 1.19541
-0.72078 2.47441 0.740899
-1.11883 2.80566 1.74742
-0.743819 1.07264 0.36276
-0.551955 1.724 0.291243
-0.968406 2.65156 1.12897
-0.605704 1.40543 0.229393
-0.110874 2.15936 0.336689
-0.894812 3.24309 1.41051
-1.0623 2.20136 1.17306
-0.85629 1.15284 1.20653
-1.09745 2.26448 1.62396
-0.756591 3.02138 1.09971
-0.553311 1.43329 0.200931
-1.06762 2.6501 1.36824
-0.0297028 1.87285 0.198959
-0.0228398 3.31865 0.963893
-1.04794 2.60617 1.28136
-0.842504 2.82483 1.05891
-0.921442 2.66882 1.0639
-0.933096 1.49459 1.49086
-0.376092 1.83008 0.254961
-0.337396 1.26866 0.0550129
-0.779673 2.60557 0.86383
-1.10478 2.67849 1.55694
-0.374448 2.59307 0.621915
-0.590924 2.57124 0.707107
-0.943206 1.57834 1.58132
-0.729667 1.01286 0.353023
-1.10692 2.555 1.52193
-1.03258 2.33688 2.14928
-0.922366 1.3411 1.24116
-0.401943 2.87565 0.794427
-0.250437 2.19013 0.378592
-1.09548 2.25351 1.41592
-1.03842 2.21705 1.99633
-0.754373 1.20366 1.68821
-0.0493071 3.08349 0.824105
-0.900084 1.20907 0.849157
0.0861214 1.51602 0.0530613
-1.06336 1.95578 1.41566
-0.210569 3.99188 1.47106
-0.693455 3.44576 1.34129
-0.680582 0.840462 1.31147
-0.982895 1.57644 0.904234
0.230057 1.86275 0.182158
-0.863762 3.27984 1.39583
0.215793 1.64046 0.0948159
-0.734825 3.45343 1.38372
-0.458366 3.52108 1.23985
-0.518502 1.76224 0.287708
-0.817216 0.964566 0.779267
-0.481579 1.3091 0.128891
-0.940007 1.74669 0.721843
-0.757835 1.22402 0.365602
-1.10343 2.39831 1.46712
-0.587074 0.984074 0.165109
-0.997803 2.373 2.31969
-0.88262 1.7312 2.00653
-0.487134 0.970214 0.0816425
-0.706828 0.751948 0.980319
-0.366009 2.91508 0.804652
-1.06624 2.84024 1.47897
-0.94017 1.99233 2.12521
-1.09384 2.45934 1.946
-0.791071 1.23452 1.62164
-1.08879 2.60906 1.43283
-0.291795 3.08958 0.886231
0.390074 1.8133 0.167422
-0.562455 1.12909 0.149687
-0.633856 0.850616 0.241831
-0.592301 2.26472 0.54648
-0.864941 1.0994 0.938104
-1.02015 2.84492 2.6415
-0.798018 1.2844 1.67443
-0.0859218 1.33785 0.012141
-0.760453 1.17225 1.62258
-0.381041 1.16376 0.0486207
-0.711653 1.24512 0.303497
-0.923674 1.56504 1.64468
-0.772521 1.20889 1.64116
-0.347202 2.93684 0.811108
-0.975834 1.8135 0.8196
0.0428413 2.16487 0.321486
-0.775238 1.06419 1.39312
-0.237794 3.98411 1.47559
-0.597912 1.64626 0.291844
-0.891482 1.50845 1.68561
-0.417967 1.30305 0.0961524
-0.0386735 2.17106 0.332376
-0.828891 1.21691 0.502201
-0.589496 1.28058 0.191852
-0.452002 2.51882 0.610629
-0.548763 2.05548 0.424222
-0.704771 2.35536 0.665918
-0.934916 2.88905 1.22136
-0.8982 1.34313 0.655721
-1.06756 1.97797 1.30626
-0.751037 1.9459 0.516937
-1.02625 1.71873 1.16195
-0.973906 1.49127 0.948584
-1.01178 2.53349 1.14972
-0.563748 2.65598 0.739881
-1.06927 2.51072 1.30349
-1.07487 3.08142 2.56689
-1.02006 2.73647 2.55716
-0.699895 0.904615 0.336286
-1.01517 2.78942 2.61728
-0.357393 1.66172 0.183911
-0.550099 0.969699 0.131027
-0.712379 0.771399 1.00891
-0.323741 2.95944 0.816807
-0.557038 3.19237 1.06852
-0.656459 2.83443 0.902035
-0.0533637 2.80234 0.661159
-0.844347 1.91043 0.603643
-1.08649 2.60853 2.14497
-0.638388 0.897518 0.235742
-0.547912 1.12554 0.138232
-0.799212 2.35222 0.745467
-0.60106 2.91838 0.918107
-1.02607 1.757 1.38366
-0.609199 2.7934 0.846591
0.0281715 3.21598 0.892093
-0.386397 3.45495 1.15989
-0.983606 1.53285 1.21928
-0.838539 1.46564 0.497167
-0.0545986 2.63354 0.568203
-0.891996 1.3038 1.34215
-0.45412 3.41374 1.16306
-1.11259 2.54153 1.57703
-1.00036 2.33435 2.27319
-0.781232 0.878262 0.701075
0.0635949 2.42569 0.446481
-1.06668 2.00241 1.4977
-0.21777 3.90223 1.40839
-1.01379 3.12142 1.53388
-0.587591 1.21379 0.179775
-0.844159 3.03592 1.19872
-1.00972 2.26432 1.02036
-0.79072 1.3489 1.78871
-0.488772 2.51496 0.624326
-1.0585 2.07245 1.14623
-0.923941 1.49722 0.686983
0.00605639 2.43232 0.455179
-0.00612257 2.67644 0.584933
-1.09415 2.21096 1.44501
-0.997161 1.57337 1.13692
-0.720539 2.51159 0.760953
-0.661385 2.47997 0.7007
-0.836829 1.43481 1.76703
0.00370421 2.14545 0.315886
-0.671535 2.43305 0.682478
-0.0396411 3.06013 0.808499
-0.249402 3.71294 1.28483
-0.44508 1.29617 0.107176
-0.878869 1.13667 0.891662
-0.939589 1.46193 0.755742
-0.801707 2.22221 0.684423
-1.11443 2.48349 1.71827
-0.343079 3.89409 1.45351
-0.490596 2.14679 0.438272
-1.08496 3.03258 1.68843
-0.705881 2.14127 0.56268
-0.905257 1.6433 0.635434
-1.05796 1.91469 1.37851
-0.108443 1.52384 0.0755473
-0.722394 2.67839 0.857056
-0.482405 1.05016 0.0846973
-0.0603813 3.72913 1.24039
-0.926618 1.3091 0.853704
-1.0167 2.08911 0.982391
-0.534472 3.27734 1.11257
-0.928368 1.47328 1.4769
-0.221354 3.13119 0.891237
-0.920843 1.83209 2.00553
-1.03831 2.57211 2.34738
-0.61187 1.58299 0.281188
0.125747 1.89228 0.196059
-0.915852 2.89739 1.19839
0.0448952 1.61075 0.0894419
-0.986073 1.63398 0.883
-1.10818 2.56741 1.94137
-0.536433 3.41769 1.21027
-0.494597 2.35909 0.544592
-0.798116 3.22527 1.27994
-0.569992 2.64546 0.737279
-0.0582615 3.10447 0.83831
-0.76519 0.9103 1.10701
-0.759677 1.23827 0.367858
-1.03464 1.92917 1.03465
-0.498272 3.6694 1.36833
-0.940364 1.74453 1.82908
-0.246605 3.78388 1.33395
-0.647554 0.772684 0.299608
-0.141606 3.70858 1.24743
-1.11762 2.77758 2.04446
-0.845811 1.05028 0.750912
-0.914903 2.23814 0.829719
-0.145328 1.98728 0.264027
-0.441404 3.20244 1.01548
-0.611331 2.10806 0.483003
-1.11657 2.73215 1.68214
-0.213454 1.38927 0.0521138
-0.577671 1.18079 0.167556
-0.777907 1.16698 0.405604
-0.645026 3.01601 1.00845
-1.12284 3.03305 2.00727
-0.474068 3.50652 1.2378
-1.12263 3.0681 2.10221
-0.134119 2.67557 0.604371
-0.879777 1.716 0.599895
-1.09555 2.98059 1.69889
0.00143046 2.01875 0.258631
-1.10482 2.54576 1.50194
-0.69676 3.43693 1.3376
-0.845915 1.04207 0.880164
-0.0850871 1.42671 0.0396545
-1.08057 2.56635 1.37486
-0.665785 1.38482 0.273834
-1.06857 2.17425 1.77601
-0.368845 1.1103 0.0330855
-1.10922 2.41743 1.71634
-0.967217 2.07524 0.856632
0.146853 1.6157 0.0864014
-0.769384 1.30631 0.381986
-1.07158 2.01404 1.44183
-0.411017 1.55258 0.165534
-1.05737 2.31971 2.01624
-0.0456425 2.84167 0.682224
-0.663199 2.28507 0.60068
-0.768545 0.843885 0.787052
-0.385919 2.13578 0.392034
-0.65956 1.90267 0.426392
-0.042133 3.51867 1.09579
-0.946572 1.6662 1.69825
-0.923758 1.75021 1.89597
-0.0789517 3.89114 1.35726
0.296888 2.05218 0.263899
-0.0629188 1.65695 0.117118
-1.10996 2.40478 1.65866
-0.746092 0.816982 0.581192
-0.88681 1.16899 0.818335
-0.702032 1.9498 0.476993
-1.11483 2.70565 2.01252
-1.11749 3.10375 1.97827
-1.0022 2.47338 2.39735
-0.813951 1.71363 0.505299
-0.544524 2.16543 0.472736
-0.490317 3.58931 1.30558
-0.968561 1.69337 1.64171
-0.520611 3.41506 1.19927
-0.855262 1.31595 1.52565
-0.739547 3.25281 1.24256
-0.935182 2.0227 0.77769
-1.05316 2.6294 1.30965
-1.04031 2.52405 1.21655
-1.01437 3.14112 2.8716
-0.945403 1.38857 1.17699
-0.81975 1.0298 1.11039
-0.251668 1.77312 0.19613
-0.128536 2.39243 0.453475
-0.395191 1.97595 0.322893
-0.942653 1.3496 1.01176
-1.02998 1.74309 1.2724
-0.762382 2.4459 0.760097
-0.98836 2.37423 1.01999
-0.589472 2.27807 0.551501
-0.819339 2.23846 0.710218
-1.08455 2.85902 2.36313
-0.587273 2.41186 0.618711
-0.43299 1.15909 0.0722663
-0.31787 2.56267 0.587012
-0.484901 1.29688 0.127887
-0.783277 1.15243 1.5173
0.120039 2.2683 0.365419
-1.07165 2.19926 1.78821
-0.784499 1.04316 0.463113
-0.842222 1.04438 0.729706
-0.866002 1.12781 1.06484
-0.696194 1.91174 0.457236
-0.965905 1.8666 1.88769
-0.815327 1.25732 1.57645
-0.772486 1.57558 0.421839
-0.954907 1.81069 1.85944
0.0384593 2.12844 0.304961
-0.993585 1.81156 1.69629
-0.930021 2.38102 0.919946
-0.668543 0.771013 0.347295
-0.00263131 1.90599 0.210152
-0.835006 2.65061 0.945062
-0.00508486 2.8228 0.665769
0.339537 1.77482 0.149454
-1.11235 3.07492 1.8903
-0.951968 2.32577 0.929053
-0.239507 2.91801 0.766829
-1.01205 1.65041 1.09097
-0.214928 1.9944 0.280559
-1.09285 2.43201 1.38542
-0.234671 1.75507 0.184993
-0.512048 1.13472 0.114261
-1.09673 2.93357 1.67003
-0.682308 2.03874 0.499267
-1.03519 2.1528 1.93829
-1.08669 2.57234 1.40524
-0.189429 1.55161 0.0997869
-1.08399 2.24765 1.7588
-0.555875 1.57749 0.243994
-0.0993347 2.4549 0.480628
-1.10195 2.66039 2.08851
-0.986282 1.57439 1.31515
-1.01229 3.00663 1.44592
-0.266451 1.18463 0.0110167
-0.984105 1.51465 1.09462
-0.520589 1.86208 0.327638
-0.829917 2.77923 1.01677
-1.07875 2.48368 2.07084
-0.930556 1.4915 1.49784
