ply
format ascii 1.0
comment Created by Open3D
element vertex 400
property double x
property double y
property double z
end_header
0.262106 1.73596 -0.712386
-0.599082 3.53669 -0.0937978
-0.266235 1.58663 -0.623125
-0.697633 2.13017 0.625873
0.596584 2.48644 -0.720784
0.280626 2.01303 -0.734666
-0.667486 1.38452 0.217586
-0.197669 2.0729 -0.682561
-0.551447 3.57588 -0.179593
-0.615588 4.22019 0.617478
0.274117 1.39065 -0.664737
-0.596107 1.83084 -0.364373
-0.746008 2.69152 0.360698
-0.613435 3.20109 -0.184985
-0.668226 2.68742 -0.190504
0.645042 1.44948 -0.610582
0.154905 1.47133 -0.682945
-0.686961 3.56732 0.629771
-0.454698 0.908151 -0.288202
-0.722399 2.86463 0.604459
-0.338919 2.13782 -0.621211
-0.437692 2.38568 -0.548128
-0.678774 2.75794 -0.146776
-0.583136 1.69495 -0.366804
-0.473239 0.995557 -0.308271
-0.145998 2.28883 -0.700072
-0.693012 2.14132 0.652712
0.0343648 3.42522 -0.659095
-0.74224 2.25324 0.0912405
0.220886 3.41619 -0.694986
0.635612 2.06455 -0.690552
-0.709951 2.51408 -0.0899594
-0.697332 1.66678 0.346712
-0.664855 3.02526 -0.113255
-0.715904 1.73979 0.157034
-0.685521 1.77247 -0.134049
-0.441275 3.70265 -0.303885
0.181083 3.28047 -0.704483
-0.210787 1.26209 -0.591903
-0.686921 1.50876 0.212731
-0.746757 2.38132 0.139687
0.422241 2.92659 -0.737201
-0.710661 3.3529 0.339491
-0.622531 2.51957 -0.314359
-0.593465 3.21606 -0.221145
-0.638699 1.225 0.207509
0.145369 2.95924 -0.727569
-0.70878 2.12716 -0.1102
0.440694 3.87562 -0.657514
-0.675935 2.03529 -0.214025
-0.63316 4.0458 0.74618
-0.689092 1.51503 0.125312
-0.737452 2.80598 0.470612
-0.628284 4.06903 0.412564
-0.697525 3.4713 0.583725
-0.258484 2.32993 -0.658636
0.330805 2.2585 -0.743785
0.712427 2.19197 -0.683797
-0.562927 1.42115 -0.337403
-0.660054 1.49023 -0.109756
-0.693632 3.31627 0.719012
0.35995 2.6963 -0.74595
-0.715062 1.73499 0.126932
0.641664 1.97745 -0.681574
0.426185 2.98578 -0.734715
-0.715284 3.31132 0.439534
0.324814 3.38637 -0.706884
-0.245216 1.83116 -0.654674
-0.727847 2.709 0.0382468
0.127787 3.08885 -0.715297
0.0446162 2.98736 -0.710206
-0.654605 1.30161 0.173685
0.0044833 1.69645 -0.703203
-0.625235 4.13714 0.694975
-0.653269 3.17424 -0.0953614
0.383544 2.3319 -0.742354
0.0139435 1.32713 -0.653594
0.204427 1.16844 -0.627117
-0.373638 2.72808 -0.567612
0.295128 2.96151 -0.737318
-0.132552 3.17717 -0.639138
0.236951 3.6324 -0.670761
-0.317878 3.21301 -0.536162
-0.179763 2.58805 -0.678867
-0.625332 3.43235 -0.0706777
-0.49688 1.20586 -0.36663
-0.139933 1.69798 -0.677447
-0.429313 2.96955 -0.490507
-0.261959 1.40301 -0.598061
0.384416 2.02771 -0.727396
-0.252222 3.60445 -0.502198
-0.638182 2.62108 -0.270558
-0.708043 1.71268 0.288793
-0.722084 2.90556 0.0766639
-0.129843 3.23957 -0.631577
-0.200681 1.40489 -0.621989
-0.559673 3.10247 -0.310417
0.410648 1.70241 -0.693698
0.666643 3.31794 -0.699953
-0.539095 3.01865 -0.359575
-0.255232 3.06399 -0.598038
-0.370517 2.94487 -0.542203
-0.737757 2.15779 0.356067
0.0602223 1.74463 -0.712942
-0.0138163 1.15978 -0.617304
-0.221342 2.77009 -0.648618
-0.615781 3.2265 -0.171619
0.198803 2.57912 -0.748083
-0.0263195 2.63479 -0.71951
-0.739745 2.27599 0.392475
-0.496854 1.1479 -0.344076
-0.643574 3.1039 -0.145586
-0.718825 3.22051 0.508175
-0.729293 1.90036 0.215783
0.21787 2.9106 -0.73688
0.252393 2.09536 -0.740583
-0.692473 2.79188 -0.0954066
-0.731969 3.0426 0.430939
-0.668332 1.98197 0.702182
0.602992 3.05119 -0.718392
-0.683564 1.5884 -0.0528957
0.453661 1.30792 -0.626161
-0.736125 2.53292 0.0484949
0.581001 4.17365 -0.621731
0.00130371 3.71334 -0.603584
-0.633334 1.47278 0.565084
-0.679049 1.94163 -0.194511
0.659201 1.64735 -0.638481
-0.211166 3.62393 -0.523764
0.602766 1.41602 -0.614986
-0.0425913 3.74716 -0.581209
0.259992 3.69248 -0.665822
-0.0978353 1.72395 -0.689585
-0.655142 1.33262 0.0199324
-0.152523 1.25236 -0.608777
-0.568727 1.98947 -0.417293
-0.472867 1.33855 -0.436903
-0.67138 2.94224 -0.11988
-0.340054 1.00849 -0.455666
-0.701464 3.33146 0.645814
-0.705811 2.61019 0.700681
-0.235642 0.940289 -0.495588
-0.632087 1.2355 0.316327
0.260621 2.9441 -0.737191
-0.527036 3.31993 -0.302474
-0.71299 2.90085 0.66823
-0.717073 3.23237 0.263373
-0.685993 1.9804 0.622083
-0.599659 3.10284 -0.241821
0.363329 3.12297 -0.728769
0.802148 1.57433 -0.588448
-0.27798 1.12095 -0.52896
-0.429429 0.939787 -0.340871
-0.0807454 2.29304 -0.716845
-0.690373 1.53412 0.0819431
-0.652003 3.89844 0.699193
-0.687903 2.05038 0.642603
0.250449 1.16058 -0.622659
-0.672394 1.92324 0.659004
-0.080877 1.07344 -0.585723
-0.414294 1.31875 -0.488016
-0.733652 2.29346 0.457512
-0.677505 1.96557 0.655095
0.283117 2.96315 -0.736927
-0.600629 2.10063 -0.373351
0.53514 2.0023 -0.70446
-0.679956 1.71843 0.508846
0.552339 4.17327 -0.621119
-0.203439 1.63866 -0.652891
-0.722982 2.2609 0.526362
-0.0883582 1.22151 -0.618052
0.457076 2.02497 -0.718376
-0.562655 1.41119 -0.334825
-0.272162 1.2753 -0.568978
0.107667 2.52146 -0.743167
-0.0734799 2.04694 -0.71467
-0.183222 2.4466 -0.684448
-0.351418 3.21355 -0.511832
-0.619919 1.60583 -0.278811
-0.718576 2.49778 -0.0560738
-0.308052 2.02938 -0.636008
-0.722714 2.1983 -0.0504256
-0.698232 1.88979 -0.115478
-0.503379 2.8855 -0.429671
0.0160744 2.71952 -0.723474
-0.586614 2.95136 -0.302386
-0.634322 4.07101 0.513722
-0.666677 3.76369 0.676797
-0.492968 1.04278 -0.301442
-0.657562 3.83823 0.705132
0.0464346 1.56266 -0.691955
-0.303267 0.973764 -0.468943
-0.636725 1.26721 0.330455
0.310387 2.98186 -0.736527
0.108467 3.34069 -0.686477
-0.0517938 2.96649 -0.689816
0.552687 2.73034 -0.729977
-0.418925 2.05613 -0.569115
-0.701881 3.45812 0.366841
-0.42115 0.977441 -0.36864
-0.263268 1.11007 -0.533482
-0.286047 2.49752 -0.638723
0.0198626 3.03807 -0.700623
-0.745442 2.34179 0.121372
-0.00869902 2.89683 -0.706571
0.700314 3.18693 -0.701554
0.324052 3.58551 -0.685852
-0.736764 2.06205 0.0941435
-0.50897 1.62239 -0.45523
0.522917 2.53996 -0.732467
-0.724339 1.91456 0.326619
0.248467 3.56185 -0.681237
-0.660434 3.12078 -0.0938156
-0.706766 3.27559 0.623146
-0.630827 1.21459 0.00163729
0.601903 2.28438 -0.711803
-0.739655 2.61422 0.0963853
0.560875 4.06685 -0.636045
-0.414579 3.5797 -0.371021
-0.285267 1.21197 -0.548283
-0.224519 3.3143 -0.575611
-0.549759 2.59077 -0.416541
-0.681529 2.16151 0.712489
0.0695034 2.5304 -0.738903
-0.662843 2.49707 -0.233587
-0.610611 1.75676 -0.328999
0.547218 2.30282 -0.721798
0.577589 2.57785 -0.725679
-0.706097 2.76991 -0.0507929
-0.727545 2.05745 0.00193482
-0.173175 2.62977 -0.678685
-0.11564 2.56399 -0.70087
-0.701008 2.23075 0.643188
0.493646 1.98865 -0.710146
-0.134416 2.51632 -0.697514
0.60869 3.02204 -0.71862
0.501373 3.84813 -0.662893
-0.117642 1.22512 -0.612278
-0.687585 1.54475 0.0217848
-0.644481 1.76331 -0.258089
-0.311999 2.35639 -0.632021
-0.697394 3.14214 0.0528039
0.432298 4.10081 -0.625138
0.00296066 2.12338 -0.729871
-0.527542 3.59157 -0.216288
-0.222688 2.2124 -0.674982
-0.548661 1.85293 -0.435099
-0.735786 2.47848 0.0369261
0.266106 1.35434 -0.659186
-0.147322 2.82047 -0.673368
-0.211575 1.00937 -0.528345
0.692841 3.81205 -0.660971
-0.68462 1.67994 -0.10137
-0.594681 2.42325 -0.370599
0.144857 3.43194 -0.682077
-0.736515 2.13193 0.355075
0.44042 3.15068 -0.72591
-0.717025 2.70141 0.644155
-0.694511 3.52118 0.568311
-0.231056 1.58137 -0.636554
0.564712 1.69478 -0.666192
-0.32772 3.2064 -0.53049
0.43256 1.41301 -0.64872
-0.664594 1.9806 -0.239736
-0.703099 3.32439 0.206439
0.163759 3.60088 -0.663329
0.0366355 2.35834 -0.737166
-0.145008 3.50979 -0.581322
0.00784994 2.71016 -0.72245
0.597588 3.07752 -0.718098
-0.666911 1.44255 0.337491
-0.471397 1.35211 -0.441953
-0.659489 2.31549 -0.257371
0.240064 3.88917 -0.633934
-0.731758 2.54131 0.528688
0.514589 3.93283 -0.652689
-0.470484 0.904163 -0.259356
0.60893 3.80992 -0.66587
-0.674689 3.55671 0.195999
-0.65693 1.39579 -0.0506
-0.437634 2.45922 -0.543586
0.319059 1.84954 -0.719369
0.229427 3.30584 -0.707447
-0.128828 2.13037 -0.704172
-0.631979 3.33662 -0.0922306
0.135388 1.24314 -0.643928
-0.282233 1.17624 -0.541147
-0.512195 1.3128 -0.381705
-0.0110407 3.17301 -0.679129
-0.610374 3.75694 0.0461743
0.241624 3.68133 -0.664844
-0.615311 3.83429 0.111241
0.452018 2.60557 -0.740688
-0.500894 1.89348 -0.492296
-0.552205 3.55398 -0.186235
0.468181 1.85222 -0.701671
-0.640944 3.08571 -0.157906
-0.00352788 3.70444 -0.603522
-0.678009 1.45343 0.063449
0.269432 1.25006 -0.639582
-0.593975 3.03619 -0.269725
-0.331123 1.41644 -0.565727
-0.739264 2.90033 0.254914
-0.0802956 1.01825 -0.571494
-0.708637 3.08402 0.0826575
-0.532372 2.34129 -0.459228
0.531825 1.40078 -0.628085
-0.465745 1.41868 -0.463425
-0.733257 2.59693 0.0421566
-0.0294844 1.46817 -0.671156
-0.727363 3.14297 0.396273
0.566824 2.77332 -0.728044
-0.151452 2.34789 -0.697608
-0.639869 1.22638 0.0939094
0.107167 2.07554 -0.738137
-0.218045 1.93382 -0.670665
0.678868 3.55744 -0.683628
-0.738123 2.40994 0.451273
-0.724242 2.57716 0.587342
0.698455 4.01149 -0.639915
0.758552 1.84012 -0.638592
0.336866 1.48207 -0.673166
-0.704062 3.04449 0.0390222
-0.594958 1.0972 -0.0638923
-0.676367 1.53683 -0.0575634
-0.254323 2.00557 -0.659637
-0.685328 3.47894 0.202318
-0.583332 3.80201 -0.00955764
-0.691948 3.4566 0.665118
-0.424629 1.83452 -0.555501
-0.0490399 2.16443 -0.72246
0.236843 3.78826 -0.648893
-0.744096 2.40808 0.385096
0.179855 3.59082 -0.667555
-0.713015 2.01131 0.486875
-0.0765916 3.50603 -0.611178
-0.503284 2.25228 -0.494586
-0.542428 3.05339 -0.347352
-0.542838 2.91504 -0.375452
-0.606118 4.26547 0.761638
-0.730074 1.91217 0.133544
-0.689752 1.55423 0.272112
0.173684 1.64837 -0.706014
0.408674 2.28762 -0.738664
0.0684614 1.9059 -0.726411
-0.712988 1.79589 0.0110183
-0.736369 2.27486 0.0317892
-0.229519 2.57941 -0.659851
-0.501783 2.68127 -0.461747
-0.0754352 2.30653 -0.717955
-0.328589 2.38574 -0.621841
-0.669345 3.78072 0.439045
-0.0497257 2.45401 -0.721194
-0.135228 1.08889 -0.576392
0.250466 2.52743 -0.749836
-0.15861 1.24191 -0.60488
-0.683777 1.85702 0.572497
0.628451 2.10125 -0.694941
-0.737744 2.92823 0.253124
-0.557881 1.23684 -0.277669
-0.651864 1.37963 -0.0651064
-0.702846 1.62189 0.176866
-0.255356 1.96235 -0.657644
-0.734271 2.67853 0.516531
-0.69689 1.98081 0.56702
-0.407234 1.66889 -0.553266
-0.733584 2.61508 0.520724
0.524259 1.96359 -0.703009
-0.746492 2.53992 0.371402
-0.429597 2.6285 -0.535663
-0.497974 0.929654 -0.223136
0.443203 1.73233 -0.692523
-0.27494 2.85725 -0.6137
0.603335 2.74304 -0.723325
0.746792 1.53991 -0.598832
-0.572732 3.73265 -0.0701775
-0.46575 2.58911 -0.50812
0.387968 2.90916 -0.739188
-0.715804 2.10241 -0.076226
0.251803 1.87408 -0.725913
-0.640861 2.9286 -0.202369
0.187071 1.62491 -0.703021
-0.223139 1.10066 -0.549171
-0.560864 3.49958 -0.189676
-0.216473 2.08973 -0.676347
-0.736443 2.95827 0.411573
-0.602784 3.05739 -0.248056
0.191985 1.40202 -0.671435
-0.733149 2.95663 0.202819
-0.17339 1.54988 -0.65179
0.448266 2.35025 -0.736746
-0.695444 3.47642 0.291084
-0.742979 2.14584 0.156319
-0.428959 3.43752 -0.393251
0.0395223 1.05568 -0.598712
-0.723534 1.98427 -0.0040665
-0.0807206 1.82944 -0.701659
-0.248415 3.00214 -0.610015
-0.714827 3.31335 0.362577
-0.737121 2.15827 0.364071
