ply
format ascii 1.0
comment Created by Open3D
element vertex 200
property double x
property double y
property double z
end_header
0.092988 3.09548 -0.745975
0.161393 4.16915 -0.46988
0.538673 7.96941 1.36567
-2.36437 7.66038 -1.88081
0.0350369 4.0709 -0.652302
0.759694 1.51951 0.15843
-1.00846 8.85224 -0.509163
-0.0307956 8.74878 0.720375
1.24272 7.87963 2.91071
0.442943 4.07881 -0.0893358
0.809068 0.36243 1.47041
-2.67146 5.00653 -2.10206
1.21276 1.7397 1.26574
0.40508 3.5187 -0.263623
-1.92033 12.5142 -0.178624
-1.98689 6.1341 -1.9333
0.766109 1.98913 0.146283
0.515239 8.31315 1.46548
1.35475 4.00154 1.78995
0.894343 1.17285 0.515688
0.713069 8.44996 1.91306
0.721746 1.33091 0.11392
-1.0391 0.848673 -1.02097
1.36453 3.50422 1.72323
-0.244597 0.855415 -0.930119
0.268632 -0.0523218 0.782405
-0.763451 3.35369 -1.52277
-1.4991 10.6879 -0.402931
1.46183 5.10469 2.43323
-0.750532 0.283468 -0.363193
-2.44583 7.67395 -1.91634
-0.0689633 1.74253 -0.976389
-1.93707 5.6131 -1.9703
-0.71362 3.48183 -1.47746
-1.04856 2.39951 -1.65661
0.524383 0.268331 0.293579
-0.29692 -0.0217104 0.183094
-1.43203 1.54148 -1.38297
-2.26353 3.63473 -1.94388
-0.193497 -0.0471572 0.189313
-2.50502 3.73482 -1.89138
0.422785 0.0186473 1.02331
1.35808 2.0211 1.76353
-0.939338 2.32709 -1.60643
-1.06494 1.23502 -1.30776
-0.296188 4.21236 -1.00249
0.892456 0.605429 0.911903
-0.645173 9.37496 0.102617
1.28293 4.04842 1.5942
-0.235448 0.0392368 -0.155103
1.24583 1.5868 1.4647
-2.22167 12.875 -0.341599
-0.526424 0.786474 -1.02445
-0.666613 2.89126 -1.47609
-0.301238 7.47207 -0.130801
0.720159 3.90866 0.328221
-1.93416 3.36374 -1.93302
1.29326 8.59988 3.40642
1.43045 3.58864 1.95506
0.829784 4.11939 0.581785
-2.6183 3.45657 -1.71146
0.672163 3.43856 0.143984
-2.38659 2.74321 -1.48434
-0.994604 9.09219 -0.413536
-1.81535 10.1643 -0.879413
0.0586621 -0.0817105 0.406295
0.331188 0.125911 1.53339
-0.638556 0.450859 -0.755296
1.03141 2.42887 0.707988
-0.294604 1.74096 -1.16945
1.48076 3.75117 2.16196
0.252115 3.0088 -0.558018
-2.19966 4.54232 -2.07045
-2.28371 7.24121 -1.91182
0.123558 9.2011 1.15094
0.213337 0.33685 1.99912
0.325605 1.12096 -0.463773
-2.37009 7.35438 -1.93336
-2.13131 7.49092 -1.79108
-1.7022 4.10267 -1.9625
-1.38634 9.27023 -0.762495
-0.640458 4.69549 -1.25051
0.512538 6.47763 0.742644
-2.20652 3.0586 -1.78627
1.04459 4.41129 1.10232
0.176313 -0.0508562 0.348179
0.256082 8.20892 0.964431
-0.999652 1.94764 -1.56524
-1.13221 5.62968 -1.48829
-1.28183 1.26208 -1.25718
-1.86134 6.56022 -1.80612
0.8155 0.882055 0.447775
-1.05052 10.7889 0.13395
0.726939 1.25124 0.138811
-0.827223 1.51528 -1.40797
-2.08852 12.9142 -0.199755
-2.21452 2.69952 -1.61054
-0.158611 5.90903 -0.437502
-2.21716 4.06843 -2.02823
-1.25631 1.39524 -1.35869
0.79933 3.63848 0.412009
-1.04825 11.0313 0.229813
-1.83861 1.92281 -1.38859
0.338197 0.105314 1.4735
0.792522 3.99219 0.479959
0.496597 0.26587 0.239286
0.434145 0.57402 -0.121347
-0.340965 1.13457 -1.08597
-1.44919 9.31208 -0.809835
0.568545 2.37873 -0.172882
0.767308 0.29896 1.16892
1.06209 8.42156 2.68995
0.76272 0.292339 1.25485
1.23558 3.25379 1.30657
0.0781651 3.91541 -0.629619
-0.741754 1.71489 -1.42925
0.581066 1.98809 -0.170563
-2.01374 11.3162 -0.685797
-0.048416 2.6229 -0.95246
-1.80021 2.29482 -1.63797
0.583176 3.61857 0.0312293
0.676778 0.316168 0.613611
0.233425 0.178076 -0.0747869
0.179102 7.06741 0.408483
-0.296197 7.75316 -0.0281326
-0.078721 9.05854 0.770517
-2.08602 12.9685 -0.177431
-1.64471 7.72111 -1.42252
0.927206 2.35704 0.474879
0.881252 4.52192 0.789697
-0.0690223 7.78561 0.297434
-2.03907 10.2624 -1.04011
0.964442 1.50265 0.599371
0.601844 0.458271 0.253522
-1.52533 7.56422 -1.36856
-1.04132 1.36286 -1.37697
1.42889 3.93631 2.01126
0.63701 0.254481 0.60691
0.898987 5.32605 1.0714
0.0658752 -0.07315 0.333371
-0.175172 -0.0460888 0.626384
-0.313967 6.63533 -0.415894
-2.03216 3.84509 -2.00261
-1.96093 2.09994 -1.41836
-2.72432 5.08445 -2.1041
0.90461 3.90224 0.675214
-1.50592 4.88594 -1.84153
0.629098 1.04644 0.00906975
1.09118 0.929384 1.36752
0.261596 0.121379 1.53009
1.00404 0.703757 1.30685
0.633018 7.00611 1.1568
1.3182 7.65946 3.02389
-2.13957 13.5275 -0.0234769
1.38829 5.81195 2.44852
-2.75895 6.11487 -2.15041
0.766244 7.60038 1.6569
-0.880432 0.954823 -1.15771
0.70639 1.41379 0.072675
-1.72397 5.23801 -1.91364
0.00886752 0.90919 -0.75536
1.17476 6.18665 2.00502
-2.13688 3.24154 -1.87319
0.823434 1.98724 0.25499
-0.209619 2.24228 -1.12345
-0.343501 2.97784 -1.21464
1.31044 7.25666 2.8171
1.32769 1.77474 1.74824
1.2269 1.39941 1.51476
-0.398613 3.47975 -1.21562
0.82259 3.14115 0.360297
0.963348 3.86942 0.787765
1.19297 5.29109 1.72489
1.14779 2.72796 1.01194
0.614203 1.61471 -0.107217
-0.382125 0.0769337 -0.197902
0.540101 0.0828763 0.866136
-0.766524 5.71135 -1.15683
-0.570785 3.20184 -1.38975
-1.34249 8.99461 -0.806515
-2.88482 4.36614 -1.90676
-0.787769 4.7984 -1.36189
-0.0550017 -0.0715393 0.274379
1.04973 3.56682 0.90741
0.3372 5.43026 0.110939
-0.736136 3.7833 -1.46579
-1.19878 8.86171 -0.705869
-1.1849 4.04441 -1.74094
-0.637501 0.476208 -0.784816
1.44889 5.25634 2.4405
-2.24676 3.90903 -2.00206
-1.88767 3.08373 -1.87971
-1.27779 2.17 -1.66742
0.326511 -0.0179222 0.518491
0.372883 7.70511 0.962609
-2.03529 2.16079 -1.39541
0.787456 6.01553 1.08444
1.03206 1.32525 0.825912
1.13043 1.00795 1.47627
0.312227 0.0747438 1.38997
