ply
format ascii 1.0
comment Created by Open3D
element vertex 400
property double x
property double y
property double z
end_header
1.71476 0.318396 0.740264
2.24818 0.48994 2.75346
1.30037 0.628872 0.943475
0.844507 0.050742 2.16801
2.41686 0.0878227 1.0995
1.93108 0.321055 0.915784
0.536464 0.318127 1.42154
1.70821 0.622417 1.22332
2.3426 0.516923 2.71446
2.36759 -0.00133643 3.60066
1.45277 0.27621 0.513913
1.17873 0.679162 1.41047
1.34984 0.272455 2.45655
2.04928 0.564568 2.47774
1.66143 0.607214 2.13916
1.65275 -0.0243669 0.397128
1.45932 0.373381 0.621465
1.86411 0.0404394 3.18084
0.558912 0.52531 0.725408
1.36217 0.0833962 2.68903
1.65281 0.678914 1.37052
1.74215 0.69708 1.63171
1.68416 0.583752 2.21615
1.09034 0.671709 1.30668
0.621481 0.552611 0.786449
1.89548 0.598262 1.34141
0.841278 0.0284964 2.187
2.76872 0.441751 2.07527
1.17654 0.460327 2.01002
2.87355 0.335239 1.95767
2.12294 0.0388484 0.796778
1.46773 0.565622 2.08772
0.656568 0.247926 1.70061
1.86339 0.550207 2.41498
0.793746 0.395181 1.66668
0.977589 0.579524 1.52906
2.54947 0.526908 2.68687
2.76242 0.3701 1.87686
1.08299 0.567588 0.701877
0.617029 0.335303 1.51668
1.24062 0.429263 2.12707
2.64913 0.22271 1.48969
1.84578 0.262457 2.89593
1.62752 0.662481 1.93569
2.08793 0.576016 2.46026
0.443101 0.304897 1.28931
2.52897 0.411678 1.65603
1.20484 0.579106 1.80342
3.28958 0.153315 2.19138
1.20821 0.629297 1.67013
2.17114 -0.0799172 3.55048
0.664088 0.398653 1.47849
1.3801 0.188684 2.58816
2.35682 0.152537 3.39766
1.81396 0.0804688 3.0952
1.84759 0.648502 1.44743
2.1343 0.292021 1.0597
2.24807 -0.0202445 0.851843
0.892143 0.636629 1.11767
0.778606 0.544338 1.3289
1.63864 -0.0179464 3.05128
2.45952 0.272943 1.35362
0.805828 0.415871 1.64782
2.05988 0.0282206 0.736646
2.69171 0.218164 1.53082
1.76405 0.194985 2.91886
2.91037 0.270164 1.87868
1.49955 0.636318 1.0901
1.5325 0.487621 2.2986
2.60569 0.415432 1.7626
2.4898 0.470643 1.73497
0.506235 0.340062 1.33453
1.55341 0.49407 0.845727
2.26529 -0.0493136 3.58551
1.96557 0.529361 2.52348
2.21185 0.253717 1.08596
1.27219 0.452301 0.604656
1.24199 0.298887 0.410443
2.02603 0.665564 1.83206
2.61033 0.312676 1.57788
2.49989 0.545667 1.9933
3.02235 0.30675 2.11464
2.38108 0.603897 2.1628
2.07958 0.607143 1.58047
2.14971 0.492153 2.70436
0.78755 0.610594 0.9178
1.46941 0.577975 0.931893
2.13039 0.650411 2.06919
1.16013 0.608126 0.824029
1.98972 0.242523 0.877904
2.67372 0.533455 2.42374
1.66957 0.642576 2.03719
0.712627 0.296455 1.70946
1.65517 0.456381 2.45391
2.54159 0.538405 2.03985
1.20406 0.581716 0.782751
2.06915 0.615247 2.3184
1.75596 0.200147 0.651612
3.02943 0.0235537 1.66284
2.04474 0.635456 2.22427
2.33797 0.603353 1.99516
2.16818 0.645391 1.9965
0.978873 0.269896 2.0727
1.62022 0.461543 0.847058
1.12183 0.446269 0.518346
2.17239 0.615155 1.74511
2.0594 0.556776 2.50356
2.29715 0.3884 1.35027
2.20967 0.527381 1.51648
1.04326 0.245557 2.17547
0.735296 0.594627 0.888074
1.9458 0.55802 2.44378
1.66375 0.148952 2.89074
0.871217 0.363106 1.81629
2.53548 0.366995 1.58073
1.97813 0.345202 0.985157
1.67563 0.557115 2.27269
1.56999 0.21286 2.7329
0.716208 -0.0239356 2.08672
2.81821 0.0816001 1.49683
0.807836 0.520756 1.4385
1.46475 0.121976 0.384929
1.39874 0.486228 2.18335
3.55258 0.0288005 2.34985
2.92817 0.425876 2.32329
0.442206 0.04826 1.64062
1.13067 0.6177 1.61521
1.81369 -0.0146513 0.516009
2.7188 0.519674 2.40621
1.61016 0.00864084 0.392404
2.91895 0.441093 2.38033
3.07388 0.286965 2.14807
1.51489 0.55679 0.923145
0.604768 0.449161 1.27984
1.11368 0.53832 0.657423
1.33105 0.697221 1.48249
0.928513 0.643305 0.964477
1.80473 0.559505 2.35623
0.770916 0.562659 0.655304
1.68206 0.0393505 3.02933
1.14244 0.00362746 2.54893
0.794858 0.517058 0.534912
0.399423 0.223276 1.34784
2.5807 0.336986 1.58289
2.23526 0.586552 2.45983
1.3606 0.0316501 2.74182
1.79541 0.320814 2.77585
0.746317 0.0451912 2.05439
2.01512 0.595016 2.37296
2.75432 0.258405 1.66222
1.80852 -0.151109 0.417922
0.91812 0.570593 0.66714
0.620251 0.544684 0.708809
1.93947 0.563981 1.30338
0.698627 0.430225 1.47094
2.08102 -0.0333684 3.43221
0.784587 0.0320319 2.11509
1.25721 0.263192 0.384101
0.694236 0.00946816 2.02563
1.01146 0.471357 0.506617
0.969356 0.63803 0.895634
1.02614 0.19526 2.2173
0.723565 0.0158463 2.05616
2.60529 0.320892 1.58524
1.37173 0.688708 1.59901
2.03564 0.119727 0.79604
0.620714 0.120993 1.80952
3.53768 0.0486348 2.36422
1.38343 0.605517 0.933979
0.974028 0.139031 2.22337
1.12858 0.499507 0.598888
2.0196 0.184767 0.844144
0.883945 0.634614 1.11177
1.05018 0.594776 0.753362
2.20836 0.449366 1.35752
1.768 0.557306 1.12681
1.98062 0.613535 1.47939
2.35253 0.61041 2.19212
0.964941 0.635498 1.30605
1.43494 0.54776 2.09745
1.59897 0.667551 1.27101
1.21829 0.546693 1.89057
1.04491 0.57538 1.62766
2.0035 0.659766 2.07721
2.29276 0.500207 1.55322
1.94482 0.628618 2.22904
2.30462 0.0852771 3.45266
1.98959 -0.00715592 3.33307
0.641592 0.561733 0.833118
2.03269 -0.0336371 3.39538
1.47416 0.456452 0.735775
0.771393 0.546035 0.605717
0.412465 0.216566 1.37965
2.63195 0.301326 1.58503
2.7597 0.408715 1.96475
2.41664 0.524397 1.77861
2.57198 0.125363 1.28931
1.52899 0.69865 1.37881
1.9109 0.236909 2.97962
0.6649 0.558466 0.71741
0.920042 0.563387 0.649828
1.94235 0.653911 1.58968
2.50848 0.48137 1.788
1.22249 0.441284 2.0893
2.3973 0.505772 1.69943
2.95443 0.000876812 1.55257
3.04029 0.255831 2.03039
1.04264 0.454401 1.87354
1.12033 0.681792 1.17407
2.42372 0.148174 1.16833
0.828321 0.281231 1.87928
2.98346 0.306015 2.05375
1.92342 0.533335 2.49003
1.65123 0.0591283 2.98115
0.542613 0.444905 1.17508
2.27215 0.077711 0.958447
1.43051 0.454861 2.26656
3.47415 0.0531532 2.27724
2.50945 0.555503 2.55301
0.988503 0.589409 0.725487
2.51911 0.565777 2.16802
1.76534 0.683277 1.89856
0.831411 -0.021892 2.22543
2.19346 0.473337 1.38506
1.55107 0.633872 1.98032
1.10141 0.664405 1.38302
2.26285 0.123447 0.993832
2.47445 0.104715 1.17118
1.63097 0.535202 2.28628
1.0901 0.513084 1.81957
2.11229 0.602356 1.60677
2.10563 0.57736 1.5204
0.905282 0.0408849 2.24948
2.00809 0.153089 0.804294
2.06085 0.588263 1.49776
2.80056 0.0777322 1.47325
3.30317 0.114212 2.13891
1.11361 0.516131 0.618972
0.737615 0.470792 1.44698
1.05365 0.638213 1.44004
1.82623 0.667523 1.50621
1.84673 0.455794 2.59692
3.42843 0.136358 2.37099
1.86787 0.514003 1.13504
2.384 0.525967 2.69525
1.79055 0.634749 1.33826
1.25344 0.695623 1.367
1.36619 0.494169 2.13891
1.42031 0.27795 0.495014
2.2574 0.580315 1.73135
0.872115 0.523202 0.555345
3.37243 -0.0225355 2.01862
0.89627 0.555779 1.47952
1.60146 0.682556 1.82554
2.84022 0.379872 2.01328
0.961705 0.269719 2.05329
2.81103 0.201872 1.6447
1.22959 0.0515269 2.59078
1.85844 0.0892369 3.12126
1.32094 0.613493 0.915446
1.81384 0.0717572 0.582938
2.36865 0.606846 2.16588
1.53979 0.152848 0.45851
1.18807 0.639458 1.61292
1.89593 0.351192 2.80547
2.95975 0.353249 2.13266
2.0545 0.49535 1.28069
2.69995 0.513593 2.26364
2.28152 0.505299 1.55122
2.83398 0.0852134 1.51829
0.517839 0.232935 1.52224
0.941363 0.645836 0.970807
1.43624 0.648318 1.83836
3.18705 0.278508 2.31306
1.16675 0.143592 2.4272
3.36457 0.0976514 2.19729
0.533776 0.516075 0.744904
3.33142 0.0402627 2.05662
2.07963 0.338485 2.95032
0.68381 0.500299 1.29014
1.79191 0.693827 1.68595
1.82704 0.283062 0.788611
2.80602 0.338011 1.86914
1.79407 0.58902 1.21873
2.08947 0.512094 2.62922
1.26869 0.359592 0.489372
0.961187 0.582218 0.702273
0.863045 0.632083 0.993535
2.5777 0.488024 1.90961
2.32829 0.39895 2.98483
3.05632 0.299262 2.14986
2.34798 0.356431 3.07453
2.43877 0.204121 1.24606
1.3346 0.702291 1.34319
2.33005 0.522156 2.69603
1.89464 0.165102 0.724789
1.94041 0.564872 2.42344
2.91943 0.429249 2.31944
0.657001 0.43456 1.39846
1.33843 0.261736 0.429418
1.98478 0.610728 2.30904
1.11888 0.634169 0.884273
1.55376 0.342487 2.54793
0.965614 0.460885 0.474416
1.78508 0.442635 2.57638
1.61897 0.701167 1.69211
1.57045 0.0680661 0.410545
1.002 0.657022 1.00431
1.4486 0.488681 2.22402
1.35899 0.495427 0.717314
1.6606 0.234116 2.78423
2.60846 0.114 1.3136
1.93329 0.600376 1.38713
0.500291 0.386052 1.23407
1.89028 0.446163 1.04497
1.59372 0.628413 1.14111
3.19674 0.00336583 1.83424
1.10939 0.202834 2.29878
1.16654 0.0968029 2.47812
3.50573 -0.041394 2.16737
1.99973 -0.0848245 0.602588
1.553 0.2378 0.542964
1.78124 0.470254 2.52432
0.510302 0.465877 1.04137
0.777303 0.518967 1.39611
1.62081 0.646267 1.21549
2.01616 0.34154 2.90381
2.40154 0.419237 2.97531
1.76565 0.0189717 3.12272
1.36264 0.693057 1.23177
1.86719 0.545533 1.19377
3.12157 0.291363 2.23584
1.13817 0.253851 2.26737
2.9628 0.344856 2.11538
0.822265 0.159905 2.02215
2.74643 0.486327 2.21184
1.58826 0.705601 1.59695
2.06153 0.629169 2.25661
1.97755 0.649329 2.14494
2.33226 -0.109969 3.70002
0.920296 0.42181 1.78391
0.618078 0.295316 1.57994
1.60542 0.376414 0.725726
2.19126 0.233338 1.04393
1.74511 0.465241 0.950239
0.907882 0.496368 1.63189
1.22449 0.498213 1.99265
2.03908 0.62888 1.60875
1.87593 0.681319 1.91596
1.95222 0.561011 1.30971
1.8336 0.672055 1.54035
2.11918 0.162847 3.22756
2.07098 0.545123 1.39952
0.990542 0.503191 0.549378
2.28732 0.353108 1.28701
1.1013 0.539869 0.65503
0.684973 0.0786868 1.94125
2.1475 0.0470155 0.824109
1.57514 0.342678 2.566
0.734469 0.590823 1.01468
0.682166 0.506974 1.26892
0.706994 0.371924 1.58671
1.58873 0.645588 1.18645
1.26861 0.153965 2.51941
0.76869 0.091832 2.0326
1.2531 0.679176 1.10706
1.22199 0.150515 2.47629
2.0021 0.126395 0.774831
1.23705 0.265229 2.35494
1.91166 0.682542 1.8056
0.519946 0.509902 0.794784
1.7928 0.176296 0.657077
2.18976 0.628363 1.851
2.60295 0.0848457 1.2763
1.76169 -0.104624 0.416068
2.38811 0.454606 2.89066
1.85196 0.68863 1.80959
2.62067 0.24835 1.49351
1.16684 0.56005 1.80641
1.81403 0.335246 0.836317
1.85159 0.596254 2.29008
1.59403 0.364832 0.703939
0.941301 0.546106 0.615269
2.28899 0.530712 2.66017
1.7076 0.631319 1.24772
1.51781 0.229718 2.66582
1.98454 0.601635 2.33926
1.42308 0.339022 0.559665
1.62267 0.375 2.55864
1.33513 0.58349 0.85673
2.25439 0.203986 1.06937
1.96494 0.285926 2.95146
1.06769 0.414831 1.96699
2.41284 0.58139 2.44855
1.06559 0.395407 0.427358
1.04336 0.514491 1.76282
1.60408 0.553226 0.983141
2.30364 0.607002 1.94203
1.80419 0.249078 2.8816
0.975529 0.263786 2.07672
