ply
format ascii 1.0
comment Created by Open3D
element vertex 400
property double x
property double y
property double z
end_header
2.05907 0.57352 1.23291
2.65908 1.75529 1.07338
2.82793 1.48234 1.35632
2.46114 0.960661 2.10202
2.86535 1.82253 1.28474
1.29045 0.330714 0.261432
2.80805 1.73264 1.23224
1.9524 1.1493 0.498185
2.03781 1.66986 0.603063
1.8384 0.494685 0.744265
1.44908 0.647109 0.222675
2.16219 0.659518 1.19972
2.98925 2.79188 1.51686
2.60924 1.09351 1.36606
2.88636 1.84971 1.30533
2.97322 1.74523 1.44424
2.40134 0.908137 2.04583
1.79262 0.449069 1.56041
2.65699 1.57343 1.08868
2.58662 2.52423 1.15908
2.02857 0.550836 1.23643
1.47249 1.11309 0.218892
2.5773 1.13803 1.21458
1.7485 1.19729 0.368876
2.00072 1.00648 0.553707
2.2895 0.808937 1.10724
2.59552 2.07493 1.04986
2.58288 1.53149 1.01545
1.53624 1.67907 0.368975
2.13628 1.46404 0.635208
2.20103 0.762445 0.985551
2.78867 1.28553 2.49035
1.81585 1.24885 0.412059
2.35279 0.803627 1.58265
1.71029 0.466118 1.76974
1.58002 0.400512 0.487472
2.08635 1.99067 0.709306
2.32956 1.59428 0.786168
1.62879 0.9399 0.293506
1.25727 0.254445 0.306333
1.63156 1.06029 0.294998
2.76817 1.46641 1.27005
2.80723 1.66111 1.24659
2.08822 0.594507 1.33605
1.27243 0.151123 1.20159
1.64969 0.616583 0.383888
2.34459 1.00867 0.938345
2.86239 1.4851 1.41513
1.90975 0.511288 0.868292
1.31213 0.825526 0.127612
2.2199 1.96679 0.776813
2.30342 0.926154 0.950125
2.15059 0.815407 0.819791
2.18448 0.666816 1.38163
2.80606 1.21704 1.85098
2.85373 1.2842 1.74557
2.67918 1.09477 1.88823
1.12195 0.252571 0.194829
1.97282 0.511358 1.23661
1.71659 0.439226 0.627699
1.49544 0.223361 1.047
2.6876 1.16026 2.27983
1.99406 0.633688 0.789251
2.20358 0.686919 1.27146
1.61021 0.368742 0.57929
2.63027 1.04622 1.75469
1.59729 0.964352 0.274343
1.57572 0.284151 1.24075
1.71941 1.16564 0.350011
1.63302 0.315186 1.26335
2.27192 0.88976 0.936697
1.19087 0.356361 0.169684
2.41704 1.82783 0.876968
2.18572 2.11737 0.799589
1.41858 0.250641 0.507476
2.71524 1.13495 1.6876
1.08351 0.746988 0.0307874
1.22662 1.02632 0.105373
2.02663 1.22976 0.549542
2.09731 1.80798 0.667275
1.41025 0.341193 0.362265
2.19936 1.29333 0.681538
2.04065 0.568556 1.43686
1.64882 0.682408 0.354706
1.01033 0.232009 0.135475
1.78916 0.928495 0.400442
2.94899 2.00886 1.36185
2.52302 2.06274 0.994602
1.01977 1.23804 0.079203
2.68623 1.25886 1.29316
1.84607 0.692696 0.530754
2.80233 2.6126 1.32897
2.22332 2.17573 0.837766
1.61135 0.282383 0.967555
2.79079 1.83023 1.20227
1.95469 2.08379 0.673477
1.8082 0.410871 1.28324
2.8988 1.45443 2.80357
1.57925 0.309833 0.657319
1.61664 0.341031 0.650871
1.25193 0.248767 0.307825
2.01022 0.898358 0.595292
1.62175 0.292573 1.11136
1.24642 0.667155 0.105316
1.35354 0.154828 1.0099
1.67606 0.447365 1.75509
2.00138 0.899793 0.585994
1.90228 1.8215 0.568337
1.39713 0.32447 1.69623
2.17856 1.93735 0.745354
2.12181 1.48472 0.627098
1.24566 0.109948 1.00458
1.50856 0.456635 0.355236
2.4884 1.17428 1.02975
1.87299 0.537726 1.76145
1.07976 0.0838982 1.18389
2.26137 1.9386 0.794675
1.40278 0.301821 0.400831
1.81565 0.856815 0.434701
2.3947 1.04429 0.985629
2.54946 1.96808 0.996879
2.87276 1.38273 2.6233
1.8623 0.438406 1.06865
1.77097 0.381166 1.18795
1.98721 0.583519 0.87117
1.76272 0.832555 0.398943
2.0382 1.67246 0.603813
1.17193 0.378479 0.145487
2.67119 1.14408 2.26145
1.66423 0.378436 0.654774
1.75161 1.01918 0.366649
2.48259 1.82393 0.925659
1.63756 0.309571 1.20327
1.13328 0.207706 1.58214
1.8111 1.25893 0.410157
1.69071 0.352556 1.3203
1.08814 1.17702 0.0849377
1.23325 0.532013 0.123631
2.2759 0.794152 1.89666
1.28719 0.139753 1.10546
1.10247 0.0873701 0.421125
1.47872 1.40813 0.274181
1.86871 0.522764 1.7121
1.29583 0.506635 0.168086
1.18407 0.119176 1.19515
2.56229 2.31786 1.08249
2.79881 1.27737 1.54145
2.80794 2.63239 1.33868
2.59951 1.13476 2.41705
1.49336 0.406183 0.382665
1.60014 0.281817 0.859015
2.24247 0.71217 1.4179
1.96181 0.517814 1.42558
1.45517 1.42338 0.268453
1.87791 1.9616 0.598693
2.77015 1.23364 2.3311
2.68581 1.34316 1.21827
1.05784 0.032739 0.55795
1.41511 1.3466 0.235056
2.33214 1.16258 0.835843
2.41039 0.852071 1.48825
1.3532 1.68083 0.305025
1.67372 0.807459 0.338478
2.29409 0.898874 0.964918
1.87156 0.472538 1.47148
2.97837 2.16379 1.3928
2.61213 1.15494 1.26618
1.05357 0.7528 0.0196859
1.84253 0.569928 1.9209
2.97878 1.42479 2.43741
2.67467 1.22138 1.31395
1.71029 0.340705 1.08109
2.80282 1.32628 1.46472
1.49345 1.51885 0.307422
2.87338 1.34801 1.62546
2.95772 1.53219 1.56135
1.12351 0.0754059 0.495908
1.40725 0.392536 0.312181
1.36166 1.0651 0.164261
1.50611 0.81796 0.229166
2.88735 2.11197 1.3008
2.6915 1.22018 1.35362
2.69234 1.5038 1.14834
2.75365 1.234 1.49505
1.65629 0.424809 1.70627
1.62434 0.875547 0.295337
2.55412 1.27519 1.06304
1.18978 0.0887702 1.00399
1.99218 0.646091 1.93888
2.64503 2.12992 1.09742
2.8962 1.30743 1.95143
2.77964 1.92777 1.18942
1.14333 0.779069 0.0544119
1.39852 0.504867 0.23727
2.29473 0.759843 1.33943
2.82227 1.39089 2.76986
2.06326 1.78352 0.642378
2.81705 1.65321 1.26119
2.46495 2.00748 0.94258
1.1669 0.200472 1.52903
1.9502 0.829853 0.564575
1.2023 0.209565 0.308419
1.62395 0.328536 0.70302
2.63953 2.3684 1.148
1.33371 0.170321 1.18133
1.39629 1.18126 0.195352
2.38632 0.830398 1.57562
2.8953 1.35137 2.42023
1.94834 0.646805 2.01073
2.40603 1.10135 0.959579
1.06464 0.24381 0.161701
2.36213 0.983423 0.989306
2.98934 1.4503 2.52348
2.7057 1.48093 1.17399
1.45003 1.03667 0.200769
2.04093 0.665621 1.92042
2.34771 0.980764 0.96805
1.81253 1.07538 0.404451
1.39426 0.328402 0.359585
2.97974 1.72544 1.46258
1.87973 1.54395 0.490301
1.09975 0.80526 0.0382898
2.44339 0.882094 1.68848
2.63462 1.9027 1.05705
1.91664 0.516952 1.57819
2.14489 0.810238 2.21837
2.01053 1.58158 0.570473
2.41705 0.903789 1.97862
1.70987 0.340316 1.02033
2.19171 0.728171 1.8325
1.30534 0.988705 0.132314
2.45968 1.0036 2.2707
2.11961 1.74346 0.665946
2.92919 1.89387 1.34934
1.02932 0.252112 0.132583
2.18924 0.731191 1.02389
1.43881 1.00441 0.193033
1.73824 0.375332 1.30794
2.16022 0.660367 1.55326
1.30938 0.24217 1.52174
2.6762 1.2384 2.59488
1.68994 0.409549 1.5967
2.24292 0.737491 1.17892
1.75217 0.42512 1.54134
2.13719 1.36722 0.630966
1.88727 0.598283 1.94674
1.62271 0.394148 0.555142
2.45122 0.889265 1.70102
1.90557 0.721998 0.576745
1.36611 0.894313 0.153534
2.80826 1.21854 1.86756
2.2901 0.896088 2.24528
1.74241 0.656803 0.447542
2.09956 0.699187 1.9293
2.57902 1.15695 2.53242
1.81861 0.546523 0.62743
1.996 0.788134 0.636658
2.53808 0.979583 1.90977
2.88935 2.07597 1.30067
1.86211 0.444056 1.00198
2.48075 0.963433 1.28589
1.6638 0.956426 0.314061
2.48238 2.03976 0.961305
1.63992 0.374208 0.618966
2.34847 1.45932 0.798967
1.41281 0.333323 1.70733
2.69393 1.15889 1.47971
1.26389 0.114332 0.978459
1.67336 1.08824 0.319563
1.85612 0.454203 1.41051
1.70501 0.640137 0.421471
1.38858 0.204997 1.25229
2.53385 1.11087 2.47511
1.03693 0.162889 1.52046
2.59906 1.19758 1.19075
2.55353 1.00021 1.44509
1.00118 0.0591778 0.358609
1.88877 0.469498 0.966297
1.52043 0.59426 0.288959
1.64543 0.304501 0.924733
1.69019 1.1268 0.331011
1.18949 1.40398 0.171084
2.55522 1.60467 0.979817
1.04632 0.270886 0.130185
2.2602 0.728051 1.36456
1.88816 0.621349 0.639338
2.16983 0.71591 1.83634
1.58857 0.316459 0.658458
1.7629 0.405505 0.807594
2.77579 2.42556 1.2597
2.05409 0.967202 0.613168
2.13375 1.24881 0.630881
2.46527 0.977872 1.20846
2.80375 1.40593 1.37408
2.50025 1.63172 0.928304
1.1333 0.658946 0.0539593
2.11788 2.14323 0.772055
2.42367 0.934109 2.09395
2.16065 0.648516 1.34626
1.20588 0.0937553 0.605658
2.6864 2.01872 1.11293
2.6268 1.42676 1.09202
1.20508 0.11581 0.504393
1.83214 0.416889 1.15163
1.09155 0.0505299 0.974888
2.09417 0.610877 1.13078
1.63944 0.311898 0.82332
2.75993 2.46367 1.25774
1.52802 0.377843 0.451481
1.86236 0.47275 0.858986
1.20783 0.106865 1.08383
2.74255 1.49797 1.21709
1.38895 0.28763 0.40402
1.16447 1.05668 0.087264
1.64345 0.973332 0.301114
2.36013 0.871085 1.15547
1.67373 1.71815 0.435542
2.39542 0.91407 2.08633
1.28616 0.236796 1.52926
2.31016 0.792978 1.77297
2.47084 0.932773 1.34705
2.37734 0.893953 2.05118
1.66972 0.953159 0.317894
2.99306 1.53799 2.85411
2.1052 1.74008 0.656725
2.43489 1.0213 1.07702
2.54706 1.88747 0.983734
1.39382 1.33259 0.223722
1.99587 0.551437 1.51923
2.40766 1.4568 0.851639
2.67883 1.09189 1.81557
1.3622 0.406678 0.2638
2.98545 1.43455 2.45959
1.61201 0.414534 1.73254
1.28967 1.24403 0.165916
1.27782 0.12822 0.620281
1.27006 0.19111 1.38195
1.2925 0.118702 0.846994
1.11288 0.110613 0.377715
2.62235 1.44433 1.08054
2.34497 0.796414 1.44738
2.22784 2.08365 0.812925
2.92717 1.34918 1.87766
1.5303 0.658338 0.274039
1.87824 0.905867 0.473542
2.52105 1.20444 1.05784
2.30671 1.08262 0.840177
2.85619 1.9599 1.2654
2.25545 0.733602 1.26345
2.95204 2.88731 1.51854
1.32226 1.50679 0.242184
2.15477 1.64125 0.668881
1.17724 0.226055 0.265002
2.90117 1.38995 1.62484
2.31494 0.845912 1.09138
1.40136 0.238521 1.38463
1.67144 1.18935 0.32575
1.32247 0.890757 0.13329
1.37994 0.904241 0.160322
1.96981 1.20608 0.509181
1.80976 1.88353 0.543737
1.0555 0.399042 0.0709582
2.57777 0.997961 1.71904
1.55982 0.322313 1.47116
1.01678 0.587422 0.0121198
2.41222 0.990763 2.32469
1.4672 0.230368 1.21179
2.37257 0.963801 1.02943
2.67996 1.09493 1.87846
2.93194 2.28644 1.35987
1.21616 0.785454 0.0846973
1.43104 0.212867 0.640441
2.41449 0.900536 1.97127
1.55551 0.255464 0.849645
1.4311 0.927844 0.185707
1.7567 0.379893 1.26453
2.26022 0.849518 0.966276
2.4445 1.89135 0.906787
2.90346 1.34458 1.755
2.19978 0.915838 0.803874
1.24305 1.66596 0.266063
2.06688 0.755225 0.755155
1.44084 0.199751 0.742611
2.86371 1.39319 2.68351
2.97103 1.58383 1.53846
2.83839 1.65768 1.28758
2.75254 1.21976 1.52468
2.27541 0.759312 1.22368
1.21369 0.958667 0.0925603
2.94041 1.66123 1.43258
2.06067 0.637563 1.76906
2.72377 1.13648 1.91422
2.69456 1.19301 1.40615
2.84788 2.18007 1.27133
2.33221 1.20253 0.822599
2.01397 1.58118 0.572417
2.08657 0.701125 1.96158
2.22819 0.894455 0.861645
1.98522 0.567885 0.906659
2.23879 0.723922 1.22737
