ply
format ascii 1.0
comment Created by Open3D
element vertex 400
property double x
property double y
property double z
end_header
2.1148 -1.06326 -0.328094
3.11527 -2.17189 -0.700788
1.99385 -1.00088 0.13568
2.19477 -2.97447 0.683325
2.10705 -1.05545 -0.320598
0.576828 -1.69548 0.596958
1.25303 -0.63616 0.472877
2.02856 -1.4396 0.560739
2.10991 -1.42645 0.499724
2.24635 -2.22092 0.678904
3.09049 -2.18259 -0.150717
2.57399 -2.11743 0.513228
3.02376 -2.17003 0.0192702
0.996278 -0.396462 0.368527
1.83968 -0.817015 -0.3039
1.13315 -0.617279 0.506453
1.02823 -1.34356 0.707962
1.40449 -0.72877 0.469293
2.99979 -2.1668 0.0671797
3.33147 -2.43375 -0.563979
2.65171 -1.6126 -0.315035
1.13696 -1.23367 0.706651
2.56679 -1.93891 0.435978
1.69166 -0.77859 -0.685349
1.82672 -0.821903 -0.42045
2.43166 -1.42348 0.0340346
2.96822 -2.16947 0.130983
1.83157 -0.808529 -0.28574
1.63123 -1.8612 0.747809
1.5914 -0.95392 0.532013
2.40173 -2.96715 0.665448
2.60666 -2.13421 0.497903
1.11279 -0.594246 0.497172
1.8736 -2.77285 0.70496
1.46144 -0.790342 0.486684
2.51661 -1.93407 0.4744
2.78209 -1.79178 -0.696283
2.33009 -2.29982 0.664
2.39835 -1.73307 0.459161
1.72085 -1.02952 0.50697
2.08827 -2.63014 0.713316
1.59479 -0.621509 -0.000253723
1.28695 -2.20004 0.711816
2.03966 -0.999657 -0.0421956
1.34979 -2.03937 0.733608
0.649483 -1.08109 0.63092
2.35004 -1.36729 0.124302
2.3057 -1.25657 -0.432973
2.40506 -3.04259 0.660994
2.75944 -1.74882 -0.192077
0.974732 -0.601838 0.534554
2.60695 -1.58307 -0.57553
1.20222 -0.345787 -0.0130418
1.63765 -0.650977 -0.033816
3.15026 -2.25741 -0.171733
2.26441 -1.9358 0.622148
2.28641 -2.41756 0.685149
2.19274 -1.55475 0.515005
2.15478 -1.10382 -0.094434
1.59306 -0.610173 -0.139254
2.4046 -3.016 0.662586
2.6164 -1.83954 0.314213
2.89446 -2.20173 0.270692
0.810958 -0.612082 0.552714
1.17812 -0.517086 0.401565
0.773833 -1.8707 0.63761
0.953868 -0.415512 0.406625
1.5516 -0.859055 0.48683
3.08228 -2.19185 -0.098297
2.62664 -1.85377 0.314082
2.52647 -3.10465 0.640901
1.29261 -0.805488 0.569252
2.69534 -2.06316 0.391955
2.00414 -2.19098 0.725501
1.68755 -0.697872 0.0155535
1.42535 -0.880738 0.56421
2.29566 -1.70342 0.520917
2.54226 -1.49318 -0.26593
2.11874 -2.75498 0.704291
0.676014 -0.883346 0.613986
1.61511 -0.696806 -0.605221
1.11303 -0.305479 0.0625448
1.68135 -0.927521 0.453573
1.28982 -0.401135 -0.271678
1.29536 -2.00605 0.729578
1.23944 -0.523822 0.368583
2.01646 -2.49669 0.723827
1.74805 -2.3186 0.739793
2.35722 -1.98901 0.59393
1.64679 -1.08443 0.580368
1.76727 -0.751549 -0.0937041
1.88113 -1.8692 0.722298
1.85096 -0.923611 -0.745384
1.19454 -0.980671 0.656483
2.42501 -1.87678 0.513874
2.14165 -1.49021 0.514836
1.33814 -0.589226 0.372445
1.54443 -1.10625 0.62876
1.62643 -0.715709 -0.641557
2.90491 -2.19708 0.253701
1.75589 -2.70234 0.706938
1.11107 -1.91928 0.708716
2.58609 -1.54998 -0.495508
1.17812 -1.75819 0.727844
2.73357 -1.94484 0.25784
1.82319 -2.0561 0.741299
1.6484 -1.74092 0.740448
1.63271 -0.646123 -0.26727
2.56824 -2.13105 0.521875
2.53686 -3.59447 0.597537
2.33471 -1.27691 -0.186238
3.11255 -2.18412 -0.245711
1.63394 -1.30896 0.671243
1.98778 -0.978542 -0.523898
1.30831 -0.487876 0.244813
1.40956 -0.584658 0.296224
2.2629 -1.40224 0.329798
2.14092 -1.12133 0.0614116
2.03655 -1.59796 0.621399
2.21287 -1.77003 0.596809
1.22627 -0.427553 0.227344
2.99571 -2.24937 0.172653
1.53168 -0.564198 -0.180734
2.36538 -1.337 -0.570817
2.42873 -1.67295 0.389345
2.91609 -2.05319 0.0758409
1.6941 -1.51762 0.706123
2.32446 -1.26903 -0.374673
1.6053 -1.62709 0.734262
2.05921 -1.1998 0.357981
2.96269 -2.05398 -0.0387678
0.88485 -1.19469 0.681029
2.63284 -1.62807 -0.0577083
1.97858 -1.79221 0.690286
1.84508 -1.27866 0.58226
2.46193 -1.42486 -0.522688
1.30548 -2.1522 0.719176
2.12321 -1.54783 0.556746
1.18957 -1.9479 0.719256
1.04993 -0.533184 0.473098
2.28179 -2.46596 0.688483
1.52324 -0.576132 -0.368356
3.13976 -2.23823 -0.185286
3.27654 -2.36612 -0.471659
1.74805 -0.764155 -0.455016
1.51278 -2.22823 0.735411
2.37143 -1.71458 0.470388
2.47678 -3.10328 0.648303
2.29309 -2.03822 0.634509
1.89421 -0.857727 -0.198226
1.61856 -2.0288 0.749264
2.5742 -1.59182 0.0408133
1.86625 -0.945761 0.273627
2.8283 -1.86048 -0.0824916
1.07653 -0.306148 0.139756
1.83186 -1.34554 0.617484
2.57264 -2.13432 0.520261
1.95299 -1.74156 0.687883
0.760769 -1.82423 0.638841
1.85514 -2.02501 0.737183
1.44374 -1.60325 0.741397
1.92156 -1.56716 0.657008
3.27914 -2.36639 -0.530546
2.69394 -2.37015 0.522142
1.98394 -0.946604 -0.350604
2.01949 -2.91807 0.692255
2.76089 -1.967 0.240939
1.16092 -1.19292 0.701788
1.25982 -2.23751 0.703504
2.47901 -1.47421 0.024761
2.95466 -1.97926 -0.246519
2.71309 -2.41827 0.524415
1.0123 -1.38273 0.707781
2.27112 -2.33757 0.683373
1.4438 -2.13353 0.736485
2.33563 -2.07366 0.625072
1.17492 -1.91006 0.719681
2.55816 -1.58061 0.0600562
2.22476 -1.82396 0.608468
1.03863 -0.545579 0.48565
1.93723 -0.900222 -0.0815246
2.8303 -1.81609 -0.364739
2.26342 -1.23193 0.00491541
2.37945 -2.31266 0.650255
2.25999 -1.25883 -0.671029
2.01223 -0.986175 0.0256329
1.78359 -0.778595 0.0182647
1.42696 -1.25817 0.697837
2.16604 -2.1303 0.689909
1.33794 -0.432346 -0.0219643
2.95063 -2.29739 0.274405
1.92921 -1.05188 0.340159
1.47706 -0.556208 0.115127
0.936565 -0.349655 0.343492
1.69569 -2.69146 0.70374
1.47336 -0.953385 0.584686
1.54695 -0.606945 0.109149
1.97801 -0.945422 -0.0194982
1.90462 -1.58345 0.667015
2.33075 -1.288 -0.483186
1.72153 -0.804217 0.25225
1.48046 -0.537526 0.0159515
1.88586 -2.80563 0.70176
1.72941 -2.38186 0.735657
2.00398 -0.993612 -0.528346
1.52006 -2.41249 0.719299
1.93262 -1.36096 0.576277
1.11832 -1.1698 0.697867
2.31533 -1.28535 -0.555172
2.42189 -1.38556 -0.529546
2.06082 -2.05942 0.706951
2.59251 -2.83235 0.628907
1.16411 -1.23429 0.707404
1.54483 -1.00723 0.584397
1.79987 -1.47719 0.671576
2.37607 -1.36554 0.046519
1.44717 -1.85985 0.74785
2.60824 -2.00546 0.437307
1.90473 -0.866797 -0.181941
2.47581 -1.42189 -0.252717
1.26302 -0.379915 -0.0549562
1.30823 -1.53361 0.736765
1.45736 -1.4743 0.729438
2.52079 -3.6615 0.58995
1.2338 -0.897884 0.624355
2.54309 -1.49579 -0.400351
1.12658 -1.43198 0.721665
1.14202 -1.2117 0.704069
1.49061 -1.67941 0.744806
1.56038 -0.648145 -0.57608
0.76553 -1.41227 0.664794
2.94883 -1.96735 -0.62719
2.70727 -1.67663 -0.290088
1.10379 -1.49969 0.721504
1.32764 -0.990046 0.640312
1.36512 -0.686052 0.455338
1.96864 -0.952509 0.0567756
0.926703 -0.861877 0.634421
2.45913 -1.43427 -0.0334287
2.21607 -1.18072 -0.500968
1.59061 -1.86738 0.74924
2.20706 -1.35768 0.351716
2.22261 -3.04271 0.675763
1.62195 -1.54966 0.722994
1.46749 -1.48051 0.72949
1.17887 -0.796202 0.593125
1.57508 -1.08562 0.609914
2.65607 -2.66262 0.596124
1.96969 -0.978952 -0.593336
2.36511 -1.62574 0.417463
1.8721 -1.01862 0.367433
3.18181 -2.28123 -0.2327
1.87107 -2.68095 0.714367
1.59687 -1.82485 0.747931
2.32297 -1.68586 0.49206
2.19122 -2.15021 0.685673
1.22694 -0.382785 0.101399
2.73723 -1.78462 0.0209523
2.06071 -1.03109 0.0187677
2.24666 -1.97375 0.638577
1.07506 -0.748391 0.589761
1.16757 -1.08906 0.684
2.64166 -1.65169 -0.0161197
0.780593 -1.7964 0.646872
2.60808 -1.56568 -0.401749
2.76694 -2.15673 0.379169
3.07235 -2.1139 -0.344431
0.728291 -1.12362 0.650009
2.59247 -1.56391 -0.131223
1.86852 -0.91977 -0.687018
2.84376 -2.1968 0.325949
1.93353 -1.27818 0.531609
2.3274 -1.33268 -0.710689
1.59196 -0.681978 -0.614076
3.07607 -2.11149 -0.551841
2.25032 -1.42691 0.370548
0.940592 -0.567588 0.521027
1.8151 -0.825363 0.102032
2.3832 -1.71736 0.462354
0.933346 -0.909884 0.645859
2.86089 -1.9189 -0.0376313
1.26715 -0.902024 0.61971
2.13265 -1.08979 -0.417989
1.00346 -1.2715 0.700978
1.17567 -0.354679 0.113061
1.86228 -0.858619 0.0703441
1.76604 -2.16693 0.744936
2.30192 -1.26129 -0.0438813
1.25008 -0.404872 0.128499
1.66133 -1.4167 0.692086
1.55203 -1.10975 0.627765
1.04504 -0.666409 0.556557
2.05374 -1.37402 0.508143
2.36578 -1.97655 0.585961
0.858134 -0.443076 0.4558
1.60734 -2.23936 0.74059
2.19692 -2.01003 0.663715
2.2778 -1.95288 0.620751
2.70455 -1.77908 0.0934782
2.36621 -1.50024 0.301253
1.47414 -0.672037 0.356585
1.97181 -1.25627 0.490752
3.3015 -2.39544 -0.532621
2.95834 -2.00727 -0.147737
2.45737 -1.42624 -0.55927
1.89924 -2.83809 0.69854
1.92269 -0.895977 -0.374048
1.5039 -1.16998 0.661816
1.24496 -1.80749 0.733981
1.89082 -1.45963 0.635255
2.15381 -1.09575 -0.235522
1.35043 -1.91336 0.740362
2.16679 -1.10896 -0.182534
1.22542 -2.16984 0.705168
2.81261 -1.79616 -0.342182
1.95734 -1.09999 0.364485
1.76293 -2.52442 0.725543
3.10238 -2.15757 -0.31009
1.74139 -2.3586 0.737422
0.788003 -1.30082 0.669295
2.28892 -1.32431 0.175949
1.4753 -2.11447 0.740291
3.03325 -2.09234 -0.193771
2.28947 -1.29201 -0.692378
2.64373 -1.61718 -0.164674
3.23352 -2.3552 -0.225467
2.08185 -1.03887 -0.0493159
1.38557 -2.15044 0.729374
0.844379 -0.775471 0.608924
2.05384 -1.79722 0.668964
1.18141 -0.441581 0.301813
1.46755 -0.516868 -0.115595
1.90811 -0.869799 -0.172328
2.26001 -1.71251 0.548336
2.61782 -2.19239 0.512165
2.47059 -1.42806 -0.125789
1.17639 -2.07505 0.706428
2.75816 -2.13564 0.375126
1.71299 -1.23243 0.62029
0.907863 -0.900317 0.642624
1.34151 -1.72479 0.743298
2.05837 -1.21116 0.371422
1.81267 -2.39701 0.735614
1.81232 -0.899838 0.279777
2.47915 -1.75192 0.397343
1.78107 -0.85055 0.241604
1.52313 -2.42262 0.718543
1.73994 -1.18794 0.589334
2.15209 -1.2146 0.245112
1.57388 -1.3687 0.698776
0.80601 -0.62227 0.556876
1.81052 -2.05276 0.742243
2.16456 -1.54188 0.527483
2.14027 -1.11952 0.0575169
1.9918 -2.76494 0.707532
0.620231 -1.35817 0.629821
2.02604 -2.8909 0.695194
1.74705 -2.51715 0.725563
2.28152 -1.25728 -0.576945
2.40853 -3.44582 0.623158
1.33916 -0.428184 -0.085354
2.28098 -1.29606 0.136052
0.695765 -1.77014 0.625895
1.49883 -1.02756 0.610726
0.989363 -1.32606 0.702599
2.53836 -1.61147 0.165798
0.983073 -1.77752 0.695267
0.815167 -1.34762 0.675374
0.990876 -0.581974 0.520573
0.968301 -1.44073 0.702986
0.898382 -0.993678 0.659564
2.01295 -0.966798 -0.112972
0.541002 -1.6784 0.587
1.91303 -2.03829 0.730835
2.37631 -1.31725 -0.252615
1.75049 -0.803825 -0.61456
3.23805 -2.31776 -0.445033
0.962459 -0.923491 0.649836
0.712748 -1.21947 0.651568
1.97456 -0.988418 0.15155
1.57593 -0.648408 -0.532279
2.96851 -2.0588 -0.0455143
0.602177 -1.45156 0.621826
2.69836 -1.66444 -0.363054
1.85245 -2.00047 0.736342
1.9274 -0.917083 -0.47764
2.08751 -1.68349 0.626894
1.13876 -0.750029 0.579935
1.54478 -2.30945 0.731429
2.25109 -1.19283 -0.169828
2.00429 -0.981062 -0.462981
0.903795 -0.806825 0.619432
1.22686 -1.79533 0.732392
1.04688 -0.420726 0.369689
2.00072 -0.973591 -0.437779
2.30065 -1.29318 0.0759869
0.64574 -1.0695 0.629283
0.979934 -0.307526 0.254436
1.34009 -0.560155 0.33193
2.70546 -2.393 0.521875
