ply
format ascii 1.0
comment Created by Open3D
element vertex 200
property double x
property double y
property double z
end_header
-0.972365 1.81705 -2.42898
-0.861874 2.69093 -3.10559
0.293051 6.13695 -5.28381
-3.95683 5.75906 -4.35727
-1.06781 2.59335 -3.02212
0.360174 0.796307 -1.46538
-2.23343 6.61867 -5.55369
-0.664592 6.66317 -5.6764
1.95101 6.48046 -5.12858
-0.380524 2.67311 -3.0904
1.59696 0.580659 -0.246185
-3.94314 3.89256 -2.43317
1.47846 1.27266 -1.51458
-0.463572 2.20351 -2.74672
-3.01612 9.86515 -7.34214
-3.56412 4.44892 -3.58006
0.288709 1.12515 -1.79322
0.310928 6.44466 -5.46728
1.66419 3.08657 -2.95891
0.772503 0.655089 -1.18973
0.764894 6.66436 -5.52913
0.328726 0.657535 -1.32846
-1.54257 0.624021 -0.270987
1.68613 2.69124 -2.65051
-1.00473 0.281501 -0.753632
0.788949 0.212361 0.139713
-2.13058 2.04546 -2.3293
-2.69289 8.23355 -6.44971
2.08609 4.14209 -3.55059
-0.76973 0.396543 0.160721
-4.03487 5.79163 -4.32675
-1.06235 0.810658 -1.48618
-3.49167 4.03133 -3.27075
-2.08308 2.13525 -2.43244
-2.27149 1.43397 -1.54452
0.504464 0.0780314 -0.415445
-0.0252245 0.220299 0.270163
-2.15859 1.13938 -0.617904
-3.3861 2.78155 -1.7061
0.0439895 0.154028 0.22326
-3.49994 2.99833 -1.60055
1.06164 0.305181 0.077625
1.92147 1.64684 -1.62331
-2.15726 1.35253 -1.54765
-1.84037 0.774595 -0.618584
-1.56124 2.6873 -3.02947
1.16657 0.44138 -0.662479
-1.60526 7.11475 -5.92623
1.45938 3.06003 -3.01389
-0.267366 0.068517 0.0696635
1.67788 1.24358 -1.36147
-3.37331 10.1937 -7.45166
-1.23575 0.324749 -0.559119
-1.97198 1.68774 -2.06044
-1.32396 5.46168 -4.93527
0.138937 2.61809 -3.00504
-3.1463 2.42944 -1.72943
2.27547 7.21618 -5.47568
1.89792 2.83282 -2.66829
0.37609 2.83963 -3.12913
-3.38411 2.9419 -1.27493
0.0294459 2.2134 -2.7196
-2.96741 2.42532 -0.858195
-2.18252 6.83125 -5.69199
-3.18542 7.77976 -6.05893
0.369859 0.11089 0.161557
1.39971 0.676895 0.243824
-1.04007 0.270104 -0.16367
0.831017 1.58536 -2.06409
-1.34854 0.826426 -1.40848
2.06977 3.02612 -2.738
-0.716973 1.76809 -2.40575
-3.57622 3.34131 -2.4092
-3.87572 5.40248 -4.13491
-0.293745 7.12304 -5.93096
1.67252 1.11448 0.34068
-0.3352 0.419392 -1.13552
-3.95939 5.51599 -4.16403
-3.72482 5.56606 -4.35994
-3.13679 2.83239 -2.39142
-2.7156 6.98196 -5.68492
-2.02853 3.08349 -3.22471
-0.0109554 4.77176 -4.4726
-3.14654 2.41589 -1.2951
0.876563 3.19823 -3.28157
0.388259 0.0466674 0.0444753
-0.226229 6.25252 -5.40712
-2.10685 1.12934 -1.23626
-2.63717 3.88201 -3.62843
-1.93111 0.925744 -0.47983
-3.44847 4.75582 -3.90556
0.71265 0.451505 -0.965316
-2.01551 8.34742 -6.61658
0.362743 0.60981 -1.2688
-1.81988 0.810065 -0.99729
-3.18751 10.2256 -7.51366
-2.96098 2.24734 -0.983592
-1.2667 4.11662 -4.07212
-3.48669 3.02955 -2.06069
-2.01568 0.959358 -0.622683
0.289935 2.42558 -2.84248
-1.97156 8.56762 -6.74904
-2.45493 1.61154 -0.618189
1.35893 0.629338 0.232159
0.290765 2.71669 -3.05468
0.4452 0.0634206 -0.415124
0.0779283 0.139673 -0.712127
-1.22454 0.453722 -0.936729
-2.79608 7.01992 -5.68977
-0.13616 1.34691 -2.0442
1.34087 0.408194 -0.282789
1.5933 6.8516 -5.45925
1.40763 0.447699 -0.24496
1.3131 2.37094 -2.54468
-1.0027 2.47129 -2.93604
-1.81455 0.901152 -1.19547
-0.0724436 1.06076 -1.78572
-3.30823 8.80119 -6.64661
-1.15408 1.44576 -2.08974
-2.68319 1.73839 -0.984057
-0.137831 2.3317 -2.82477
0.842464 0.193756 -0.432694
0.05251 -0.0235184 -0.297458
-0.555471 5.19724 -4.7778
-1.27836 5.71166 -5.0934
-0.695964 6.93422 -5.8386
-3.17583 10.2744 -7.54435
-3.17742 5.67192 -4.69867
0.593975 1.4711 -2.03074
0.515932 3.20556 -3.36246
-0.889903 5.78214 -5.14624
-3.45858 7.88209 -6.03879
0.834356 0.898761 -1.42948
0.491474 0.156937 -0.608544
-3.04242 5.52653 -4.64953
-1.89955 0.821104 -0.745169
1.8933 3.11126 -2.88391
0.822387 0.165699 -0.367567
0.638771 3.9132 -3.82122
0.314741 0.0778446 0.12532
0.403165 0.359423 0.365293
-1.44202 4.72645 -4.45874
-3.3265 2.79013 -2.01852
-2.57518 1.78476 -0.670657
-3.98667 3.97371 -2.45295
0.524826 2.69214 -2.99644
-3.03444 3.3584 -3.00747
0.23043 0.447256 -1.11254
1.60136 0.79924 -0.849354
1.35686 0.706338 0.290428
1.53332 0.650185 -0.66138
0.316297 5.29511 -4.76301
2.11629 6.34013 -4.98728
-3.16248 10.7783 -7.83571
1.95642 4.69479 -3.97904
-4.18773 4.70966 -3.14797
0.71039 5.90154 -5.07596
-1.5733 0.555322 -0.49342
0.275251 0.70459 -1.38955
-3.26906 3.68403 -3.13241
-0.724094 0.280642 -0.89118
1.4251 4.85292 -4.25359
-3.20052 2.47071 -1.49498
0.409314 1.14867 -1.79031
-1.33194 1.16776 -1.78778
-1.5859 1.71853 -2.23437
2.00304 5.953 -4.78142
1.92583 1.47707 -1.44163
1.73284 1.14253 -1.20416
-1.68909 2.10641 -2.54073
0.331757 2.03094 -2.53742
0.653643 2.69458 -2.97204
1.33737 4.06253 -3.75517
1.09999 1.8918 -2.23481
0.0496374 0.806691 -1.53062
-0.392851 0.147051 0.123077
0.996193 0.216719 -0.0969636
-2.1696 3.92249 -3.80162
-1.89022 1.9062 -2.3027
-2.6865 6.74047 -5.54117
-3.82324 3.63241 -1.79152
-2.21818 3.17574 -3.23949
0.196522 0.109772 0.180987
0.841991 2.49272 -2.77938
-0.471483 3.79569 -3.87093
-2.12907 2.36899 -2.61891
-2.50333 6.62316 -5.50747
-2.64834 2.64368 -2.60564
-1.06654 0.273395 -0.192027
2.06314 4.26116 -3.64286
-3.46094 2.94224 -1.92401
-3.03742 2.23106 -1.54997
-2.38263 1.37657 -1.24503
0.607646 0.07956 -0.0141588
-0.0888133 5.83148 -5.14008
-2.60902 1.87644 -0.656182
0.487487 4.47074 -4.21398
1.07947 0.848508 -1.27214
1.70016 0.889591 -0.889548
1.28134 0.579312 0.240097
