ply
format ascii 1.0
comment Created by Open3D
element vertex 400
property double x
property double y
property double z
end_header
0.68907 -0.318396 -1.73596
-0.35729 -0.48994 -3.53669
0.25236 -0.628872 -1.58663
-0.93586 -0.050742 -2.13017
0.93152 -0.0878227 -2.48644
0.71792 -0.321055 -2.01303
-0.62584 -0.318127 -1.38452
0.34287 -0.622417 -2.0729
-0.26294 -0.516923 -3.57588
-0.87191 0.00133643 -4.22019
0.66387 -0.27621 -1.39065
-0.16386 -0.679162 -1.83084
-0.78256 -0.272455 -2.69152
-0.30296 -0.564568 -3.20109
-0.3378 -0.607214 -2.68742
0.88786 0.0243669 -1.44948
0.59245 -0.373381 -1.47133
-0.93107 -0.0404394 -3.56732
-0.11773 -0.52531 -0.908151
-0.93823 -0.0833962 -2.86463
0.19961 -0.678914 -2.13782
0.07809 -0.69708 -2.38568
-0.37618 -0.583752 -2.75794
-0.15297 -0.671709 -1.69495
-0.11665 -0.552611 -0.995557
0.39179 -0.598262 -2.28883
-0.95157 -0.0284964 -2.14132
0.49035 -0.441751 -3.42522
-0.58936 -0.460327 -2.25324
0.64762 -0.335239 -3.41619
0.93774 -0.0388484 -2.06455
-0.4384 -0.565622 -2.51408
-0.73825 -0.247926 -1.66678
-0.39004 -0.550207 -3.02526
-0.61726 -0.395181 -1.73979
-0.38995 -0.579524 -1.77247
-0.09715 -0.526908 -3.70265
0.62619 -0.3701 -3.28047
0.26949 -0.567588 -1.26209
-0.63615 -0.335303 -1.50876
-0.62681 -0.429263 -2.38132
0.81985 -0.22271 -2.92659
-0.74257 -0.262457 -3.3529
-0.21791 -0.662481 -2.51957
-0.26327 -0.576016 -3.21606
-0.59836 -0.304897 -1.225
0.61726 -0.411678 -2.95924
-0.42326 -0.579106 -2.12716
0.77655 -0.153315 -3.87562
-0.32662 -0.629297 -2.03529
-0.97534 0.0799172 -4.0458
-0.57587 -0.398653 -1.51503
-0.85423 -0.188684 -2.80598
-0.73599 -0.152537 -4.06903
-0.90598 -0.0804688 -3.4713
0.28295 -0.648502 -2.32993
0.75985 -0.292021 -2.2585
0.98728 0.0202445 -2.19197
-0.15947 -0.636629 -1.42115
-0.38912 -0.544338 -1.49023
-0.99889 0.0179464 -3.31627
0.78199 -0.272943 -2.6963
-0.59538 -0.415871 -1.73499
0.93567 -0.0282206 -1.97745
0.82088 -0.218164 -2.98578
-0.81658 -0.194985 -3.31132
0.72952 -0.270164 -3.38637
0.28953 -0.636318 -1.83116
-0.54171 -0.487621 -2.709
0.59615 -0.415432 -3.08885
0.53374 -0.470643 -2.98736
-0.58569 -0.340062 -1.30161
0.50041 -0.49407 -1.69645
-0.93353 0.0493136 -4.13714
-0.3945 -0.529361 -3.17424
0.79613 -0.253717 -2.3319
0.47202 -0.452301 -1.32713
0.58799 -0.298887 -1.16844
0.13716 -0.665564 -2.72808
0.73005 -0.312676 -2.96151
0.35821 -0.545667 -3.17717
0.64185 -0.30675 -3.6324
0.15435 -0.603897 -3.21301
0.35292 -0.607143 -2.58805
-0.3922 -0.492153 -3.43235
-0.0921 -0.610594 -1.20586
0.38008 -0.577975 -1.69798
0.04327 -0.650411 -2.96955
0.23766 -0.608126 -1.40301
0.78617 -0.242523 -2.02771
0.17676 -0.533455 -3.60445
-0.25995 -0.642576 -2.62108
-0.70487 -0.296455 -1.71268
-0.5648 -0.456381 -2.90556
0.35478 -0.538405 -3.23957
0.29791 -0.581716 -1.40489
-0.17625 -0.615247 -3.10247
0.78089 -0.200147 -1.70241
0.96633 -0.0235537 -3.31794
-0.12694 -0.635456 -3.01865
0.2424 -0.603353 -3.06399
0.1214 -0.645391 -2.94487
-0.77345 -0.269896 -2.15779
0.54671 -0.461543 -1.74463
0.42673 -0.446269 -1.15978
0.30213 -0.615155 -2.77009
-0.31407 -0.556776 -3.2265
0.66955 -0.3884 -2.57912
0.49016 -0.527381 -2.63479
-0.8006 -0.245557 -2.27599
-0.10803 -0.594627 -1.1479
-0.35213 -0.55802 -3.1039
-0.86762 -0.148952 -3.22051
-0.66827 -0.363106 -1.90036
0.67511 -0.366995 -2.9106
0.70214 -0.345202 -2.09536
-0.42219 -0.557115 -2.79188
-0.8223 -0.21286 -3.0426
-0.9691 0.0239356 -1.98197
0.93436 -0.0816001 -3.05119
-0.44595 -0.520756 -1.5884
0.76355 -0.121976 -1.30792
-0.55481 -0.486228 -2.53292
0.85046 -0.0288005 -4.17365
0.42772 -0.425876 -3.71334
-0.84741 -0.04826 -1.47278
-0.34262 -0.6177 -1.94163
0.9176 0.0146513 -1.64735
0.22104 -0.519674 -3.62393
0.86108 -0.00864084 -1.41602
0.38086 -0.441093 -3.74716
0.65465 -0.286965 -3.69248
0.41843 -0.55679 -1.72395
-0.47735 -0.449161 -1.33262
0.32262 -0.53832 -1.25236
-0.10708 -0.697221 -1.98947
-0.02543 -0.643305 -1.33855
-0.38997 -0.559505 -2.94224
0.08175 -0.562659 -1.00849
-0.95267 -0.0393505 -3.33146
-0.99454 -0.00362746 -2.61019
0.18381 -0.517058 -0.940289
-0.67063 -0.223276 -1.2355
0.70556 -0.336986 -2.9441
-0.15879 -0.586552 -3.31993
-0.97667 -0.0316501 -2.90085
-0.69328 -0.320814 -3.23237
-0.92495 -0.0451912 -1.9804
-0.25303 -0.595016 -3.10284
0.77223 -0.258405 -3.12297
0.9833 0.151109 -1.57433
0.17747 -0.570593 -1.12095
-0.06262 -0.544684 -0.939787
0.44979 -0.563981 -2.29304
-0.54611 -0.430225 -1.53412
-0.95544 0.0333684 -3.89844
-0.94081 -0.0320319 -2.05038
0.61738 -0.263192 -1.16058
-0.94144 -0.00946816 -1.92324
0.35698 -0.471357 -1.07344
0.05213 -0.63803 -1.31875
-0.84228 -0.19526 -2.29346
-0.94229 -0.0158463 -1.96557
0.72128 -0.320892 -2.96315
-0.16071 -0.688708 -2.10063
0.87653 -0.119727 -2.0023
-0.84061 -0.120993 -1.71843
0.82976 -0.0486348 -4.17327
0.31781 -0.605517 -1.63866
-0.88342 -0.139031 -2.2609
0.37455 -0.499507 -1.22151
0.83117 -0.184767 -2.02497
-0.1611 -0.634614 -1.41119
0.20988 -0.594776 -1.2753
0.60163 -0.449366 -2.52146
0.45339 -0.557306 -2.04694
0.35442 -0.613535 -2.4466
0.11343 -0.61041 -3.21355
-0.2412 -0.635498 -1.60583
-0.46846 -0.54776 -2.49778
0.2319 -0.667551 -2.02938
-0.47538 -0.546693 -2.1983
-0.41207 -0.57538 -1.88979
-0.05212 -0.659766 -2.8855
0.52294 -0.500207 -2.71952
-0.20098 -0.628618 -2.95136
-0.81179 -0.0852771 -4.07101
-0.94998 0.00715592 -3.76369
-0.13543 -0.561733 -1.04278
-0.96357 0.0336371 -3.83823
0.52212 -0.456452 -1.56266
0.11715 -0.546035 -0.973764
-0.6839 -0.216566 -1.26721
0.74028 -0.301326 -2.98186
0.56211 -0.408715 -3.34069
0.45115 -0.524397 -2.96649
0.90698 -0.125363 -2.73034
0.1062 -0.69865 -2.05613
-0.7557 -0.236909 -3.45812
-0.03713 -0.558466 -0.977441
0.19107 -0.563387 -1.11007
0.24938 -0.653911 -2.49752
0.50946 -0.48137 -3.03807
-0.61293 -0.441284 -2.34179
0.49347 -0.505772 -2.89683
0.99127 -0.000876812 -3.18693
0.71411 -0.255831 -3.58551
-0.58754 -0.454401 -2.06205
-0.038 -0.681792 -1.62239
0.88769 -0.148174 -2.53996
-0.74314 -0.281231 -1.91456
0.6574 -0.306015 -3.56185
-0.40066 -0.533335 -3.12078
-0.94039 -0.0591283 -3.27559
-0.44722 -0.444905 -1.21459
0.92893 -0.077711 -2.28438
-0.59117 -0.454861 -2.61422
0.84635 -0.0531532 -4.06685
-0.0308 -0.555503 -3.5797
0.18598 -0.589409 -1.21197
0.24826 -0.565777 -3.3143
-0.0942 -0.683277 -2.59077
-0.98572 0.021892 -2.16151
0.57163 -0.473337 -2.5304
-0.30353 -0.633872 -2.49707
-0.19913 -0.664405 -1.75676
0.89733 -0.123447 -2.30282
0.92155 -0.104715 -2.57785
-0.46337 -0.535202 -2.76991
-0.51582 -0.513084 -2.05745
0.35745 -0.602356 -2.62977
0.41382 -0.57736 -2.56399
-0.95049 -0.0408849 -2.23075
0.85121 -0.153089 -1.98865
0.39817 -0.588263 -2.51632
0.93855 -0.0777322 -3.02204
0.82326 -0.114212 -3.84813
0.34976 -0.516131 -1.22512
-0.5016 -0.470792 -1.54475
-0.27322 -0.638213 -1.76331
0.22629 -0.667523 -2.35639
-0.53047 -0.455794 -3.14214
0.74772 -0.136358 -4.10081
0.51819 -0.514003 -2.12338
-0.22009 -0.525967 -3.59157
0.31982 -0.634749 -2.2124
-0.0803 -0.695623 -1.85293
-0.54639 -0.494169 -2.47848
0.65428 -0.27795 -1.35434
0.37197 -0.580315 -2.82047
0.22399 -0.523202 -1.00937
0.95729 0.0225355 -3.81205
-0.41242 -0.555779 -1.67994
-0.15845 -0.682556 -2.42325
0.58473 -0.379872 -3.43194
-0.77187 -0.269719 -2.13193
0.82472 -0.201872 -3.15068
-0.9625 -0.0515269 -2.70141
-0.89295 -0.0892369 -3.52118
0.28673 -0.613493 -1.58137
0.87038 -0.0717572 -1.69478
0.14338 -0.606846 -3.2064
0.76458 -0.152848 -1.41301
-0.30042 -0.639458 -1.9806
-0.64314 -0.351192 -3.32439
0.58484 -0.353249 -3.60088
0.54716 -0.49535 -2.35834
0.30852 -0.513593 -3.50979
0.5164 -0.505299 -2.71016
0.93033 -0.0852134 -3.07752
-0.71022 -0.232935 -1.44255
-0.02082 -0.645836 -1.35211
-0.28434 -0.648318 -2.31549
0.61801 -0.278508 -3.88917
-0.89127 -0.143592 -2.54131
0.82539 -0.0976514 -3.93283
-0.14929 -0.516075 -0.904163
0.90142 -0.0402627 -3.80992
-0.61567 -0.338485 -3.55671
-0.42874 -0.500299 -1.39579
0.07492 -0.693827 -2.45922
0.73428 -0.283062 -1.84954
0.66247 -0.338011 -3.30584
0.40683 -0.58902 -2.13037
-0.38166 -0.512094 -3.33662
0.55106 -0.359592 -1.24314
0.18308 -0.582218 -1.17624
-0.09227 -0.632083 -1.3128
0.47241 -0.488024 -3.17301
-0.46425 -0.39895 -3.75694
0.64097 -0.299262 -3.68133
-0.51375 -0.356431 -3.83429
0.84337 -0.204121 -2.60557
-0.00608 -0.702291 -1.89348
-0.25878 -0.522156 -3.55398
0.82721 -0.165102 -1.85222
-0.34156 -0.564872 -3.08571
0.42426 -0.429249 -3.70444
-0.52429 -0.43456 -1.45343
0.64277 -0.261736 -1.25006
-0.22928 -0.610728 -3.03619
0.16589 -0.634169 -1.41644
-0.70299 -0.342487 -2.90033
0.34733 -0.460885 -1.01825
-0.55953 -0.442635 -3.08402
-0.05172 -0.701167 -2.34129
0.82018 -0.0680661 -1.40078
-0.00164 -0.657022 -1.41868
-0.5483 -0.488681 -2.59693
0.45373 -0.495427 -1.46817
-0.79453 -0.234116 -3.14297
0.91561 -0.114 -2.77332
0.38619 -0.600376 -2.34789
-0.51886 -0.386052 -1.22638
0.59772 -0.446163 -2.07554
0.32005 -0.628413 -1.93382
0.96343 -0.00336583 -3.55744
-0.84103 -0.202834 -2.40994
-0.92743 -0.0968029 -2.57716
0.94637 0.041394 -4.01149
0.98793 0.0848245 -1.84012
0.7142 -0.2378 -1.48207
-0.52544 -0.470254 -3.04449
-0.37552 -0.465877 -1.0972
-0.43756 -0.518967 -1.53683
0.2866 -0.646267 -2.00557
-0.62766 -0.34154 -3.47894
-0.40572 -0.419237 -3.80201
-0.95959 -0.0189717 -3.4566
0.09254 -0.693057 -1.83452
0.47618 -0.545533 -2.16443
0.62631 -0.291363 -3.78826
-0.79846 -0.253851 -2.40808
0.59921 -0.344856 -3.59082
-0.84845 -0.159905 -2.01131
0.37801 -0.486327 -3.50603
-0.00615 -0.705601 -2.25228
-0.13794 -0.629169 -3.05339
-0.11836 -0.649329 -2.91504
-0.96715 0.109969 -4.26547
-0.61067 -0.42181 -1.91217
-0.68014 -0.295316 -1.55423
0.62204 -0.376414 -1.64837
0.81129 -0.233338 -2.28762
0.56206 -0.465241 -1.9059
-0.51195 -0.496368 -1.79589
-0.54317 -0.498213 -2.27486
0.30429 -0.62888 -2.57941
-0.02831 -0.681319 -2.68127
0.45433 -0.561011 -2.30653
0.20736 -0.672055 -2.38574
-0.78375 -0.162847 -3.78072
0.4748 -0.545123 -2.45401
0.31195 -0.503191 -1.08889
0.70732 -0.353108 -2.52743
0.31556 -0.539869 -1.24191
-0.88832 -0.0786868 -1.85702
0.93578 -0.0470155 -2.10125
-0.70065 -0.342678 -2.92823
-0.19814 -0.590823 -1.23684
-0.4149 -0.506974 -1.37963
-0.62205 -0.371924 -1.62189
0.28446 -0.645588 -1.96235
-0.88445 -0.153965 -2.67853
-0.89372 -0.091832 -1.98081
0.10326 -0.679176 -1.66889
-0.88693 -0.150515 -2.61508
0.86781 -0.126395 -1.96359
-0.79047 -0.265229 -2.53992
0.075 -0.682542 -2.6285
-0.19434 -0.509902 -0.929654
0.80308 -0.176296 -1.73233
0.23954 -0.628363 -2.85725
0.93809 -0.0848457 -2.74304
0.9515 0.104624 -1.53991
-0.35536 -0.454606 -3.73265
0.02996 -0.68863 -2.58911
0.79702 -0.24835 -2.90916
-0.45225 -0.56005 -2.10241
0.69135 -0.335246 -1.87408
-0.31006 -0.596254 -2.9286
0.62939 -0.364832 -1.62491
0.23054 -0.546106 -1.10066
-0.26247 -0.530712 -3.49958
0.32518 -0.631319 -2.08973
-0.81177 -0.229718 -2.95827
-0.25083 -0.601635 -3.05739
0.61053 -0.339022 -1.40202
-0.66183 -0.375 -2.95663
0.33828 -0.58349 -1.54988
0.83793 -0.203986 -2.35025
-0.69758 -0.285926 -3.47642
-0.6359 -0.414831 -2.14584
-0.02525 -0.58139 -3.43752
0.4513 -0.395407 -1.05568
-0.50874 -0.514491 -1.98427
0.43907 -0.553226 -1.82944
0.25569 -0.607002 -3.00214
-0.76184 -0.249078 -3.31335
-0.77866 -0.263786 -2.15827
