ply
format ascii 1.0
comment Created by Open3D
element vertex 400
property double x
property double y
property double z
end_header
1.19603 -1.45265 -0.221537
1.27073 -2.84726 -1.77602
0.657326 -1.5666 -0.300436
0.377963 -1.54214 -1.70147
1.85799 -1.82028 -0.540626
1.35364 -1.65045 -0.338344
0.0906582 -1.20395 -0.97573
0.96769 -1.90588 -0.482798
1.34355 -2.89405 -1.71541
1.49423 -2.98318 -2.7273
1.02665 -1.17865 -0.0877944
0.459973 -1.77484 -0.691706
0.656181 -2.09585 -1.76289
1.10403 -2.66272 -1.53248
0.801244 -2.32966 -1.27897
1.36474 -1.00771 -0.109114
0.967902 -1.30441 -0.130051
1.10507 -2.55107 -2.42181
0.108173 -1.01361 -0.274669
0.727189 -2.08457 -2.05405
0.870597 -1.99173 -0.588306
0.899518 -2.17984 -0.789082
0.821092 -2.36293 -1.35309
0.403454 -1.67348 -0.619786
0.138989 -1.09472 -0.303957
1.12232 -2.04148 -0.568245
0.383549 -1.53429 -1.72927
1.83846 -2.73436 -1.145
0.479715 -1.91878 -1.3132
1.99841 -2.65266 -1.08254
1.67593 -1.48733 -0.34977
0.664235 -2.17768 -1.28423
0.187405 -1.3539 -1.23145
0.961729 -2.52824 -1.51333
0.235834 -1.50965 -1.10877
0.320737 -1.66311 -0.872209
1.51918 -2.99075 -1.65657
1.89797 -2.58134 -1.0124
0.537811 -1.29378 -0.156695
0.136903 -1.30395 -1.03655
0.532805 -1.98738 -1.41925
1.93166 -2.22689 -0.772217
1.02014 -2.55644 -2.0703
0.774459 -2.25005 -1.08263
1.13386 -2.6814 -1.50618
0.0369463 -1.0818 -0.883155
1.71025 -2.3836 -0.837313
0.474737 -1.91362 -1.07332
2.41026 -2.84889 -1.31205
0.472043 -1.88415 -0.933954
1.37319 -2.8043 -2.75253
0.150989 -1.35318 -0.965392
0.704618 -2.11755 -1.91268
1.43782 -2.9851 -2.47867
1.05479 -2.51148 -2.33604
1.04079 -2.10607 -0.640639
1.52053 -1.80349 -0.445944
1.80422 -1.53564 -0.407994
0.279498 -1.45507 -0.505023
0.197799 -1.43866 -0.748098
0.960788 -2.33227 -2.37343
1.76463 -2.09957 -0.658727
0.238564 -1.52089 -1.08056
1.63623 -1.41822 -0.312994
1.96426 -2.26553 -0.803358
0.980757 -2.47933 -2.13558
2.07395 -2.58556 -1.04225
0.802149 -1.74477 -0.392692
0.727641 -2.26035 -1.49373
1.75825 -2.4779 -0.915166
1.63577 -2.44518 -0.880949
0.0666307 -1.16084 -0.894921
0.955033 -1.54893 -0.247346
1.43312 -2.89053 -2.75333
1.04348 -2.61884 -1.60139
1.60204 -1.82831 -0.476144
0.771185 -1.25825 -0.103648
0.85055 -1.03756 -0.019007
1.12825 -2.39967 -0.934272
1.84064 -2.3152 -0.808195
1.56904 -2.63244 -1.06246
2.11668 -2.7854 -1.20897
1.4137 -2.69896 -1.19541
1.24 -2.25934 -0.740899
1.19277 -2.77504 -1.74742
0.232511 -1.28443 -0.36276
0.828757 -1.60934 -0.291243
1.19017 -2.5597 -1.12897
0.565495 -1.42209 -0.229393
1.4485 -1.6053 -0.336689
1.66048 -2.92594 -1.41051
0.805437 -2.30775 -1.17306
0.209693 -1.42067 -1.20653
0.825215 -2.37725 -1.62396
1.60145 -2.67143 -1.09971
0.62224 -1.40474 -0.200931
1.11898 -2.62882 -1.36824
1.3033 -1.34531 -0.198959
2.33049 -2.36279 -0.963893
1.10183 -2.58384 -1.28136
1.40172 -2.5932 -1.05891
1.23558 -2.5387 -1.0639
0.397033 -1.71663 -1.49086
1.02813 -1.56 -0.254961
0.6585 -1.13565 -0.0550129
1.29111 -2.39373 -0.86383
1.11278 -2.67518 -1.55694
1.5688 -2.09835 -0.621915
1.4003 -2.23599 -0.707107
0.449105 -1.783 -1.58132
0.200246 -1.23215 -0.353023
1.02395 -2.58937 -1.52193
0.922279 -2.38257 -2.14928
0.296087 -1.60051 -1.24116
1.74918 -2.31761 -0.794427
1.37157 -1.72574 -0.378592
0.818851 -2.3681 -1.41592
0.833417 -2.30196 -1.99633
0.317696 -1.38454 -1.68821
2.14549 -2.21522 -0.824105
0.218489 -1.4914 -0.849157
1.13288 -1.01109 -0.0530613
0.631036 -2.13486 -1.41566
2.67379 -2.97158 -1.47106
1.94618 -2.92687 -1.34129
0.113052 -1.07554 -1.31147
0.419696 -1.80972 -0.904234
1.47984 -1.15449 -0.182158
1.70843 -2.92997 -1.39583
1.31257 -1.00739 -0.0948159
1.92234 -2.96154 -1.38372
2.16566 -2.81389 -1.23985
0.879457 -1.61273 -0.287708
0.104192 -1.25991 -0.779267
0.585145 -1.2662 -0.128891
0.570409 -1.89978 -0.721843
0.329639 -1.40138 -0.365602
0.915618 -2.47611 -1.46712
0.280721 -1.11097 -0.165109
0.972413 -2.38352 -2.31969
0.600037 -1.84825 -2.00653
0.341589 -1.0305 -0.0816425
0.0319047 -1.03151 -0.980319
1.80246 -2.32008 -0.804652
1.25441 -2.7623 -1.47897
0.743989 -2.07359 -2.12521
0.965554 -2.51248 -1.946
0.313567 -1.43231 -1.62164
1.07499 -2.61478 -1.43283
1.97833 -2.39099 -0.886231
1.55802 -1.00637 -0.167422
0.400668 -1.1961 -0.149687
0.153272 -1.04968 -0.241831
1.18258 -2.02022 -0.54648
0.165788 -1.389 -0.938104
1.29031 -2.73302 -2.6415
0.343923 -1.47249 -1.67443
0.885248 -1.00676 -0.012141
0.291187 -1.36663 -1.62258
0.553467 -1.09234 -0.0486207
0.37722 -1.38365 -0.303497
0.453517 -1.75979 -1.64468
0.30856 -1.40107 -1.64116
1.83115 -2.32217 -0.811108
0.592322 -1.97236 -0.8196
1.56109 -1.5005 -0.321486
0.204319 -1.30067 -1.39312
2.64905 -2.98534 -1.47559
0.741295 -1.58687 -0.291844
0.436264 -1.69701 -1.68561
0.625846 -1.21694 -0.0961524
1.50783 -1.56252 -0.332376
0.274372 -1.4466 -0.502201
0.488667 -1.32234 -0.191852
1.46146 -2.10069 -0.610629
1.06541 -1.84148 -0.424222
1.16714 -2.16384 -0.665918
1.38178 -2.70395 -1.22136
0.314613 -1.58486 -0.655721
0.643757 -2.15352 -1.30626
0.844894 -1.90702 -0.516937
0.489657 -1.941 -1.16195
0.365829 -1.74314 -0.948584
1.07601 -2.50688 -1.14972
1.47943 -2.27669 -0.739881
1.01926 -2.53143 -1.30349
1.41885 -2.93894 -2.56689
1.21369 -2.65627 -2.55716
0.144759 -1.13456 -0.336286
1.25458 -2.69025 -2.61728
0.922301 -1.42773 -0.183911
0.296702 -1.07466 -0.131027
0.0417334 -1.04919 -1.00891
1.86372 -2.32156 -0.816807
1.86346 -2.65123 -1.06852
1.54006 -2.46843 -0.902035
1.94382 -2.01929 -0.661159
0.753832 -1.94792 -0.603643
1.07624 -2.61278 -2.14497
0.183233 -1.08605 -0.235742
0.408446 -1.18331 -0.138232
1.09814 -2.2284 -0.745467
1.63859 -2.48862 -0.918107
0.516846 -1.96793 -1.38366
1.54446 -2.406 -0.846591
2.29396 -2.25412 -0.892093
2.16979 -2.71624 -1.15989
0.388371 -1.7794 -1.21928
0.443427 -1.6293 -0.497167
1.82359 -1.9008 -0.568203
0.291187 -1.55266 -1.34215
2.09277 -2.73499 -1.16306
1.01041 -2.58385 -1.57703
0.943273 -2.358 -2.27319
0.0686106 -1.17344 -0.701075
1.76019 -1.67025 -0.446481
0.661661 -2.17017 -1.4977
2.60531 -2.91328 -1.40839
1.49032 -2.92403 -1.53388
0.44279 -1.27377 -0.179775
1.54981 -2.74363 -1.19872
0.887136 -2.3151 -1.02036
0.394693 -1.51294 -1.78871
1.43273 -2.12396 -0.624326
0.716971 -2.21391 -1.14623
0.40537 -1.71202 -0.686983
1.7242 -1.71563 -0.455179
1.8882 -1.89686 -0.584933
0.789704 -2.33707 -1.44501
0.407442 -1.81764 -1.13692
1.26646 -2.28546 -0.760953
1.28593 -2.22127 -0.7007
0.422836 -1.60629 -1.76703
1.51968 -1.51444 -0.315886
1.24558 -2.19527 -0.682478
2.13581 -2.19187 -0.808499
2.44909 -2.8018 -1.28483
0.601812 -1.23125 -0.107176
0.182292 -1.4252 -0.891662
0.36935 -1.69813 -0.755742
1.00445 -2.13823 -0.684423
0.968072 -2.54412 -1.71827
2.51094 -2.99613 -1.45351
1.1711 -1.86491 -0.438272
1.37718 -2.91154 -1.68843
1.01497 -2.01324 -0.56268
0.521873 -1.8021 -0.635434
0.6058 -2.10198 -1.37851
1.00084 -1.1542 -0.0755473
1.3831 -2.40472 -0.857056
0.401467 -1.08369 -0.0846973
2.5942 -2.67959 -1.24039
0.270454 -1.58089 -0.853704
0.758308 -2.19614 -0.982391
1.9395 -2.69536 -1.11257
0.38531 -1.69822 -1.4769
2.05757 -2.37061 -0.891237
0.644351 -1.94662 -2.00553
1.08456 -2.55295 -2.34738
0.686686 -1.552 -0.281188
1.42696 -1.24913 -0.196059
1.40116 -2.69637 -1.19839
1.17072 -1.10723 -0.0894419
0.458142 -1.85266 -0.883
1.03183 -2.59903 -1.94137
2.03736 -2.79599 -1.21027
1.31839 -2.01786 -0.544592
1.71625 -2.84496 -1.27994
1.46758 -2.27367 -0.737279
2.154 -2.23639 -0.83831
0.102608 -1.18475 -1.10701
0.338414 -1.41276 -0.367858
0.632528 -2.09573 -1.03465
2.24233 -2.94699 -1.36833
0.568634 -1.89851 -1.82908
2.50123 -2.84998 -1.33395
0.0884803 -1.00426 -0.299608
2.52223 -2.72249 -1.24743
1.17377 -2.75432 -2.04446
0.144582 -1.34074 -0.750912
0.935672 -2.22954 -0.829719
1.30246 -1.50798 -0.264027
1.95235 -2.57659 -1.01548
1.05835 -1.9229 -0.483003
1.14239 -2.72145 -1.68214
0.83143 -1.1333 -0.0521138
0.42647 -1.24342 -0.167556
0.275114 -1.37524 -0.405604
1.67654 -2.58874 -1.00845
1.35072 -2.93866 -2.00727
2.14427 -2.8147 -1.2378
1.37566 -2.96329 -2.10221
1.79708 -1.98675 -0.604371
0.591297 -1.83549 -0.599895
1.33292 -2.88226 -1.69889
1.42848 -1.42646 -0.258631
1.0189 -2.58135 -1.50194
1.93759 -2.92296 -1.3376
0.138706 -1.33501 -0.880164
0.948669 -1.069 -0.0396545
1.05061 -2.57876 -1.37486
0.508438 -1.45 -0.273834
0.781834 -2.29302 -1.77601
0.524284 -1.04591 -0.0330855
0.925044 -2.49372 -1.71634
0.783488 -2.15134 -0.856632
1.24631 -1.03863 -0.0864014
0.379667 -1.46774 -0.381986
0.66642 -2.18186 -1.44183
0.807205 -1.38847 -0.165534
0.892609 -2.38796 -2.01624
1.97709 -2.04164 -0.682224
1.14684 -2.08474 -0.60068
0.0532734 -1.14016 -0.787052
1.23734 -1.78311 -0.392034
0.879012 -1.81177 -0.426392
2.45829 -2.51787 -1.09579
0.508855 -1.84751 -1.69825
0.584388 -1.89078 -1.89597
2.69563 -2.80728 -1.35726
1.66104 -1.24118 -0.263899
1.12715 -1.21613 -0.117118
0.915576 -2.4853 -1.65866
0.0501268 -1.10526 -0.581192
0.199531 -1.45367 -0.818335
0.882307 -1.87513 -0.476993
1.12488 -2.70149 -2.01252
1.4045 -2.98487 -1.97827
1.04028 -2.4576 -2.39735
0.63617 -1.78727 -0.505299
1.14616 -1.91623 -0.472736
2.19132 -2.88473 -1.30558
0.512518 -1.88227 -1.64171
2.04669 -2.78294 -1.19927
0.325757 -1.53528 -1.52565
1.77714 -2.82302 -1.24256
0.768993 -2.09154 -0.77769
1.11457 -2.60396 -1.30965
1.04916 -2.52039 -1.21655
1.50384 -2.93838 -2.8716
0.313369 -1.65037 -1.17699
0.148528 -1.30783 -1.11039
1.07583 -1.43174 -0.19613
1.60081 -1.78259 -0.453475
1.11777 -1.67665 -0.322893
0.287757 -1.62087 -1.01176
0.504245 -1.96086 -1.2724
1.19043 -2.2686 -0.760097
0.979958 -2.37771 -1.01999
1.19402 -2.02766 -0.551501
1.00347 -2.16219 -0.710218
1.25474 -2.78852 -2.36313
1.29018 -2.12071 -0.618711
0.51343 -1.12577 -0.0722663
1.58731 -2.03685 -0.587012
0.574157 -1.25991 -0.127887
0.261028 -1.36875 -1.5173
1.68881 -1.51905 -0.365419
0.797341 -2.31288 -1.78821
0.1829 -1.29235 -0.463113
0.142949 -1.33403 -0.729706
0.185128 -1.40984 -1.06484
0.859524 -1.84409 -0.457236
0.636884 -2.00288 -1.88769
0.312534 -1.46558 -1.57645
0.56787 -1.66033 -0.421839
0.605128 -1.95557 -1.85944
1.53223 -1.47784 -0.304961
0.578399 -1.98354 -1.69629
1.02601 -2.34126 -0.919946
0.0724572 -1.01792 -0.347295
1.34588 -1.3496 -0.210152
1.28382 -2.4647 -0.945062
1.99243 -1.99962 -0.665769
1.49508 -1.0149 -0.149454
1.38775 -2.96084 -1.8903
0.971423 -2.31771 -0.929053
1.89399 -2.2327 -0.766829
0.451389 -1.88264 -1.09097
1.25828 -1.56223 -0.280559
0.946929 -2.49245 -1.38542
1.07509 -1.40696 -0.184993
0.440294 -1.16444 -0.114261
1.29884 -2.84985 -1.67003
0.959141 -1.92407 -0.499267
0.79027 -2.25425 -1.93829
1.05051 -2.58732 -1.40524
0.963207 -1.2311 -0.0997869
0.822832 -2.35582 -1.7588
0.722394 -1.50852 -0.243994
1.66564 -1.80612 -0.480628
1.10198 -2.66038 -2.08851
0.415857 -1.81067 -1.31515
1.41021 -2.8418 -1.44592
0.649251 -1.02607 -0.0110167
0.375156 -1.76689 -1.09462
0.948577 -1.6848 -0.327638
1.37837 -2.55205 -1.01677
0.993436 -2.51902 -2.07084
0.396644 -1.71265 -1.49784
