ply
format ascii 1.0
comment Created by Open3D
element vertex 400
property double x
property double y
property double z
end_header
1.77964 0.362077 0.539933
2.76836 -0.278392 2.26596
1.38836 0.430599 0.929308
1.34286 -0.736576 1.75221
2.57521 0.17659 0.628448
2.03017 0.338195 0.659398
0.822249 -0.244139 1.29386
1.84962 0.399131 1.10521
2.84503 -0.213924 2.23233
3.1664 -1.05513 2.72596
1.47848 0.364039 0.364004
1.38133 0.229651 1.37087
1.86618 -0.552889 2.03534
2.49814 -0.138379 2.09705
2.03603 -0.0441746 1.88618
1.68471 0.21086 0.0847467
1.49741 0.399454 0.503432
2.57344 -0.953439 2.46224
0.639361 0.256519 0.799978
1.96379 -0.817447 2.13744
1.82512 0.366219 1.26722
1.97326 0.284665 1.48616
2.08047 -0.0937168 1.93684
1.27188 0.248635 1.2915
0.710508 0.267562 0.856568
2.06192 0.371352 1.16651
1.34777 -0.76505 1.75777
3.10409 0.120621 1.58675
1.56117 -0.231746 1.77352
3.19061 0.109665 1.41778
2.22539 0.199682 0.388619
1.84387 -0.104591 1.84985
1.01725 -0.401601 1.47937
2.30663 -0.168429 2.06354
1.1185 -0.226108 1.50395
1.23305 0.0401071 1.45173
3.03467 -0.141072 2.18348
3.05895 0.148582 1.3825
1.12889 0.434382 0.724282
0.920629 -0.252829 1.37186
1.65631 -0.295742 1.84851
2.87531 0.171431 0.994928
2.45215 -0.638284 2.33275
1.94461 0.0875257 1.74511
2.52908 -0.110955 2.0822
0.701771 -0.218331 1.18805
2.77421 0.226648 1.24899
1.51921 -0.0288474 1.65242
3.67387 -0.0484345 1.46537
1.48176 0.0757665 1.56325
2.97734 -1.14838 2.67261
0.946845 -0.169535 1.36404
1.94031 -0.67699 2.10137
3.0828 -0.833692 2.63121
2.49817 -0.892666 2.41651
2.03522 0.353795 1.28914
2.26491 0.298431 0.737965
2.36757 0.155354 0.387749
1.04006 0.25554 1.14165
0.997718 0.0518216 1.29244
2.3338 -1.00042 2.35549
2.65246 0.229103 0.93167
1.12232 -0.196806 1.49643
2.15156 0.202333 0.341214
2.92701 0.159397 1.02152
2.38954 -0.726791 2.33056
3.21564 0.0994373 1.31242
1.61457 0.41973 1.02901
1.97001 -0.251368 1.98136
2.87373 0.200317 1.3306
2.74782 0.2311 1.35159
0.768351 -0.193201 1.23498
1.62586 0.423481 0.741416
3.07173 -1.11473 2.70402
2.43461 -0.210268 2.13075
2.35131 0.273127 0.729861
1.30255 0.427719 0.555949
1.24755 0.377996 0.317894
2.29967 0.237156 1.59984
2.84704 0.198207 1.12087
2.81107 0.179576 1.60812
3.37645 0.0507998 1.51572
2.73121 0.1221 1.79931
2.29658 0.315678 1.34804
2.66152 -0.278676 2.23958
0.8938 0.29853 0.973354
1.55471 0.43471 0.869218
2.46106 0.141915 1.77938
1.22732 0.432431 0.837518
2.08833 0.30314 0.579212
3.08685 0.0158535 1.94396
2.01315 0.0346505 1.81564
1.06601 -0.350211 1.50298
2.13081 -0.318364 2.08034
2.86369 0.162524 1.63812
1.26291 0.439739 0.782647
2.46989 -0.0173249 1.98348
1.81423 0.311969 0.399105
3.31175 0.0173689 0.987446
2.42005 0.0368549 1.91681
2.64812 0.187484 1.66227
2.47979 0.180309 1.70929
1.41554 -0.472355 1.76075
1.6949 0.411811 0.716504
1.13795 0.424433 0.501282
2.4254 0.270462 1.47898
2.51542 -0.154307 2.11372
2.47931 0.288592 1.01031
2.41678 0.309373 1.23449
1.50641 -0.524014 1.82688
0.838694 0.285426 0.94765
2.39156 -0.154321 2.07995
2.29325 -0.778304 2.29823
1.23475 -0.302505 1.60427
2.76816 0.224558 1.16142
2.08902 0.33886 0.723795
2.09034 -0.144429 1.97303
2.1547 -0.675041 2.20919
1.21067 -0.795233 1.66427
3.05959 0.089993 0.905705
1.05655 -0.0110982 1.36991
1.48029 0.294347 0.175037
1.81337 -0.233321 1.90188
3.98344 -0.161404 1.49986
3.32103 0.0335616 1.76717
0.826327 -0.598197 1.35973
1.39552 0.0715849 1.52193
1.86704 0.205046 0.167507
3.12763 0.0233773 1.9155
1.63793 0.230544 0.103457
3.32423 0.0181682 1.82482
3.43703 0.0315144 1.52681
1.59916 0.431998 0.844498
0.83301 -0.0504496 1.22843
1.15143 0.437392 0.667212
1.54248 0.250224 1.41906
1.0356 0.340354 1.00891
2.23444 -0.148299 2.02662
0.819275 0.373445 0.727768
2.36148 -0.930628 2.35904
1.73014 -0.876428 2.01016
0.818771 0.395539 0.5987
0.686552 -0.325672 1.20359
2.81638 0.209262 1.14164
2.66844 -0.0649339 2.06552
1.98306 -0.886139 2.15686
2.36538 -0.546177 2.26681
1.22128 -0.713925 1.66683
2.43479 -0.0730375 2.02785
3.01389 0.14933 1.14464
1.85755 0.132115 0.016313
0.961963 0.411607 0.72028
0.691081 0.295979 0.786515
2.09953 0.370475 1.11046
0.973391 -0.130501 1.36833
2.8547 -1.07712 2.60814
1.27502 -0.743336 1.70646
1.26076 0.363375 0.275333
1.16948 -0.74429 1.63205
1.0257 0.423616 0.519978
1.05825 0.377531 0.941527
1.50785 -0.590344 1.83994
1.20425 -0.74547 1.65701
2.84286 0.200595 1.132
1.61179 0.199864 1.50831
2.1298 0.247229 0.441213
1.02875 -0.56869 1.51411
3.96987 -0.154769 1.52423
1.46891 0.43577 0.897361
1.46773 -0.654141 1.82464
1.15674 0.434746 0.59566
2.11695 0.276744 0.517143
1.03104 0.254464 1.13682
1.10637 0.42585 0.786628
2.38721 0.315114 1.06
1.89225 0.402618 0.981528
2.17566 0.342599 1.27945
2.71026 0.107119 1.83177
1.157 0.186663 1.29122
1.81754 -0.132478 1.85402
1.75038 0.388544 1.18449
1.55861 -0.0929917 1.70864
1.32274 0.00832874 1.52396
2.34025 0.114514 1.80949
2.50947 0.290159 1.24009
2.3266 0.00385161 1.93211
3.05644 -0.929292 2.65217
2.73857 -1.03228 2.55
0.740087 0.259043 0.898019
2.79927 -1.07259 2.58364
1.52803 0.421819 0.640363
0.809769 0.382041 0.677062
0.707969 -0.342679 1.22548
2.87118 0.190656 1.11813
3.07266 0.140682 1.47723
2.68084 0.238744 1.42643
2.76563 0.160644 0.786522
1.7058 0.348322 1.30229
2.53915 -0.682065 2.38188
0.733947 0.314973 0.794208
0.960529 0.413851 0.70162
2.1607 0.317084 1.39938
2.77739 0.22069 1.39948
1.62775 -0.272753 1.82494
2.64526 0.254208 1.35236
3.21572 0.0296683 0.89297
3.38002 0.0503345 1.41572
1.39975 -0.207895 1.67368
1.26595 0.325353 1.17896
2.59014 0.198351 0.716377
1.22143 -0.411906 1.62338
3.32411 0.0682796 1.46908
2.38532 -0.202128 2.11037
2.31703 -0.899425 2.33231
0.747953 -0.0217329 1.14598
2.40292 0.196256 0.524192
1.86918 -0.290181 1.95256
3.88666 -0.127032 1.46154
2.95871 -0.0654834 2.08938
1.04116 0.418592 0.769184
2.87021 0.121683 1.76449
2.0642 0.156704 1.70363
1.35531 -0.828092 1.76682
2.37632 0.319266 1.09766
1.88679 0.023591 1.7801
1.30262 0.210269 1.35139
2.39617 0.216793 0.578625
2.64577 0.172638 0.689648
2.05421 -0.180506 1.98021
1.42309 -0.121272 1.65001
2.33516 0.307747 1.36331
2.31086 0.32423 1.27806
1.42283 -0.767034 1.80792
2.10061 0.265043 0.468974
2.26075 0.332693 1.27074
3.03736 0.0930561 0.886231
3.67949 -0.0544299 1.39904
1.145 0.436011 0.623308
0.998777 -0.0751769 1.36245
1.275 0.149909 1.39395
2.02669 0.337826 1.35195
2.35 -0.336346 2.17406
3.85415 -0.1103 1.58987
1.99624 0.386862 0.952275
2.87853 -0.187077 2.2144
1.95536 0.377703 1.19743
1.43955 0.282246 1.33106
1.76995 -0.214361 1.87268
1.44243 0.366047 0.353497
2.50842 0.268267 1.43737
0.896922 0.410758 0.6079
3.73573 -0.0988518 1.21785
1.14631 0.0221558 1.40948
1.88919 0.148496 1.66495
3.16608 0.11401 1.49244
1.39428 -0.467929 1.74662
3.07207 0.123263 1.09311
1.817 -0.832881 2.05706
2.54597 -0.885971 2.43662
1.4033 0.435428 0.894681
1.87127 0.248244 0.267817
2.71965 0.1201 1.80524
1.56599 0.305823 0.24229
1.44669 0.105549 1.52246
2.46455 -0.508655 2.29256
3.31423 0.0666008 1.56352
2.214 0.351017 1.03994
3.07484 0.0786424 1.79353
2.49746 0.292606 1.24258
3.07951 0.0872069 0.923524
0.842075 -0.367545 1.33995
1.04911 0.342834 1.01369
1.73928 0.072108 1.68296
3.58783 -0.0228285 1.64684
1.70248 -0.695237 1.97267
3.75527 -0.0799037 1.4316
0.621529 0.233441 0.815683
3.69678 -0.0728735 1.28769
2.67844 -0.539788 2.38294
0.903747 0.00825292 1.25121
2.03493 0.269534 1.52355
1.90437 0.337889 0.547089
3.10344 0.135617 1.35349
1.93554 0.394189 1.07202
2.58216 -0.242367 2.19423
1.28395 0.400408 0.411706
1.01026 0.416237 0.749774
0.981844 0.301126 1.03769
2.87307 0.188083 1.49647
2.9162 -0.441792 2.40622
3.41887 0.0368033 1.53706
2.9637 -0.514161 2.45864
2.61578 0.214336 0.808492
1.5103 0.319109 1.30219
2.82765 -0.20417 2.22105
1.97039 0.283278 0.423734
2.38031 -0.140523 2.06681
3.31121 0.0360143 1.76685
0.914795 -0.104075 1.31472
1.35005 0.361723 0.30139
2.38747 -0.0379906 1.98558
1.19908 0.416809 0.908003
2.07394 -0.483908 2.1185
0.975305 0.417935 0.493971
2.28779 -0.353597 2.15897
1.86987 0.22975 1.5578
1.59576 0.263049 0.154467
1.11388 0.352224 1.03901
1.87091 -0.237347 1.93051
1.40747 0.434731 0.660961
2.25114 -0.657712 2.25036
2.80828 0.148967 0.796223
2.10922 0.361707 1.20106
0.730813 -0.109513 1.1731
2.0051 0.375729 0.838197
1.71861 0.413208 1.05481
3.51769 -0.0363871 1.09916
1.60679 -0.600313 1.90108
1.72186 -0.758505 1.99278
3.90327 -0.149616 1.31586
2.07703 0.152084 0.179075
1.5873 0.343031 0.354918
2.26705 -0.307188 2.12891
0.68053 0.0492105 1.04707
1.01699 -0.000878035 1.3373
1.76051 0.401215 1.12326
2.60562 -0.531787 2.35406
2.98096 -0.40181 2.39751
2.46782 -0.969809 2.41632
1.51064 0.369171 1.19836
2.00565 0.386759 1.01827
3.50397 0.0070712 1.59694
1.61902 -0.53521 1.89556
3.31405 0.0680952 1.54413
1.26912 -0.582287 1.68555
3.11036 0.0906652 1.72888
1.81604 0.269354 1.48329
2.44512 0.0209017 1.93882
2.33387 0.0681592 1.86588
3.17333 -1.2021 2.76163
1.26503 -0.225327 1.5988
0.943304 -0.315614 1.40571
1.66287 0.390911 0.572544
2.32408 0.269797 0.686813
1.83968 0.399025 0.788134
1.20422 -0.0953004 1.50813
1.59717 -0.179479 1.77062
2.26171 0.311182 1.38898
2.17468 0.174724 1.70131
2.11376 0.368234 1.11251
2.04162 0.327931 1.38227
2.81132 -0.80655 2.52598
2.2522 0.343309 1.16383
1.01171 0.426012 0.575458
2.45925 0.284922 0.94012
1.13876 0.436713 0.667756
1.12938 -0.648951 1.59599
2.25453 0.2003 0.412434
2.09889 -0.48666 2.13089
0.870111 0.224099 1.05394
0.895892 0.0232377 1.23668
1.01888 -0.231088 1.43676
1.72266 0.405895 1.10282
1.8215 -0.70307 2.04165
1.23042 -0.65856 1.66828
1.37665 0.38694 1.10101
1.7666 -0.697962 2.00995
2.09142 0.25423 0.431356
1.73388 -0.540811 1.96152
2.18111 0.235151 1.60249
0.621666 0.201914 0.857197
1.85436 0.298325 0.386448
2.46656 0.237677 1.57343
2.79795 0.139756 0.750615
1.80547 0.160934 0.0448306
2.94176 -0.336284 2.34491
2.12407 0.223597 1.61768
2.84527 0.184453 1.01518
1.48637 -0.0559827 1.65102
1.89621 0.357373 0.615805
2.25737 -0.0749796 1.98167
1.64821 0.388136 0.549825
0.974768 0.420212 0.660367
2.77813 -0.190746 2.20074
1.85383 0.395421 1.13059
2.08552 -0.643038 2.168
2.39612 -0.0596318 2.00688
1.45231 0.389318 0.438809
2.13781 -0.443821 2.1338
1.40659 0.440206 0.827485
2.39516 0.248891 0.684614
2.57665 -0.613847 2.37444
1.45289 -0.278121 1.72999
2.83634 -0.0197908 2.02731
1.06882 0.408551 0.406424
1.36396 -0.105814 1.60911
1.70004 0.423828 0.880864
2.60144 0.2063 1.62377
2.41073 -0.653548 2.31992
1.41424 -0.480245 1.76162
