ply
format ascii 1.0
comment Created by Open3D
element vertex 400
property double x
property double y
property double z
end_header
0.57352 -2.05907 1.23291
1.75529 -2.65908 1.07338
1.48234 -2.82793 1.35632
0.960661 -2.46114 2.10202
1.82253 -2.86535 1.28474
0.330714 -1.29045 0.261432
1.73264 -2.80805 1.23224
1.1493 -1.9524 0.498185
1.66986 -2.03781 0.603063
0.494685 -1.8384 0.744265
0.647109 -1.44908 0.222675
0.659518 -2.16219 1.19972
2.79188 -2.98925 1.51686
1.09351 -2.60924 1.36606
1.84971 -2.88636 1.30533
1.74523 -2.97322 1.44424
0.908137 -2.40134 2.04583
0.449069 -1.79262 1.56041
1.57343 -2.65699 1.08868
2.52423 -2.58662 1.15908
0.550836 -2.02857 1.23643
1.11309 -1.47249 0.218892
1.13803 -2.5773 1.21458
1.19729 -1.7485 0.368876
1.00648 -2.00072 0.553707
0.808937 -2.2895 1.10724
2.07493 -2.59552 1.04986
1.53149 -2.58288 1.01545
1.67907 -1.53624 0.368975
1.46404 -2.13628 0.635208
0.762445 -2.20103 0.985551
1.28553 -2.78867 2.49035
1.24885 -1.81585 0.412059
0.803627 -2.35279 1.58265
0.466118 -1.71029 1.76974
0.400512 -1.58002 0.487472
1.99067 -2.08635 0.709306
1.59428 -2.32956 0.786168
0.9399 -1.62879 0.293506
0.254445 -1.25727 0.306333
1.06029 -1.63156 0.294998
1.46641 -2.76817 1.27005
1.66111 -2.80723 1.24659
0.594507 -2.08822 1.33605
0.151123 -1.27243 1.20159
0.616583 -1.64969 0.383888
1.00867 -2.34459 0.938345
1.4851 -2.86239 1.41513
0.511288 -1.90975 0.868292
0.825526 -1.31213 0.127612
1.96679 -2.2199 0.776813
0.926154 -2.30342 0.950125
0.815407 -2.15059 0.819791
0.666816 -2.18448 1.38163
1.21704 -2.80606 1.85098
1.2842 -2.85373 1.74557
1.09477 -2.67918 1.88823
0.252571 -1.12195 0.194829
0.511358 -1.97282 1.23661
0.439226 -1.71659 0.627699
0.223361 -1.49544 1.047
1.16026 -2.6876 2.27983
0.633688 -1.99406 0.789251
0.686919 -2.20358 1.27146
0.368742 -1.61021 0.57929
1.04622 -2.63027 1.75469
0.964352 -1.59729 0.274343
0.284151 -1.57572 1.24075
1.16564 -1.71941 0.350011
0.315186 -1.63302 1.26335
0.88976 -2.27192 0.936697
0.356361 -1.19087 0.169684
1.82783 -2.41704 0.876968
2.11737 -2.18572 0.799589
0.250641 -1.41858 0.507476
1.13495 -2.71524 1.6876
0.746988 -1.08351 0.0307874
1.02632 -1.22662 0.105373
1.22976 -2.02663 0.549542
1.80798 -2.09731 0.667275
0.341193 -1.41025 0.362265
1.29333 -2.19936 0.681538
0.568556 -2.04065 1.43686
0.682408 -1.64882 0.354706
0.232009 -1.01033 0.135475
0.928495 -1.78916 0.400442
2.00886 -2.94899 1.36185
2.06274 -2.52302 0.994602
1.23804 -1.01977 0.079203
1.25886 -2.68623 1.29316
0.692696 -1.84607 0.530754
2.6126 -2.80233 1.32897
2.17573 -2.22332 0.837766
0.282383 -1.61135 0.967555
1.83023 -2.79079 1.20227
2.08379 -1.95469 0.673477
0.410871 -1.8082 1.28324
1.45443 -2.8988 2.80357
0.309833 -1.57925 0.657319
0.341031 -1.61664 0.650871
0.248767 -1.25193 0.307825
0.898358 -2.01022 0.595292
0.292573 -1.62175 1.11136
0.667155 -1.24642 0.105316
0.154828 -1.35354 1.0099
0.447365 -1.67606 1.75509
0.899793 -2.00138 0.585994
1.8215 -1.90228 0.568337
0.32447 -1.39713 1.69623
1.93735 -2.17856 0.745354
1.48472 -2.12181 0.627098
0.109948 -1.24566 1.00458
0.456635 -1.50856 0.355236
1.17428 -2.4884 1.02975
0.537726 -1.87299 1.76145
0.0838982 -1.07976 1.18389
1.9386 -2.26137 0.794675
0.301821 -1.40278 0.400831
0.856815 -1.81565 0.434701
1.04429 -2.3947 0.985629
1.96808 -2.54946 0.996879
1.38273 -2.87276 2.6233
0.438406 -1.8623 1.06865
0.381166 -1.77097 1.18795
0.583519 -1.98721 0.87117
0.832555 -1.76272 0.398943
1.67246 -2.0382 0.603813
0.378479 -1.17193 0.145487
1.14408 -2.67119 2.26145
0.378436 -1.66423 0.654774
1.01918 -1.75161 0.366649
1.82393 -2.48259 0.925659
0.309571 -1.63756 1.20327
0.207706 -1.13328 1.58214
1.25893 -1.8111 0.410157
0.352556 -1.69071 1.3203
1.17702 -1.08814 0.0849377
0.532013 -1.23325 0.123631
0.794152 -2.2759 1.89666
0.139753 -1.28719 1.10546
0.0873701 -1.10247 0.421125
1.40813 -1.47872 0.274181
0.522764 -1.86871 1.7121
0.506635 -1.29583 0.168086
0.119176 -1.18407 1.19515
2.31786 -2.56229 1.08249
1.27737 -2.79881 1.54145
2.63239 -2.80794 1.33868
1.13476 -2.59951 2.41705
0.406183 -1.49336 0.382665
0.281817 -1.60014 0.859015
0.71217 -2.24247 1.4179
0.517814 -1.96181 1.42558
1.42338 -1.45517 0.268453
1.9616 -1.87791 0.598693
1.23364 -2.77015 2.3311
1.34316 -2.68581 1.21827
0.032739 -1.05784 0.55795
1.3466 -1.41511 0.235056
1.16258 -2.33214 0.835843
0.852071 -2.41039 1.48825
1.68083 -1.3532 0.305025
0.807459 -1.67372 0.338478
0.898874 -2.29409 0.964918
0.472538 -1.87156 1.47148
2.16379 -2.97837 1.3928
1.15494 -2.61213 1.26618
0.7528 -1.05357 0.0196859
0.569928 -1.84253 1.9209
1.42479 -2.97878 2.43741
1.22138 -2.67467 1.31395
0.340705 -1.71029 1.08109
1.32628 -2.80282 1.46472
1.51885 -1.49345 0.307422
1.34801 -2.87338 1.62546
1.53219 -2.95772 1.56135
0.0754059 -1.12351 0.495908
0.392536 -1.40725 0.312181
1.0651 -1.36166 0.164261
0.81796 -1.50611 0.229166
2.11197 -2.88735 1.3008
1.22018 -2.6915 1.35362
1.5038 -2.69234 1.14834
1.234 -2.75365 1.49505
0.424809 -1.65629 1.70627
0.875547 -1.62434 0.295337
1.27519 -2.55412 1.06304
0.0887702 -1.18978 1.00399
0.646091 -1.99218 1.93888
2.12992 -2.64503 1.09742
1.30743 -2.8962 1.95143
1.92777 -2.77964 1.18942
0.779069 -1.14333 0.0544119
0.504867 -1.39852 0.23727
0.759843 -2.29473 1.33943
1.39089 -2.82227 2.76986
1.78352 -2.06326 0.642378
1.65321 -2.81705 1.26119
2.00748 -2.46495 0.94258
0.200472 -1.1669 1.52903
0.829853 -1.9502 0.564575
0.209565 -1.2023 0.308419
0.328536 -1.62395 0.70302
2.3684 -2.63953 1.148
0.170321 -1.33371 1.18133
1.18126 -1.39629 0.195352
0.830398 -2.38632 1.57562
1.35137 -2.8953 2.42023
0.646805 -1.94834 2.01073
1.10135 -2.40603 0.959579
0.24381 -1.06464 0.161701
0.983423 -2.36213 0.989306
1.4503 -2.98934 2.52348
1.48093 -2.7057 1.17399
1.03667 -1.45003 0.200769
0.665621 -2.04093 1.92042
0.980764 -2.34771 0.96805
1.07538 -1.81253 0.404451
0.328402 -1.39426 0.359585
1.72544 -2.97974 1.46258
1.54395 -1.87973 0.490301
0.80526 -1.09975 0.0382898
0.882094 -2.44339 1.68848
1.9027 -2.63462 1.05705
0.516952 -1.91664 1.57819
0.810238 -2.14489 2.21837
1.58158 -2.01053 0.570473
0.903789 -2.41705 1.97862
0.340316 -1.70987 1.02033
0.728171 -2.19171 1.8325
0.988705 -1.30534 0.132314
1.0036 -2.45968 2.2707
1.74346 -2.11961 0.665946
1.89387 -2.92919 1.34934
0.252112 -1.02932 0.132583
0.731191 -2.18924 1.02389
1.00441 -1.43881 0.193033
0.375332 -1.73824 1.30794
0.660367 -2.16022 1.55326
0.24217 -1.30938 1.52174
1.2384 -2.6762 2.59488
0.409549 -1.68994 1.5967
0.737491 -2.24292 1.17892
0.42512 -1.75217 1.54134
1.36722 -2.13719 0.630966
0.598283 -1.88727 1.94674
0.394148 -1.62271 0.555142
0.889265 -2.45122 1.70102
0.721998 -1.90557 0.576745
0.894313 -1.36611 0.153534
1.21854 -2.80826 1.86756
0.896088 -2.2901 2.24528
0.656803 -1.74241 0.447542
0.699187 -2.09956 1.9293
1.15695 -2.57902 2.53242
0.546523 -1.81861 0.62743
0.788134 -1.996 0.636658
0.979583 -2.53808 1.90977
2.07597 -2.88935 1.30067
0.444056 -1.86211 1.00198
0.963433 -2.48075 1.28589
0.956426 -1.6638 0.314061
2.03976 -2.48238 0.961305
0.374208 -1.63992 0.618966
1.45932 -2.34847 0.798967
0.333323 -1.41281 1.70733
1.15889 -2.69393 1.47971
0.114332 -1.26389 0.978459
1.08824 -1.67336 0.319563
0.454203 -1.85612 1.41051
0.640137 -1.70501 0.421471
0.204997 -1.38858 1.25229
1.11087 -2.53385 2.47511
0.162889 -1.03693 1.52046
1.19758 -2.59906 1.19075
1.00021 -2.55353 1.44509
0.0591778 -1.00118 0.358609
0.469498 -1.88877 0.966297
0.59426 -1.52043 0.288959
0.304501 -1.64543 0.924733
1.1268 -1.69019 0.331011
1.40398 -1.18949 0.171084
1.60467 -2.55522 0.979817
0.270886 -1.04632 0.130185
0.728051 -2.2602 1.36456
0.621349 -1.88816 0.639338
0.71591 -2.16983 1.83634
0.316459 -1.58857 0.658458
0.405505 -1.7629 0.807594
2.42556 -2.77579 1.2597
0.967202 -2.05409 0.613168
1.24881 -2.13375 0.630881
0.977872 -2.46527 1.20846
1.40593 -2.80375 1.37408
1.63172 -2.50025 0.928304
0.658946 -1.1333 0.0539593
2.14323 -2.11788 0.772055
0.934109 -2.42367 2.09395
0.648516 -2.16065 1.34626
0.0937553 -1.20588 0.605658
2.01872 -2.6864 1.11293
1.42676 -2.6268 1.09202
0.11581 -1.20508 0.504393
0.416889 -1.83214 1.15163
0.0505299 -1.09155 0.974888
0.610877 -2.09417 1.13078
0.311898 -1.63944 0.82332
2.46367 -2.75993 1.25774
0.377843 -1.52802 0.451481
0.47275 -1.86236 0.858986
0.106865 -1.20783 1.08383
1.49797 -2.74255 1.21709
0.28763 -1.38895 0.40402
1.05668 -1.16447 0.087264
0.973332 -1.64345 0.301114
0.871085 -2.36013 1.15547
1.71815 -1.67373 0.435542
0.91407 -2.39542 2.08633
0.236796 -1.28616 1.52926
0.792978 -2.31016 1.77297
0.932773 -2.47084 1.34705
0.893953 -2.37734 2.05118
0.953159 -1.66972 0.317894
1.53799 -2.99306 2.85411
1.74008 -2.1052 0.656725
1.0213 -2.43489 1.07702
1.88747 -2.54706 0.983734
1.33259 -1.39382 0.223722
0.551437 -1.99587 1.51923
1.4568 -2.40766 0.851639
1.09189 -2.67883 1.81557
0.406678 -1.3622 0.2638
1.43455 -2.98545 2.45959
0.414534 -1.61201 1.73254
1.24403 -1.28967 0.165916
0.12822 -1.27782 0.620281
0.19111 -1.27006 1.38195
0.118702 -1.2925 0.846994
0.110613 -1.11288 0.377715
1.44433 -2.62235 1.08054
0.796414 -2.34497 1.44738
2.08365 -2.22784 0.812925
1.34918 -2.92717 1.87766
0.658338 -1.5303 0.274039
0.905867 -1.87824 0.473542
1.20444 -2.52105 1.05784
1.08262 -2.30671 0.840177
1.9599 -2.85619 1.2654
0.733602 -2.25545 1.26345
2.88731 -2.95204 1.51854
1.50679 -1.32226 0.242184
1.64125 -2.15477 0.668881
0.226055 -1.17724 0.265002
1.38995 -2.90117 1.62484
0.845912 -2.31494 1.09138
0.238521 -1.40136 1.38463
1.18935 -1.67144 0.32575
0.890757 -1.32247 0.13329
0.904241 -1.37994 0.160322
1.20608 -1.96981 0.509181
1.88353 -1.80976 0.543737
0.399042 -1.0555 0.0709582
0.997961 -2.57777 1.71904
0.322313 -1.55982 1.47116
0.587422 -1.01678 0.0121198
0.990763 -2.41222 2.32469
0.230368 -1.4672 1.21179
0.963801 -2.37257 1.02943
1.09493 -2.67996 1.87846
2.28644 -2.93194 1.35987
0.785454 -1.21616 0.0846973
0.212867 -1.43104 0.640441
0.900536 -2.41449 1.97127
0.255464 -1.55551 0.849645
0.927844 -1.4311 0.185707
0.379893 -1.7567 1.26453
0.849518 -2.26022 0.966276
1.89135 -2.4445 0.906787
1.34458 -2.90346 1.755
0.915838 -2.19978 0.803874
1.66596 -1.24305 0.266063
0.755225 -2.06688 0.755155
0.199751 -1.44084 0.742611
1.39319 -2.86371 2.68351
1.58383 -2.97103 1.53846
1.65768 -2.83839 1.28758
1.21976 -2.75254 1.52468
0.759312 -2.27541 1.22368
0.958667 -1.21369 0.0925603
1.66123 -2.94041 1.43258
0.637563 -2.06067 1.76906
1.13648 -2.72377 1.91422
1.19301 -2.69456 1.40615
2.18007 -2.84788 1.27133
1.20253 -2.33221 0.822599
1.58118 -2.01397 0.572417
0.701125 -2.08657 1.96158
0.894455 -2.22819 0.861645
0.567885 -1.98522 0.906659
0.723922 -2.23879 1.22737
