ply
format ascii 1.0
comment Created by Open3D
element vertex 250
property double x
property double y
property double z
end_header
-1.28763 0.429531 0.267632
-2.82166 0.102001 -1.10711
-1.9587 -0.370847 -1.49685
-0.535121 -0.0617599 -0.715156
-0.938582 -0.338034 -1.04603
-0.624117 -0.389913 -0.818659
-0.368459 -0.113917 -0.582114
-3.09095 -0.95604 -1.83129
-1.01186 0.329063 0.871869
0.273014 -1.06869 1.44641
-0.24429 -0.0601755 -0.428282
-0.612143 0.238888 1.03023
-4.03828 -1.25412 -1.98845
-0.688248 0.376149 0.337052
-0.889742 -0.200042 -1.00429
-1.97762 0.281266 -0.854256
0.245928 -0.191954 0.623392
-1.31552 0.243338 -0.864572
-1.19441 0.419253 0.366641
-0.69875 0.242449 -0.554396
-2.46195 0.276641 -0.740586
-0.222566 0.120705 -0.233972
0.314383 -0.884364 1.35473
0.178537 -0.582823 0.300778
-1.14959 0.296258 -0.706151
-1.009 0.414411 0.318442
0.0604233 -0.480413 1.92561
0.0677077 -0.309645 -0.0226644
-5.41524 -1.8217 -2.11779
0.11472 -0.310356 0.0701237
-0.796469 -0.20089 2.22295
0.229733 -1.21603 1.6502
0.115018 -0.0695451 1.01252
0.167149 -0.646483 0.316695
-1.05922 0.398967 0.4938
0.131714 -0.0217151 0.712502
-0.936569 0.245526 -0.704412
-5.32409 -0.818194 -1.66605
-5.6758 -1.05755 -1.79452
-1.78203 -0.0261128 -1.28734
-6.2058 -1.59301 -2.02581
-0.166436 -0.18326 1.73772
-1.48298 0.19085 -0.990987
-2.08393 -0.114405 -1.40808
0.243377 -0.199742 0.563541
-4.40265 -1.04923 -1.969
-0.997526 -0.0452112 -1.01543
-4.6936 -0.93071 -1.89705
-5.77315 -0.920877 -1.6198
-0.662864 0.29322 0.848698
-0.0232326 0.109019 0.676832
-3.9566 -0.07394 -1.00657
-6.5494 -0.975639 -1.29567
-4.42331 -0.878397 -1.89513
-1.54661 -0.408569 -1.35928
-3.41686 -0.978441 -1.88927
0.111875 -0.577783 0.150391
0.0856291 -0.356982 0.0157506
-0.790058 0.335619 0.7355
-0.331381 0.104529 -0.401355
-5.9143 -1.9407 -2.13639
-4.64295 -0.76056 -1.78845
-4.27989 -0.87743 -1.90434
-3.77301 -1.11568 -1.94836
-0.79435 0.265731 -0.580194
-5.53681 -1.13917 -1.89166
-0.741601 0.382082 -0.0999087
-1.52543 0.39942 -0.449367
-0.170317 0.044881 1.21987
-6.36818 -0.97272 -1.40359
-4.00701 -0.772224 -1.86621
-0.0555677 0.121264 0.129243
-2.46607 -0.385613 -1.61354
-0.265336 0.185228 0.877692
-0.355867 -0.286074 -0.588472
-0.00770462 -0.0730515 -0.0901022
-4.04131 -0.346371 -1.49976
-5.85879 -1.18358 -1.8496
0.149658 -0.445492 1.71712
-2.006 0.379475 -0.451834
0.330028 -0.677571 0.992323
-0.533357 0.166714 -0.533495
-0.701111 0.256571 1.02302
-0.363496 0.205633 -0.280346
-0.444048 0.295641 -0.121589
0.0599282 -0.0735588 0.0504703
-1.21335 -0.298904 -1.1975
-1.80733 0.388791 -0.471986
0.234839 -0.603298 1.71203
-0.765872 -0.34138 -0.930822
-2.98264 -0.597985 -1.75863
-4.22903 -0.975139 -1.94564
-0.632281 -0.0435977 -0.784021
-0.166424 0.204271 0.547225
-2.74056 -0.20427 -1.52946
-0.389487 -0.478682 -0.586998
-0.300388 0.0329917 -0.434911
-0.195635 0.20576 0.0425554
0.277055 -0.661534 1.62983
-1.83464 0.387945 -0.468908
-0.118648 0.109461 0.931138
-3.04621 -0.181855 -1.49571
-2.03757 -0.00638656 -1.31278
-0.5042 0.341826 0.274095
-1.41763 0.438902 0.0121625
-0.905476 0.0331224 -0.920045
-1.77895 0.378842 -0.533147
-1.75884 -0.598105 -1.44738
0.280167 -0.836155 1.71598
-3.14757 -0.951156 -1.84228
-1.37114 0.0741183 -1.09371
-2.16574 0.115084 -1.17477
-2.15052 0.38193 -0.324293
-3.10104 -0.565962 -1.75867
-3.16489 -0.120937 -1.40673
-0.651892 0.249267 1.01906
-4.12728 -1.21195 -1.99397
-0.0710569 -0.412268 2.01399
-2.0156 -0.609673 -1.54275
-4.52188 -0.243066 -1.08217
-3.38953 0.0287288 -1.05902
0.215361 -0.288906 1.2914
-2.37807 -0.343602 -1.58204
-5.44502 -0.794579 -1.59377
0.239565 -0.275083 1.17462
-5.50749 -0.752314 -1.51008
-0.128347 -0.343989 1.97679
-0.777592 0.0469105 1.68055
0.283505 -0.627162 1.57334
-2.87934 0.0563404 -1.18422
-0.208617 0.0931675 1.12662
-1.35348 0.351482 -0.624556
-0.454963 0.00721112 1.58852
-4.73527 -1.36505 -2.04888
-4.9688 -0.813336 -1.76342
-0.734719 0.109407 1.49999
-0.711993 0.189018 -0.648642
-0.890017 0.299412 -0.569983
-3.41148 -0.0554469 -1.23677
-6.06707 -1.15047 -1.76021
0.128167 -0.0122069 0.655197
-2.34013 -0.45608 -1.61311
-2.12425 0.378013 -0.385467
-4.84137 -1.52675 -2.0728
-1.58178 -0.0560041 -1.25765
-2.70516 -0.382589 -1.64308
-0.395275 0.116794 -0.458944
-1.99195 0.115577 -1.16896
0.323251 -0.630681 0.877792
-5.65817 -1.64756 -2.09624
-6.36714 -1.10869 -1.59891
-2.84709 -0.719403 -1.76603
0.301394 -0.405385 0.674386
0.130313 -0.14516 0.16307
-3.37766 -0.287224 -1.56824
0.141199 -0.600805 0.226141
-0.233872 0.136873 -0.224506
-0.848373 -0.425216 -0.980996
-0.0439121 0.0467079 1.0125
-1.92592 0.191617 -1.04849
0.337414 -0.608711 1.17643
-0.00461278 0.109626 0.563853
-0.467889 0.181126 1.11906
-2.237 -0.152542 -1.45634
0.262833 -0.258327 1.00663
0.189685 -0.20539 1.17798
-2.17123 0.19496 -1.03609
-3.20199 -0.78991 -1.83356
0.00812738 0.09588 0.613522
-3.18607 -0.160353 -1.45386
-6.0783 -1.52085 -2.01232
-3.50401 -0.448635 -1.69613
-3.93001 -0.30018 -1.46928
-1.14049 0.411993 0.418357
-0.845851 0.151725 -0.782158
-0.917035 0.414821 -0.0014961
-1.47963 0.293178 -0.805471
-0.796435 -0.0448388 -0.89821
-2.00365 0.334024 -0.680708
-0.637845 -0.0183386 1.76394
-1.03739 0.0310684 -0.991131
-1.66075 0.163519 -1.0652
-2.2482 -0.239758 -1.5113
-0.270071 0.222058 -0.0776423
-5.35384 -0.970541 -1.80515
-4.19276 -0.824573 -1.8834
-0.502383 0.337893 0.342506
-0.470002 -0.0224114 1.6679
0.0369339 -0.168763 1.43776
-3.53975 -1.04494 -1.9123
-0.326817 -0.272475 2.05166
-0.837456 0.0868202 1.60579
-0.549115 0.339689 0.447068
-5.3663 -1.5593 -2.0865
-4.58896 -1.20049 -2.01227
0.038306 -0.226292 1.55166
-2.41355 0.174636 -1.04632
0.230923 -0.155725 0.725909
0.316894 -0.488241 0.764519
0.108517 -0.392357 0.0671435
-2.02261 -0.232502 2.56722
-1.52298 0.291289 1.0948
-4.68266 -0.519862 2.62781
-4.67718 -1.06046 4.01689
-7.18161 -2.09009 5.46235
-6.50962 -1.87387 5.22673
-1.69795 -0.0708766 2.17935
-4.34613 -0.79485 3.50563
-4.31942 -0.470602 2.6645
-2.46803 0.111296 1.57656
-1.34203 0.142572 1.58713
-3.12418 -0.110075 2.07916
-1.39305 0.0481574 1.85226
-1.74549 0.0174765 1.9596
-4.73213 -0.54807 2.68819
-4.16328 -0.463991 2.71556
-1.43712 -0.155464 2.33733
-5.61995 -1.05349 3.67048
-3.49423 -0.789378 3.66512
-4.49706 -0.824258 3.53007
-6.70549 -1.61525 4.58482
-1.73329 0.0151242 1.96554
-3.75009 -0.887567 3.83272
-2.75774 -0.573511 3.28301
-7.20082 -1.78152 4.76254
-7.2693 -2.09377 5.43979
-2.31719 -0.136366 2.3317
-5.27399 -0.710506 2.88036
-6.26867 -1.70667 4.95081
-1.41119 0.328447 0.938485
-5.68645 -1.08596 3.72446
-1.39356 0.302631 1.04867
-1.58906 0.286043 1.11251
-6.52081 -1.86457 5.20414
-5.60893 -1.3729 4.4367
-5.86294 -0.995635 3.38895
-3.94385 -0.960641 3.95341
-3.07239 -0.686937 3.49598
-2.72185 -0.642332 3.41973
-1.64518 0.218098 1.36189
-2.94071 -0.318363 2.69824
-7.1131 -1.60071 4.35505
-5.07849 -1.42279 4.67634
-7.63917 -2.16583 5.45799
-3.27273 -0.157951 2.17193
-5.65427 -1.52984 4.75814
-1.95278 0.246692 1.21527
-6.77551 -1.66296 4.66784
-6.74465 -1.84094 5.08113
-3.38282 -0.478222 2.99878
