ply
format ascii 1.0
comment Created by Open3D
element vertex 250
property double x
property double y
property double z
end_header
0.600448 -0.464658 -1.15657
2.50113 0.197373 -1.70389
2.28782 0.631638 -0.762564
0.740149 0.459062 -0.207506
1.32505 0.539553 -0.206196
1.02125 0.410821 0.00455531
0.586379 0.371071 -0.0778548
3.56751 0.394728 -0.968842
0.183241 -0.957259 -0.970763
-0.2861 -1.58102 0.852791
0.399563 0.289079 -0.0592192
-0.132477 -1.01298 -0.670428
4.48455 0.15406 -1.30367
0.159017 -0.370031 -0.752708
1.19928 0.564759 -0.28815
1.67887 0.281227 -1.34987
-0.356427 -0.550274 0.236862
1.21887 0.470574 -0.911156
0.493751 -0.529191 -1.10135
0.630863 0.374176 -0.562487
1.98515 0.0369204 -1.65651
0.203811 0.18545 -0.207166
-0.371338 -1.42302 0.743879
0.038447 -0.418939 0.533889
0.999902 0.396406 -0.866618
0.382007 -0.433801 -0.978322
-0.647931 -1.86475 0.21289
0.121095 -0.0680092 0.285812
5.84324 -0.330841 -1.69574
0.0459836 -0.13716 0.305731
-0.297874 -2.28236 -0.564199
-0.268294 -1.82653 0.92005
-0.496512 -0.892373 0.0203255
0.0727393 -0.458638 0.574922
0.349078 -0.610022 -1.01537
-0.400644 -0.603631 0.0243419
0.869644 0.439387 -0.695916
5.05609 -0.356619 -2.46978
5.49435 -0.428394 -2.48636
1.88704 0.616866 -0.944516
6.2621 -0.563921 -2.37101
-0.552893 -1.66007 -0.139446
1.42456 0.51594 -0.960292
2.2071 0.605428 -1.04913
-0.324014 -0.500432 0.247568
4.63617 0.101759 -1.69018
1.20275 0.597188 -0.474296
4.75563 -0.00597837 -1.96947
5.41729 -0.564769 -2.67115
-0.0431561 -0.847187 -0.725305
-0.339319 -0.571535 -0.169517
3.3779 -0.285 -2.27637
5.86985 -1.09925 -3.14034
4.52997 0.0895064 -1.84394
1.94506 0.616335 -0.493401
3.84317 0.343357 -1.1462
0.151196 -0.302722 0.504445
0.115522 -0.113492 0.329834
0.0780193 -0.768743 -0.825069
0.365919 0.297092 -0.244264
6.27819 -0.50154 -1.90847
4.58226 -0.0285634 -2.08234
4.42866 0.139926 -1.75536
4.20099 0.244104 -1.25242
0.700135 0.377346 -0.636908
5.47805 -0.329742 -2.32693
0.388495 0.0055974 -0.744971
1.10755 0.0939214 -1.20536
-0.439003 -1.12047 -0.266322
5.7836 -0.949186 -3.01976
4.15763 0.222357 -1.67327
-0.0794873 -0.089046 -0.142298
2.71823 0.582222 -1.05163
-0.290735 -0.794555 -0.399013
0.669264 0.320382 0.0649658
0.0834253 0.0525195 0.0616134
3.79958 0.0344845 -2.06482
5.71793 -0.476731 -2.49504
-0.63896 -1.64084 0.262211
1.47046 -0.0512014 -1.4857
-0.329506 -1.0236 0.629606
0.539916 0.377462 -0.403599
-0.0733869 -1.02638 -0.738314
0.28338 0.2152 -0.355517
0.225303 0.0816732 -0.491869
-0.0280372 -0.0530925 0.0891327
1.5728 0.607837 -0.390391
1.32925 0.0280209 -1.36845
-0.617169 -1.66645 0.438431
1.14944 0.48623 -0.109078
3.27043 0.486505 -1.18915
4.46043 0.157499 -1.64345
0.832291 0.498346 -0.27443
-0.226584 -0.464722 -0.318703
2.78771 0.490403 -1.37107
0.793082 0.242089 0.194462
0.395212 0.311084 -0.16584
0.0175296 -0.0232929 -0.285607
-0.581437 -1.60122 0.518425
1.3483 0.017009 -1.38494
-0.382398 -0.825726 -0.254997
2.98468 0.378892 -1.58042
2.07498 0.571761 -1.11476
0.0700933 -0.272175 -0.605969
0.803822 -0.271851 -1.21755
1.05256 0.566441 -0.488602
1.34075 0.0873077 -1.33687
2.23759 0.566717 -0.467095
-0.531314 -1.73792 0.647747
3.61126 0.389683 -1.00641
1.44879 0.599386 -0.789597
2.0446 0.453777 -1.30288
1.5184 -0.20614 -1.58989
3.34044 0.463126 -1.28711
3.00048 0.286222 -1.71034
-0.103844 -1.01103 -0.70187
4.53021 0.147681 -1.39086
-0.626252 -1.9581 0.0695114
2.47362 0.572621 -0.606425
3.91252 -0.441755 -2.48487
2.93316 -0.0368575 -2.00162
-0.579661 -1.18792 0.224539
2.61814 0.594524 -1.03346
5.10028 -0.448071 -2.57023
-0.552807 -1.07202 0.240757
5.08698 -0.526113 -2.65039
-0.603284 -1.9179 -0.0152481
-0.199952 -1.7074 -0.689855
-0.578958 -1.53704 0.501415
2.60115 0.233278 -1.6958
-0.39473 -1.03178 -0.317965
1.08425 0.283444 -1.04384
-0.374565 -1.54505 -0.450506
5.0786 -0.0343836 -1.64034
4.83685 -0.164438 -2.24454
-0.183746 -1.51229 -0.693528
0.709999 0.43561 -0.519176
0.748113 0.352055 -0.723217
3.07159 0.085678 -1.93103
5.81351 -0.605628 -2.6585
-0.3776 -0.550318 0.0206673
2.66248 0.594054 -0.919043
1.52831 -0.145355 -1.56431
5.25064 -0.100445 -1.57701
1.74294 0.63849 -0.800848
2.90462 0.539748 -1.19827
0.431796 0.333993 -0.287251
1.91466 0.499529 -1.19676
-0.298139 -0.907228 0.600683
5.92106 -0.360269 -1.98364
5.93986 -0.82235 -2.89275
3.23754 0.490345 -1.01006
-0.308898 -0.653908 0.432388
-0.092255 -0.157779 0.176747
3.31386 0.309935 -1.69491
0.108138 -0.369645 0.532646
0.199503 0.179354 -0.227736
1.27548 0.477583 -0.0892754
-0.440552 -0.898238 -0.168374
1.77358 0.438047 -1.2279
-0.452162 -1.16139 0.561334
-0.303213 -0.465271 -0.146817
-0.24737 -1.0701 -0.545633
2.36021 0.590398 -1.1087
-0.504112 -0.90978 0.259411
-0.553959 -1.06529 0.15526
1.94577 0.356518 -1.38298
3.56358 0.422248 -1.16674
-0.327401 -0.510576 -0.133377
3.05728 0.308262 -1.68774
6.12546 -0.513531 -2.35016
3.54662 0.330639 -1.63352
3.68072 0.0559512 -2.03544
0.435174 -0.562029 -1.06781
0.886375 0.502413 -0.558728
0.456236 -0.12187 -0.888835
1.28687 0.387386 -1.05732
1.00357 0.55166 -0.3628
1.59369 0.137462 -1.42507
-0.305255 -1.7636 -0.561429
1.18158 0.590504 -0.560928
1.60161 0.520582 -1.04082
2.43797 0.605666 -1.04181
0.116755 0.0676927 -0.331756
5.21846 -0.294551 -2.35478
4.32825 0.165164 -1.74509
0.0405034 -0.33394 -0.608863
-0.383362 -1.63047 -0.444868
-0.576292 -1.32848 0.00562968
3.97773 0.304788 -1.16763
-0.528372 -2.0176 -0.201143
-0.143752 -1.64439 -0.750163
0.0274394 -0.440083 -0.649893
5.65751 -0.25292 -1.87368
4.87003 0.03313 -1.68244
-0.597911 -1.44958 0.0395928
2.13806 0.287768 -1.51538
-0.409646 -0.633321 0.188715
-0.317186 -0.75854 0.497292
0.0943648 -0.16491 0.366236
0.4628 -2.95811 -1.3308
0.47791 -1.31826 -1.27935
2.53047 -3.88921 -2.75204
2.19157 -5.31318 -2.47046
3.91698 -7.69096 -3.35972
3.41774 -7.20946 -3.08999
0.313337 -2.4615 -1.21674
2.03815 -4.66856 -2.42087
2.22301 -3.79861 -2.57044
1.04906 -2.08608 -1.77112
0.204627 -1.75571 -1.10271
1.42113 -2.80252 -2.0547
0.173477 -2.03964 -1.0879
0.399611 -2.24888 -1.29226
2.55454 -3.96727 -2.76676
2.08278 -3.79617 -2.48467
0.0964633 -2.55551 -1.00632
3.0309 -5.27761 -3.02103
1.34162 -4.55986 -1.91666
2.15296 -4.74466 -2.49345
3.71118 -6.60483 -3.34614
0.389283 -2.25142 -1.28352
1.50544 -4.81809 -2.01504
0.860267 -3.92919 -1.59174
4.08096 -6.96574 -3.53999
3.99301 -7.69777 -3.40855
0.73271 -2.80088 -1.56301
2.94996 -4.35331 -2.99378
3.27701 -6.83506 -3.04347
0.446111 -1.13343 -1.22327
3.07246 -5.35642 -3.04226
0.397804 -1.23542 -1.20367
0.521111 -1.35515 -1.3178
3.4311 -7.18937 -3.10181
2.84912 -6.06813 -2.84422
3.3033 -5.07769 -3.18679
1.63159 -5.00765 -2.08989
1.05489 -4.2503 -1.71915
0.809156 -4.06446 -1.53005
0.486937 -1.61733 -1.32517
1.12077 -3.37289 -1.84313
4.10352 -6.51419 -3.5849
2.3809 -6.14401 -2.5032
4.29283 -7.84713 -3.58211
1.51352 -2.94522 -2.11848
2.82129 -6.42236 -2.78293
0.762024 -1.56662 -1.52188
3.75036 -6.71584 -3.36063
3.63704 -7.13695 -3.24547
1.3939 -3.8254 -2.02191
