ply
format ascii 1.0
comment Created by Open3D
element vertex 250
property double x
property double y
property double z
end_header
-1.09901 0.586698 -0.601718
-3.00996 -0.198179 -0.314184
-2.35445 -0.764829 0.293591
-0.73708 -0.503014 0.0728456
-1.24481 -0.654894 0.333104
-0.879601 -0.529298 0.397367
-0.541484 -0.421306 0.129968
-3.57639 -0.656478 0.774636
-0.654895 1.08598 -0.532983
0.63249 1.42462 0.937616
-0.371209 -0.321317 0.0753884
-0.233932 1.12569 -0.413832
-4.54499 -0.475966 0.975212
-0.514578 0.476779 -0.486487
-1.17465 -0.648998 0.198151
-2.118 -0.241001 -0.419311
0.414829 0.538751 0.153653
-1.49831 -0.447292 -0.303795
-0.980351 0.653047 -0.59098
-0.817126 -0.342568 -0.263325
-2.54025 0.0143275 -0.482826
-0.275041 -0.169081 -0.120882
0.656973 1.30075 0.769845
0.218478 0.307731 0.565327
-1.28716 -0.355585 -0.353182
-0.820708 0.551777 -0.559648
0.629142 1.86199 0.282175
0.0326539 -0.00028495 0.316088
-5.93197 -0.102056 1.38917
0.106414 0.0729818 0.312648
-0.0649824 2.3657 -0.124358
0.644576 1.64981 1.05703
0.423807 0.929051 -0.0227801
0.20778 0.334783 0.625238
-0.813883 0.734501 -0.56839
0.348357 0.634631 -0.0370176
-1.0892 -0.411996 -0.278482
-5.62444 0.160966 0.361715
-6.01629 0.179199 0.570563
-2.09419 -0.667534 -0.0480918
-6.63236 0.194671 1.06182
0.378408 1.7139 -0.0182734
-1.70074 -0.508411 -0.258327
-2.42471 -0.67753 0.0165251
0.392865 0.484142 0.167247
-4.86729 -0.374242 0.728442
-1.26798 -0.647529 0.0338299
-5.11031 -0.233734 0.570085
-6.04235 0.355185 0.406144
-0.3351 0.962654 -0.454601
0.200795 0.630583 -0.180479
-4.0648 0.266013 -0.282758
-6.67785 0.904625 0.336421
-4.85009 -0.321308 0.549639
-1.92427 -0.755556 0.364522
-3.9046 -0.608856 0.764874
0.108248 0.185555 0.56817
0.0580595 0.0368544 0.360953
-0.487865 0.888949 -0.499549
-0.432157 -0.291585 -0.100222
-6.41894 0.0484519 1.45061
-5.01477 -0.169689 0.396655
-4.71735 -0.373797 0.566311
-4.2707 -0.537607 0.865153
-0.913851 -0.34091 -0.294767
-5.92202 0.0562577 0.677405
-0.702868 0.0802164 -0.453302
-1.55313 -0.0128789 -0.525375
0.228634 1.19606 -0.190458
-6.54047 0.747273 0.365784
-4.43909 -0.435135 0.490168
-0.00215152 0.122456 -0.139629
-2.87218 -0.718331 0.261271
0.0414521 0.883454 -0.304707
-0.545037 -0.407947 0.302148
-0.0415092 -0.0727715 0.0805952
-4.32228 -0.136524 0.0275733
-6.21656 0.199976 0.679478
0.650231 1.63351 0.279646
-2.00978 0.133862 -0.561293
0.573195 0.926414 0.604921
-0.660068 -0.363036 -0.171449
-0.318938 1.14361 -0.440897
-0.416317 -0.181321 -0.216358
-0.435187 -0.019216 -0.331074
0.0668854 0.0392435 0.0744031
-1.54945 -0.719294 0.278189
-1.82762 0.0530917 -0.54531
0.716823 1.62402 0.445958
-1.04533 -0.598418 0.34456
-3.42304 -0.669189 0.426017
-4.68998 -0.415077 0.67302
-0.849312 -0.5408 0.0507395
0.0318394 0.53916 -0.277797
-3.0909 -0.57987 0.0415179
-0.591394 -0.370372 0.488344
-0.419065 -0.32303 -0.0224786
-0.155407 0.0719994 -0.230404
0.726165 1.5415 0.516905
-1.85252 0.0644253 -0.547968
0.191126 0.899374 -0.218343
-3.36742 -0.45797 -0.0196563
-2.34229 -0.616341 -0.0946548
-0.363195 0.36598 -0.424664
-1.30205 0.384151 -0.599636
-1.14465 -0.596178 -0.0427234
-1.82093 -0.0118807 -0.52585
-2.16759 -0.748451 0.536194
0.742741 1.6453 0.680837
-3.63302 -0.650255 0.764367
-1.63663 -0.623613 -0.119378
-2.41028 -0.463535 -0.243837
-2.10584 0.297811 -0.59373
-3.53248 -0.637477 0.380621
-3.44669 -0.346121 -0.102845
-0.274232 1.12587 -0.427549
-4.62757 -0.459737 0.923779
0.538142 1.97619 0.190423
-2.44142 -0.758609 0.527643
-4.63633 0.389695 -0.17359
-3.5373 0.0299967 -0.31281
0.589814 1.19099 0.176694
-2.77574 -0.721096 0.226742
-5.71404 0.262769 0.316843
0.576809 1.07164 0.177947
-5.74331 0.355018 0.259163
0.477539 1.94937 0.120168
-0.199477 1.81514 -0.310775
0.717065 1.48164 0.489552
-3.09247 -0.24717 -0.267801
0.166679 1.1133 -0.232952
-1.44978 -0.223981 -0.439889
0.0732923 1.63544 -0.224518
-5.23168 -0.305698 1.01
-5.31901 -0.0397189 0.408308
-0.211221 1.62341 -0.348828
-0.86365 -0.420203 -0.202327
-0.998427 -0.306679 -0.340219
-3.62089 -0.119581 -0.213806
-6.38258 0.343242 0.613307
0.327607 0.580397 -0.0408881
-2.75849 -0.746796 0.345477
-2.10068 0.232657 -0.580472
-5.35218 -0.274163 1.15988
-1.89783 -0.696506 0.00164294
-3.10733 -0.673763 0.233544
-0.509831 -0.328076 -0.113802
-2.2441 -0.511053 -0.224719
0.534196 0.814171 0.569675
-6.1412 -0.0311943 1.18667
-6.61193 0.581104 0.520443
-3.30672 -0.701093 0.56248
0.46674 0.598688 0.365649
0.163475 0.133621 0.141655
-3.71194 -0.411209 0.0534018
0.15815 0.25115 0.586477
-0.28147 -0.158889 -0.139147
-1.14575 -0.609305 0.422976
0.282632 0.96178 -0.156092
-2.13761 -0.427819 -0.30463
0.643833 1.08849 0.518695
0.182683 0.518301 -0.167215
-0.0739516 1.17329 -0.349201
-2.58767 -0.671271 0.0413968
0.546939 0.903902 0.181496
0.536161 1.08062 0.102955
-2.36533 -0.341856 -0.337738
-3.66911 -0.647178 0.597857
0.209375 0.563105 -0.157298
-3.48471 -0.378798 -0.061492
-6.50192 0.158832 1.00397
-3.88448 -0.471565 0.211396
-4.2038 -0.147904 -0.00826967
-0.913573 0.686364 -0.582894
-1.03537 -0.5003 -0.167226
-0.835008 0.222037 -0.51623
-1.63085 -0.348291 -0.378228
-1.04074 -0.598302 0.044704
-2.08356 -0.0765374 -0.492423
-0.0460652 1.85999 -0.238709
-1.29201 -0.622751 -0.0486701
-1.89441 -0.52056 -0.244313
-2.62246 -0.70794 0.13194
-0.26255 -0.0208588 -0.24271
-5.70849 0.0593892 0.523149
-4.62423 -0.387719 0.522062
-0.340129 0.430461 -0.427651
0.081888 1.71886 -0.205225
0.476847 1.36716 0.0221148
-4.03325 -0.584185 0.818662
0.319195 2.07077 0.0186974
-0.276619 1.7575 -0.349416
-0.35107 0.543046 -0.445687
-5.85531 -0.1228 1.13241
-5.06892 -0.337913 0.860671
0.509707 1.48189 0.0673065
-2.59924 -0.274957 -0.344777
0.435925 0.635104 0.105505
0.503453 0.690114 0.439963
0.0932025 0.0831067 0.393237
-1.11762 3.06805 -0.271344
-1.07047 1.45696 -0.578183
-3.63559 3.97412 -0.303044
-3.23292 5.35505 0.0877572
-5.22336 7.61951 0.663958
-4.64579 7.16354 0.55291
-0.92086 2.58166 -0.353086
-3.06105 4.73636 -0.0831838
-3.27673 3.89144 -0.313269
-1.82544 2.22331 -0.560152
-0.755171 1.88609 -0.461222
-2.30393 2.9269 -0.469817
-0.726853 2.16434 -0.401346
-1.02846 2.37704 -0.423134
-3.66544 4.04993 -0.287185
-3.11245 3.89113 -0.306933
-0.630875 2.66257 -0.255563
-4.23328 5.31464 0.00712999
-2.20479 4.62652 -0.00605424
-3.19829 4.80934 -0.0742122
-5.01395 6.5831 0.34114
-1.01523 2.37924 -0.420006
-2.40128 4.87572 0.0438328
-1.61263 4.01283 -0.0940892
-5.43894 6.92394 0.429381
-5.31369 7.62545 0.659734
-1.46315 2.92276 -0.376171
-4.12955 4.41805 -0.209631
-4.49228 6.80746 0.444332
-1.01136 1.2705 -0.585702
-4.2816 5.39016 0.0258746
-0.961836 1.37251 -0.569562
-1.12774 1.49449 -0.582517
-4.66279 7.14439 0.544761
-4.00527 6.07678 0.244583
-4.54759 5.1154 -0.0491217
-2.55196 5.05838 0.0809893
-1.85154 4.32475 -0.0406847
-1.54081 4.14008 -0.0360933
-1.10716 1.75588 -0.54775
-1.95078 3.4828 -0.306845
-5.47088 6.48864 0.303172
-3.43185 6.14789 0.330715
-5.66321 7.76497 0.68603
-2.41874 3.06607 -0.449404
-3.95863 6.41482 0.361042
-1.44213 1.70746 -0.596577
-5.05759 6.68913 0.37153
-4.91149 7.0934 0.508125
-2.28609 3.92238 -0.23146
