ply
format ascii 1.0
comment Created by Open3D
element vertex 250
property double x
property double y
property double z
end_header
-0.313196 0.512653 -1.24627
-2.17113 1.39473 -1.59335
-2.14031 1.14651 -0.564949
-0.865892 0.216187 -0.0714819
-1.31401 0.600085 -0.051527
-0.974771 0.498282 0.115295
-0.673059 0.183804 0.0283351
-2.8701 2.20833 -0.841082
0.356189 0.553723 -1.20782
1.49852 0.965991 0.36056
-0.48577 0.100898 0.0238969
0.670164 0.414309 -0.934015
-3.38184 2.97721 -1.23848
-0.000667413 0.204429 -0.828846
-1.26517 0.474137 -0.121674
-1.60683 0.800226 -1.22375
0.68064 0.133247 0.0701365
-1.34213 0.424688 -0.74539
-0.184222 0.485481 -1.21127
-0.806962 0.118355 -0.434961
-1.70179 1.12282 -1.59041
-0.312116 -0.0080328 -0.146175
1.41988 0.78008 0.302752
0.385482 0.402289 0.389349
-1.13348 0.318041 -0.722518
-0.151694 0.366016 -1.06501
1.80819 0.750463 -0.331219
0.0276981 0.190399 0.252901
-4.02661 4.21901 -1.76488
0.131428 0.182632 0.25253
1.70863 1.12248 -1.19869
1.67592 1.1493 0.353687
0.972776 0.204222 -0.235089
0.399512 0.4613 0.416854
-0.0117633 0.446594 -1.15125
0.703554 0.0920699 -0.148373
-1.04117 0.227747 -0.545662
-3.64489 3.49583 -2.50699
-3.89013 3.86427 -2.5471
-1.90015 0.821626 -0.740215
-4.28238 4.54473 -2.48199
1.52452 0.620341 -0.60991
-1.52232 0.538925 -0.780901
-2.12794 1.04612 -0.846181
0.62567 0.127681 0.0945636
-3.52719 3.04635 -1.62476
-1.32978 0.418941 -0.290471
-3.58894 3.1483 -1.92421
-3.78021 3.85717 -2.76285
0.480638 0.36401 -0.939223
0.598882 0.0785763 -0.325104
-2.53352 2.24056 -2.2879
-3.80013 4.44133 -3.37028
-3.47981 2.94455 -1.77463
-1.84365 0.954986 -0.309061
-3.05503 2.41078 -1.02788
0.221013 0.406117 0.393939
0.0731314 0.224048 0.281906
0.32269 0.384198 -1.01294
-0.507926 0.0338983 -0.150625
-4.24033 4.60903 -2.02136
-3.48068 3.01128 -2.03741
-3.42942 2.85467 -1.67445
-3.24575 2.71907 -1.16111
-0.871185 0.153025 -0.505818
-3.91607 3.82096 -2.36581
-0.420402 0.136943 -0.714458
-1.06091 0.523633 -1.13519
1.03676 0.33544 -0.575959
-3.82416 4.30545 -3.21073
-3.28979 2.61686 -1.56987
0.0867218 -0.0306437 -0.161358
-2.45358 1.44057 -0.859316
0.677226 0.2113 -0.609732
-0.662257 0.306246 0.149695
-0.0802704 0.0408063 0.0735242
-2.9988 2.39245 -1.99622
-4.00692 4.05967 -2.57117
1.65283 0.624076 -0.219232
-1.25895 0.830294 -1.44839
1.08293 0.533546 0.308735
-0.715088 0.0802743 -0.28122
0.625944 0.453282 -1.00334
-0.417736 0.00260515 -0.280174
-0.312343 0.0174527 -0.448892
0.0753679 0.0307848 0.0701534
-1.56708 0.704075 -0.209997
-1.19641 0.698081 -1.31212
1.6936 0.691732 -0.0581593
-1.13816 0.522858 0.0273658
-2.78334 1.88493 -1.02301
-3.43965 2.88938 -1.5625
-0.969589 0.246315 -0.124885
0.415941 0.0645381 -0.437843
-2.50172 1.48719 -1.1922
-0.661927 0.474091 0.249986
-0.52099 0.0623793 -0.0717427
-0.0551844 -0.0289991 -0.280241
1.64001 0.692621 0.0370132
-1.20475 0.71599 -1.33124
0.791032 0.191711 -0.480199
-2.59787 1.66313 -1.42642
-2.02941 0.95626 -0.917706
0.0198339 0.105085 -0.659359
-0.599516 0.528724 -1.2504
-1.21046 0.324011 -0.311884
-1.23974 0.675091 -1.2648
-1.99826 1.20945 -0.300561
1.73123 0.842893 0.120801
-2.90365 2.23659 -0.878843
-1.56214 0.537706 -0.59355
-1.96451 0.971481 -1.13168
-1.20238 0.944057 -1.59337
-2.83407 1.9324 -1.1241
-2.56965 1.70813 -1.57773
0.643018 0.428095 -0.963769
-3.42616 2.99787 -1.32414
1.83012 0.797588 -0.495654
-2.18956 1.35346 -0.434065
-2.82292 2.69666 -2.53707
-2.35545 1.80619 -1.94956
1.28215 0.371657 -0.124576
-2.39162 1.36189 -0.837574
-3.63032 3.56704 -2.62996
1.18494 0.320907 -0.0756996
-3.58262 3.59098 -2.72918
1.76826 0.77213 -0.565315
1.20657 0.803378 -1.1532
1.58899 0.650121 0.0393014
-2.2619 1.44782 -1.57601
0.933022 0.301479 -0.600047
-1.14656 0.417547 -0.925516
1.25783 0.617602 -0.875721
-3.71532 3.47219 -1.61997
-3.58806 3.25502 -2.23402
1.05577 0.690194 -1.10033
-0.894575 0.146637 -0.376339
-0.90337 0.187651 -0.596128
-2.52055 1.84502 -1.8476
-4.01325 4.18044 -2.7657
0.649344 0.0744559 -0.13663
-2.39686 1.41796 -0.728555
-1.24699 0.91774 -1.55136
-3.76988 3.65492 -1.57984
-1.78903 0.729277 -0.595311
-2.57871 1.57707 -1.01345
-0.587329 0.0507808 -0.1816
-1.88797 0.866785 -1.01584
0.972863 0.476856 0.314509
-4.1182 4.23831 -2.04957
-3.99238 4.36604 -3.05366
-2.72641 1.89369 -0.850235
0.763934 0.273679 0.226886
0.211408 0.0672819 0.124196
-2.7928 1.92914 -1.55857
0.30347 0.422417 0.401887
-0.309215 -0.0114454 -0.167594
-1.21207 0.626056 0.0428214
0.899856 0.211989 -0.417834
-1.75635 0.794889 -1.06234
1.24886 0.516652 0.204449
0.503714 0.0421426 -0.272885
0.813965 0.390171 -0.83021
-2.2321 1.15771 -0.90875
1.04057 0.25731 -0.0112402
1.16292 0.298719 -0.15557
-1.84592 0.94408 -1.23574
-2.92874 2.14842 -1.02249
0.55503 0.0557411 -0.272952
-2.61859 1.74081 -1.55016
-4.2226 4.4151 -2.44637
-2.95025 2.10126 -1.49565
-2.92848 2.29621 -1.96095
-0.114583 0.469553 -1.18822
-1.06845 0.227303 -0.396236
-0.405015 0.240001 -0.889603
-1.35899 0.499226 -0.909916
-1.1407 0.32207 -0.195373
-1.46315 0.813628 -1.33669
1.34407 0.786508 -1.04573
-1.32909 0.390204 -0.375155
-1.66093 0.651598 -0.858025
-2.2809 1.21912 -0.840926
-0.196128 -0.0224568 -0.29884
-3.77351 3.5999 -2.38022
-3.37815 2.76594 -1.65652
0.083067 0.121916 -0.679784
1.32583 0.666687 -0.894994
1.33413 0.420246 -0.374834
-3.12197 2.5312 -1.06062
1.75021 0.85443 -0.772704
1.11137 0.792951 -1.19312
0.158889 0.171757 -0.749693
-3.99548 3.99571 -1.91116
-3.63293 3.26561 -1.63906
1.44211 0.488208 -0.37723
-1.95327 1.10459 -1.38389
0.765331 0.137068 0.000421497
0.857772 0.347212 0.258767
0.131613 0.248376 0.30202
1.52096 1.96668 -2.13412
0.351832 0.941754 -1.61004
0.504078 3.81545 -3.78037
1.8057 4.52816 -3.92062
2.16156 7.15152 -5.474
2.20852 6.52671 -5.07246
1.29059 1.56135 -1.87994
1.45881 4.0126 -3.68524
0.683169 3.56516 -3.5779
0.414354 1.75851 -2.3076
0.883742 1.05285 -1.56552
0.617079 2.43591 -2.78946
1.11024 1.21381 -1.63334
1.06535 1.4748 -1.89132
0.540583 3.88023 -3.81725
0.793217 3.47639 -3.49399
1.54689 1.50197 -1.70406
1.10345 5.02 -4.44388
1.95294 3.52567 -3.16568
1.42109 4.13209 -3.77766
1.52715 6.30809 -5.14481
1.07591 1.47048 -1.88361
2.00696 3.79268 -3.33593
1.89314 2.82996 -2.66825
1.49666 6.77479 -5.4378
2.10532 7.20268 -5.52331
1.17953 2.02083 -2.31296
0.503907 4.37543 -4.14946
2.04529 6.1924 -4.91838
0.253035 0.811338 -1.50259
1.12742 5.09697 -4.48735
0.362204 0.844394 -1.51298
0.341187 0.989767 -1.65788
2.18277 6.52147 -5.07805
1.82611 5.42448 -4.50218
0.743871 5.06199 -4.54678
2.04212 3.99255 -3.46347
1.96532 3.15423 -2.88473
2.03678 2.89056 -2.64798
0.549513 1.13018 -1.74059
1.26926 2.61863 -2.74979
1.15 6.49448 -5.35017
2.26496 5.19261 -4.19408
1.97495 7.48639 -5.73505
0.643707 2.58297 -2.89256
2.1103 5.64203 -4.5459
0.288076 1.26322 -1.91634
1.57711 6.40518 -5.19114
1.9775 6.61256 -5.202
1.37189 3.07491 -3.05412
