ply
format ascii 1.0
comment Created by Open3D
element vertex 400
property double x
property double y
property double z
end_header
-0.293775 1.05321 -2.12485
0.0238436 1.95965 -3.32751
-0.592421 1.21414 -1.78059
-0.0933381 3.20195 -1.96729
-0.299106 1.04915 -2.11335
0.137214 1.83014 -0.442172
-0.64281 0.962937 -0.926253
-0.690985 1.80622 -1.66194
-0.695086 1.7764 -1.75996
-0.492776 2.56409 -1.90318
-0.347373 2.24019 -3.03289
-0.591184 2.44091 -2.25051
-0.440492 2.30469 -2.8891
-0.560495 0.668567 -0.724173
-0.29644 0.81483 -1.84186
-0.616053 0.946053 -0.804377
-0.34294 1.65136 -0.720428
-0.669701 1.06237 -1.07089
-0.463996 2.32238 -2.84421
-0.0500632 2.28323 -3.48199
-0.296794 1.60726 -2.65705
-0.451325 1.57283 -0.797799
-0.622226 2.24885 -2.25685
0.0280792 0.569631 -1.90062
-0.205103 0.75883 -1.88979
-0.528152 1.58814 -2.267
-0.491998 2.35193 -2.78576
-0.309472 0.81548 -1.82462
-0.413792 2.20143 -1.291
-0.69493 1.31328 -1.23204
-0.187836 3.21707 -2.15181
-0.588292 2.45235 -2.28852
-0.610827 0.918772 -0.788268
-0.048854 2.99364 -1.65281
-0.679685 1.13196 -1.11982
-0.626723 2.25658 -2.1941
-0.00280721 1.58867 -2.9852
-0.484658 2.63625 -1.99366
-0.657312 2.06008 -2.07134
-0.704144 1.38425 -1.36612
-0.233451 2.90745 -1.81096
-0.486461 0.763916 -1.45238
-0.0467893 2.42223 -1.06476
-0.490166 1.13086 -1.90846
-0.173948 2.30519 -1.08397
-0.230326 1.33334 -0.39723
-0.579269 1.57336 -2.14397
-0.218404 1.19373 -2.36854
-0.148627 3.27972 -2.16793
-0.369492 1.80078 -2.70748
-0.564434 0.923724 -0.652846
-0.104977 1.44525 -2.74477
-0.418996 0.464688 -1.08332
-0.469427 0.778564 -1.51007
-0.324993 2.3023 -3.10537
-0.60423 2.295 -1.90521
-0.418897 2.74093 -1.96304
-0.683157 1.90569 -1.8418
-0.4587 1.21052 -2.04808
-0.392975 0.684486 -1.51874
-0.162818 3.25776 -2.16284
-0.610615 2.11041 -2.34553
-0.537776 2.43852 -2.65767
-0.490265 0.917564 -0.505476
-0.614469 0.814675 -0.880535
0.0975737 2.02887 -0.61566
-0.556705 0.697665 -0.671715
-0.690511 1.20389 -1.20676
-0.375707 2.2731 -3.00103
-0.608529 2.12399 -2.35642
-0.164091 3.34043 -2.29069
-0.646083 1.16145 -0.936648
-0.593248 2.35172 -2.40678
-0.419583 2.52637 -1.66875
-0.505836 0.850583 -1.53484
-0.671264 1.2426 -1.06349
-0.664468 2.05061 -1.94847
-0.336498 1.51385 -2.52159
-0.179888 3.01395 -1.85977
-0.330488 1.15998 -0.399384
-0.0311976 0.528679 -1.78324
-0.448002 0.455015 -0.963495
-0.697639 1.2647 -1.34417
-0.252239 0.395442 -1.29552
-0.160549 2.26676 -1.03465
-0.618436 0.812913 -0.950347
-0.271706 2.78828 -1.72487
-0.237835 2.60494 -1.46171
-0.604074 2.3399 -2.00633
-0.691565 1.45697 -1.27425
-0.441602 0.853446 -1.66537
-0.516704 2.2321 -1.51823
0.0633921 0.686726 -2.08784
-0.571137 1.34023 -0.834977
-0.637478 2.214 -2.08779
-0.689769 1.84303 -1.78883
-0.637817 0.885125 -1.04224
-0.66369 1.4848 -1.16588
-0.0017112 0.528303 -1.81384
-0.533307 2.42759 -2.6744
-0.0266509 2.91721 -1.54102
-0.0970363 2.15528 -0.875074
-0.167676 1.45396 -2.68211
-0.224627 2.03716 -0.899146
-0.576681 2.18927 -2.48914
-0.407725 2.39264 -1.48665
-0.477311 2.0976 -1.29172
-0.304303 0.65697 -1.62186
-0.587613 2.45602 -2.24327
0.106285 3.73836 -2.39297
-0.39721 1.3387 -2.27292
-0.290472 2.19723 -3.09944
-0.637131 1.69217 -1.25073
-0.134166 0.864392 -2.10193
-0.583328 0.730433 -1.06576
-0.621915 0.853574 -1.14065
-0.663535 1.69318 -1.97196
-0.553219 1.30135 -1.9609
-0.658691 1.97289 -1.66162
-0.643425 2.13329 -1.84961
-0.560113 0.658194 -0.995626
-0.495258 2.44499 -2.80009
-0.355943 0.615516 -1.48036
-0.110563 1.20219 -2.50019
-0.653197 1.9783 -2.12338
-0.485075 2.21748 -2.7518
-0.587549 1.89652 -1.3152
-0.262782 1.23626 -2.35723
-0.508304 1.99103 -1.24136
-0.682832 1.50465 -1.75436
-0.426944 2.16767 -2.849
-0.326641 1.48983 -0.589711
-0.461578 1.74636 -2.51455
-0.581291 2.16465 -1.60614
-0.69493 1.65274 -1.471
-0.148938 1.31539 -2.5714
-0.0851781 2.38779 -1.06989
-0.681368 1.91047 -1.76057
-0.129422 2.19648 -0.940994
-0.592902 0.845408 -0.737702
-0.394742 2.78323 -1.96452
-0.213087 0.530654 -1.56872
-0.319747 2.27761 -3.10038
-0.121693 2.26362 -3.37904
-0.170201 0.680734 -1.83147
-0.162288 2.49116 -1.24985
-0.661039 2.04597 -2.04004
-0.145169 3.33568 -2.24438
-0.576101 2.3928 -1.93851
-0.378076 0.910404 -1.84154
-0.324689 2.34335 -1.30401
-0.520049 1.75609 -2.40993
-0.653727 1.21738 -1.59463
-0.425579 1.96097 -2.72781
-0.484015 0.488846 -0.893834
-0.679784 1.7255 -1.4519
-0.58704 2.45864 -2.24832
-0.592124 2.11646 -1.57809
0.0800021 1.98791 -0.597089
-0.436334 2.36872 -1.51143
-0.444494 1.95059 -1.0964
-0.64177 1.94757 -1.54115
-0.0812254 2.23478 -3.41075
-0.531101 2.67864 -2.38545
-0.270751 0.923216 -2.00732
-0.0402061 3.1326 -1.80496
-0.567319 2.20373 -2.52416
-0.480239 1.53913 -0.814712
-0.00860549 2.44608 -1.05125
-0.519907 1.63374 -2.31948
-0.31339 1.99884 -2.93508
-0.518224 2.72365 -2.40771
-0.315264 1.68237 -0.712659
-0.449996 2.66952 -1.93917
-0.175907 2.40076 -1.17657
-0.572976 2.42456 -1.98473
-0.141322 2.16224 -0.922739
-0.531242 1.7538 -2.38497
-0.630654 2.18689 -1.86183
-0.589932 0.86061 -0.7236
-0.460857 1.01133 -1.82612
-0.249192 1.78225 -2.86414
-0.519221 1.38545 -2.1099
-0.4932 2.64757 -2.04454
-0.0260922 1.06993 -2.44889
-0.53115 1.14925 -1.84915
-0.51541 0.934905 -1.62728
-0.577841 1.63181 -1.05332
-0.505709 2.48049 -1.81585
-0.437268 0.553986 -1.2163
-0.520657 2.53025 -2.71777
-0.679197 1.35044 -1.63065
-0.541835 0.748627 -1.28464
-0.53634 0.607352 -0.678868
0.00026163 2.8975 -1.48965
-0.67342 1.32188 -1.10486
-0.54718 0.799179 -1.35471
-0.502505 1.08689 -1.83654
-0.632231 1.96399 -1.52408
-0.179711 1.19911 -2.41964
-0.637025 1.06468 -1.46107
-0.482749 0.683592 -1.3344
-0.0363382 3.02181 -1.66968
-0.193966 2.65414 -1.45713
-0.131586 0.877404 -2.12019
-0.0624022 2.64145 -1.2911
-0.693318 1.73282 -1.56076
-0.467723 1.5112 -0.776923
-0.122428 1.1586 -2.44208
-0.143719 1.27255 -2.5349
-0.500589 2.4131 -1.70714
-0.324788 3.11168 -2.31318
-0.465121 1.57771 -0.820686
-0.682033 1.37816 -1.1739
-0.636212 1.86024 -1.41682
-0.538158 1.53679 -2.20482
-0.322469 2.17334 -1.13368
-0.610615 2.31239 -2.30131
-0.390316 0.927829 -1.8437
-0.348264 1.44987 -2.44783
-0.40269 0.481764 -1.16117
-0.408283 1.86899 -0.972855
-0.507321 1.83654 -1.09512
0.153195 3.78942 -2.39287
-0.609441 1.25925 -0.872425
-0.240558 1.44899 -2.58989
-0.357598 1.74808 -0.810475
-0.463014 1.55353 -0.800191
-0.432254 2.02417 -1.14585
-0.0487692 0.4937 -1.71483
-0.146711 1.64995 -0.527846
-0.0472489 1.79749 -3.11869
-0.310194 1.68252 -2.70138
-0.31223 1.80246 -0.801016
-0.621568 1.35964 -0.958048
-0.661505 1.01317 -1.038
-0.548213 1.12971 -1.79144
-0.481016 1.18858 -0.599999
-0.488795 1.56764 -2.32576
-0.163434 1.08186 -2.31493
-0.391405 2.20147 -1.25652
-0.673392 1.65793 -1.90681
-0.0677833 3.26049 -2.00483
-0.547378 1.92174 -1.24987
-0.509315 1.84335 -1.10465
-0.610735 1.1488 -0.826265
-0.676008 1.46225 -1.19845
-0.418247 2.95972 -2.35897
-0.075816 0.827374 -2.12127
-0.664871 1.94275 -2.0481
-0.686558 1.32732 -1.5634
-0.285742 2.29677 -3.16627
-0.100197 2.91953 -1.63249
-0.414874 2.16543 -1.25629
-0.666498 2.02519 -1.98364
-0.505348 2.49905 -1.84238
-0.49378 0.557109 -1.05262
-0.491121 1.9346 -2.58725
-0.528081 1.19126 -1.90054
-0.587995 2.33301 -1.8874
-0.580358 1.09111 -0.732339
-0.522913 1.44256 -0.81407
-0.483583 1.78861 -2.50474
0.0504945 1.97107 -0.605918
-0.237121 1.51746 -2.6563
-0.573216 2.43568 -2.48799
-0.235672 2.08205 -3.1042
-0.261962 1.39073 -0.461181
-0.421492 1.64893 -2.50745
0.0114198 0.715202 -2.07309
-0.553962 2.45452 -2.58604
-0.703578 1.63996 -1.57175
0.00517602 1.12301 -2.53707
-0.0207748 0.508204 -1.76574
-0.0920794 1.97683 -3.21073
-0.673724 1.73277 -1.94446
-0.554923 0.882727 -0.625453
-0.567015 1.02132 -1.61914
-0.659858 2.04604 -2.05452
-0.468423 1.23625 -0.606981
-0.444381 2.03804 -2.74175
-0.620762 1.26535 -0.90382
-0.225864 1.03352 -2.18892
-0.361643 1.58274 -0.692222
-0.490442 0.531441 -0.998909
-0.551572 1.04077 -1.68013
-0.326309 2.48069 -1.45228
-0.489283 1.39175 -2.17146
-0.513466 0.592899 -1.06205
-0.611697 1.79857 -1.27946
-0.665034 1.48841 -1.17337
-0.582861 1.00014 -0.711313
-0.699173 1.72763 -1.70013
-0.608953 2.32653 -2.0158
-0.529828 0.73176 -0.56945
-0.207663 2.5171 -1.3296
-0.562765 2.36926 -1.83769
-0.601394 2.31084 -1.91984
-0.528838 1.96135 -2.52228
-0.646006 1.77768 -2.08877
-0.653197 0.967795 -1.17839
-0.704787 1.60643 -1.62165
-0.07641 2.26182 -3.43512
-0.371068 2.07268 -2.89293
-0.120102 1.29761 -2.586
-0.0245154 3.04987 -1.68746
-0.248866 0.859312 -1.95936
-0.634939 1.54979 -1.12409
-0.237736 2.0921 -0.960349
-0.664786 1.84041 -1.51004
-0.362491 1.13294 -2.11662
-0.24205 2.2011 -1.06269
-0.399848 1.17261 -2.10314
-0.0264175 2.38412 -1.01114
-0.266261 1.77393 -2.83484
-0.68641 1.40779 -1.64954
-0.132293 2.77567 -1.51168
-0.253137 2.14089 -3.11906
-0.212832 2.63692 -1.46307
-0.216856 1.56036 -0.528455
-0.606719 1.55355 -2.05968
-0.20388 2.39101 -1.19876
-0.333436 2.13325 -2.99234
-0.00914996 1.09189 -2.48959
-0.396835 1.68518 -2.57573
-0.279731 2.37109 -3.21763
-0.486617 1.16695 -1.95377
-0.133311 2.40311 -1.1329
-0.465029 1.09002 -0.529826
-0.601338 2.16928 -1.68178
-0.583328 0.700833 -0.922157
-0.393604 0.598295 -1.38613
-0.397302 0.935692 -1.84222
-0.661484 2.06686 -1.90566
-0.574871 2.51078 -2.29943
-0.432318 1.51784 -2.38081
-0.0501904 2.29666 -0.954782
-0.576518 2.41437 -2.47943
-0.678893 1.61295 -1.33247
-0.458177 1.22273 -0.585446
-0.333952 2.04031 -1.02599
-0.68624 1.52094 -1.74859
-0.227985 2.67924 -1.53044
-0.654074 1.17336 -1.5388
-0.644577 2.05709 -2.17398
-0.636099 1.10762 -1.524
-0.0583434 2.65016 -1.29559
-0.692724 1.56344 -1.36444
-0.64206 1.47445 -1.89224
-0.596699 1.74814 -1.19444
-0.485641 0.927616 -0.500664
-0.40373 2.3884 -1.47488
-0.684324 1.89681 -1.80963
-0.551041 1.29777 -1.96202
-0.113731 3.00548 -1.75126
-0.0763817 1.56501 -0.413389
-0.0591424 3.11184 -1.8051
-0.128 2.76715 -1.49705
-0.104157 1.11881 -2.41999
0.0780009 3.60549 -2.24886
-0.395131 0.518916 -1.24842
-0.588666 1.50832 -2.06872
0.0946109 1.92574 -0.540155
-0.667488 1.40194 -1.12445
-0.328465 1.62805 -0.687371
-0.580683 1.83011 -2.31972
-0.0944058 2.00881 -0.751783
-0.211333 1.60733 -0.555456
-0.572551 0.902143 -0.670707
-0.260873 1.72304 -0.685994
-0.418734 1.3095 -0.582556
-0.443193 1.06352 -1.91623
0.153626 1.80533 -0.41407
-0.454146 2.38536 -1.56596
-0.350909 1.34604 -2.34752
-0.0387707 0.63518 -1.91913
-0.145459 2.23002 -3.32579
-0.478987 1.25412 -0.631834
-0.207366 1.47105 -0.461172
-0.600235 1.20861 -1.75437
-0.0873843 0.518101 -1.70624
-0.422673 2.16927 -2.85804
-0.0150048 1.63809 -0.415654
-0.260244 1.63433 -2.72847
-0.446665 2.34696 -1.50596
-0.167415 0.82622 -2.01826
-0.645292 2.0561 -1.7149
-0.604442 1.09693 -0.791865
-0.134866 2.56318 -1.29105
-0.409047 1.26289 -2.18103
-0.184237 0.899419 -2.08593
-0.486489 1.13074 -0.579878
-0.233649 2.07827 -0.943918
-0.574489 0.697269 -0.770341
-0.204007 0.905121 -2.06919
-0.557462 1.47872 -2.11511
-0.233091 1.32208 -0.393157
-0.516117 0.533216 -0.754244
-0.624679 0.84034 -1.05991
-0.525253 2.6997 -2.39876
