ply
format ascii 1.0
comment Created by Open3D
element vertex 400
property double x
property double y
property double z
end_header
0.46626 2.05907 1.27734
-0.48218 2.65908 2.00017
-0.08911 2.82793 2.00724
0.80706 2.46114 2.16564
-0.38027 2.86535 2.19717
-0.04899 1.29045 0.41871
-0.35384 2.80805 2.09649
-0.46041 1.9524 1.16495
-0.75434 2.03781 1.6072
0.17648 1.8384 0.87607
-0.30012 1.44908 0.61503
0.38198 2.16219 1.31468
-0.90157 2.98925 3.04674
0.19272 2.60924 1.73918
-0.38494 2.88636 2.23095
-0.21283 2.97322 2.2553
0.80447 2.40134 2.08877
0.78584 1.79262 1.42092
-0.34277 2.65699 1.88239
-0.96531 2.58662 2.60449
0.48479 2.02857 1.26379
-0.63229 1.47249 0.94185
0.05413 2.5773 1.66355
-0.58578 1.7485 1.10745
-0.32016 2.00072 1.10322
0.21093 2.2895 1.35494
-0.72483 2.59552 2.20956
-0.36489 2.58288 1.80096
-0.92638 1.53624 1.44819
-0.58607 2.13628 1.48439
0.15776 2.20103 1.23602
0.85193 2.78867 2.66995
-0.5917 1.81585 1.17444
0.55085 2.35279 1.68735
0.9218 1.71029 1.58099
0.06149 1.58002 0.6279
-0.90606 2.08635 1.90917
-0.57142 2.32956 1.68323
-0.45707 1.62879 0.87215
0.03669 1.25727 0.39653
-0.54114 1.63156 0.95833
-0.13885 2.76817 1.93497
-0.29311 2.80723 2.05605
0.52435 2.08822 1.36511
0.74279 1.27243 0.95651
-0.16454 1.64969 0.70744
-0.04973 2.34459 1.37675
-0.04948 2.86239 2.05077
0.25244 1.90975 0.97551
-0.4935 1.31213 0.67397
-0.84144 2.2199 1.94002
0.01695 2.30342 1.32673
0.0031 2.15059 1.15626
0.50545 2.18448 1.44847
0.44826 2.80606 2.16942
0.32624 2.85373 2.14237
0.56106 2.67918 2.1093
-0.04083 1.12195 0.31636
0.51283 1.97282 1.236
0.13327 1.71659 0.75443
0.5824 1.49544 0.89828
0.79165 2.6876 2.43251
0.11 1.99406 1.00617
0.41333 2.20358 1.38478
0.14888 1.61021 0.67036
0.50096 2.63027 1.98054
-0.48791 1.59729 0.87589
0.67642 1.57572 1.07827
-0.57674 1.71941 1.07173
0.67045 1.63302 1.11619
0.03319 2.27192 1.2915
-0.132 1.19087 0.37197
-0.67236 2.41704 1.91258
-0.93181 2.18572 2.0626
0.18161 1.41858 0.53607
0.39078 2.71524 1.99584
-0.50643 1.08351 0.54997
-0.65121 1.22662 0.80023
-0.48099 2.02663 1.25816
-0.8066 2.09731 1.75027
0.0149 1.41025 0.49742
-0.4326 2.19936 1.39644
0.61398 2.04065 1.41804
-0.23172 1.64882 0.73335
-0.06826 1.01033 0.25985
-0.37339 1.78916 0.9397
-0.45751 2.94899 2.38345
-0.75529 2.52302 2.16187
-0.81942 1.01977 0.93143
0.02426 2.68623 1.80455
-0.11451 1.84607 0.86511
-0.90766 2.80233 2.78711
-0.94608 2.22332 2.13086
0.48449 1.61135 0.88384
-0.44403 2.79079 2.1443
-0.99724 1.95469 1.94968
0.61686 1.8082 1.19792
0.95399 2.8988 3.01086
0.24571 1.57925 0.68388
0.21909 1.61664 0.70138
0.04176 1.25193 0.39357
-0.2143 2.01022 1.05617
0.57897 1.62175 0.99273
-0.39728 1.24642 0.54622
0.60463 1.35354 0.82359
0.9247 1.67606 1.55737
-0.22189 2.00138 1.05061
-0.88612 1.90228 1.68987
0.96998 1.39713 1.42885
-0.84287 2.17856 1.89696
-0.60643 2.12181 1.49328
0.6326 1.24566 0.78809
-0.0717 1.50856 0.57408
-0.1022 2.4884 1.55848
0.8653 1.87299 1.62576
0.77781 1.07976 0.89646
-0.80888 2.26137 1.93272
0.07001 1.40278 0.49685
-0.29848 1.81565 0.91324
-0.04148 2.3947 1.43537
-0.68674 2.54946 2.09654
0.87721 2.87276 2.83269
0.44565 1.8623 1.06565
0.57048 1.77097 1.10953
0.2034 1.98721 1.02862
-0.30661 1.76272 0.8708
-0.75565 2.0382 1.60957
-0.16475 1.17193 0.3705
0.7901 2.67119 2.40807
0.1954 1.66423 0.73059
-0.46141 1.75161 0.97993
-0.63517 2.48259 1.94425
0.63194 1.63756 1.06974
0.97187 1.13328 1.26561
-0.60017 1.8111 1.18022
0.6843 1.69071 1.18289
-0.77222 1.08814 0.89234
-0.28877 1.23325 0.46361
0.77959 2.2759 1.90269
0.68286 1.28719 0.8805
0.236 1.10247 0.35956
-0.80182 1.47872 1.18957
0.84099 1.86871 1.58029
-0.23939 1.29583 0.4771
0.76083 1.18407 0.92937
-0.87354 2.56229 2.40441
0.18673 2.79881 1.99321
-0.91479 2.80794 2.80797
0.90672 2.59951 2.51151
-0.01663 1.49336 0.5578
0.40814 1.60014 0.80669
0.49903 2.24247 1.50619
0.64189 1.96181 1.37419
-0.81666 1.45517 1.19631
-0.96372 1.87791 1.8104
0.77602 2.77015 2.52065
-0.08831 2.68581 1.8112
0.37138 1.05784 0.41768
-0.78598 1.41511 1.1184
-0.23104 2.33214 1.4131
0.44985 2.41039 1.65486
-0.97284 1.3532 1.40421
-0.33162 1.67372 0.8103
0.0467 2.29409 1.3179
0.70636 1.87156 1.37463
-0.54517 2.97837 2.51489
0.07866 2.61213 1.71199
-0.51839 1.05357 0.54623
0.95528 1.84253 1.76128
0.71603 2.97878 2.73099
0.06546 2.67467 1.79275
0.52353 1.71029 1.00536
0.09789 2.80282 1.97354
-0.85661 1.49345 1.29137
0.19619 2.87338 2.10256
0.02062 2.95772 2.18746
0.29734 1.12351 0.40398
-0.05682 1.40725 0.49831
-0.63699 1.36166 0.86929
-0.41634 1.50611 0.74043
-0.57358 2.88735 2.41319
0.09436 2.6915 1.81995
-0.25135 2.69234 1.87535
0.18459 2.75365 1.92973
0.90613 1.65629 1.5069
-0.41027 1.62434 0.82794
-0.15001 2.55412 1.65338
0.64716 1.18978 0.7727
0.91414 1.99218 1.82785
-0.73009 2.64503 2.28207
0.45538 2.8962 2.30436
-0.52209 2.77964 2.20419
-0.51241 1.14333 0.58936
-0.18922 1.39852 0.52477
0.40983 2.29473 1.48441
0.97508 2.82227 2.94209
-0.80691 2.06326 1.71537
-0.2772 2.81705 2.06079
-0.753 2.46495 2.08601
0.93943 1.1669 1.22294
-0.18758 1.9502 0.98601
0.0699 1.2023 0.36627
0.2648 1.62395 0.72942
-0.86295 2.63953 2.48647
0.71489 1.33371 0.95576
-0.69714 1.39629 0.97341
0.52695 2.38632 1.70131
0.7558 2.8953 2.66692
0.96444 1.94834 1.87916
-0.10025 2.40603 1.4573
-0.05806 1.06464 0.28674
0.00416 2.36213 1.39493
0.75885 2.98934 2.80989
-0.21704 2.7057 1.87731
-0.59107 1.45003 0.875
0.88728 2.04093 1.82861
-0.00899 2.34771 1.37802
-0.47442 1.81253 1.0464
0.02205 1.39426 0.48648
-0.18587 2.97974 2.25427
-0.74504 1.87973 1.43843
-0.54233 1.09975 0.59648
0.5702 2.44339 1.81767
-0.59797 2.63462 2.09286
0.75041 1.91664 1.48149
0.9957 2.14489 2.14155
-0.71496 2.01053 1.52173
0.76002 2.41705 2.03817
0.48084 1.70987 0.96212
0.78088 2.19171 1.81067
-0.60556 1.30534 0.79268
0.89597 2.45968 2.31528
-0.76192 2.11961 1.70371
-0.38504 2.92919 2.2933
-0.08452 1.02932 0.27202
0.20697 2.18924 1.24103
-0.57373 1.43881 0.84672
0.65945 1.73824 1.19025
0.63137 2.16022 1.56527
0.90479 1.30938 1.24727
0.95918 2.6762 2.71054
0.83944 1.68994 1.41863
0.31214 2.24292 1.35511
0.78929 1.75217 1.3905
-0.52061 2.13719 1.41293
0.9535 1.88727 1.7996
0.11384 1.62271 0.67125
0.574 2.45122 1.83161
-0.10271 1.90557 0.91835
-0.52381 1.36611 0.74094
0.45893 2.80826 2.1822
0.95402 2.2901 2.22128
-0.14797 1.74241 0.78089
0.86982 2.09956 1.85862
0.9726 2.57902 2.60878
0.05721 1.81861 0.83011
-0.10711 1.996 1.00748
0.65774 2.53808 2.04308
-0.54822 2.88935 2.38764
0.39451 1.86211 1.0225
0.22801 2.48075 1.59051
-0.45422 1.6638 0.89837
-0.76258 2.48238 2.12207
0.17307 1.63992 0.70228
-0.46694 2.34847 1.59685
0.97157 1.41281 1.44296
0.22685 2.69393 1.86577
0.61103 1.26389 0.77272
-0.54354 1.67336 0.99547
0.67621 1.85612 1.31855
-0.15462 1.70501 0.75067
0.74055 1.38858 1.03046
0.96466 2.53385 2.53567
0.95995 1.03693 1.19031
-0.00483 2.59906 1.6888
0.31458 2.55353 1.72909
0.21173 1.00118 0.29542
0.35129 1.88877 1.01526
-0.21588 1.52043 0.62453
0.43857 1.64543 0.8692
-0.56271 1.69019 1.03083
-0.87179 1.18949 1.11374
-0.44184 2.55522 1.82751
-0.09949 1.04632 0.2836
0.45008 2.2602 1.4797
0.01272 1.88816 0.89144
0.79226 2.16983 1.80471
0.24183 1.58857 0.68937
0.28432 1.7629 0.85779
-0.82439 2.77579 2.60587
-0.25034 2.05409 1.11749
-0.43694 2.13375 1.32914
0.16305 2.46527 1.54597
-0.02252 2.80375 1.96576
-0.49739 2.50025 1.81021
-0.42779 1.1333 0.5041
-0.96957 2.11788 2.06142
0.82013 2.42367 2.14116
0.49338 2.16065 1.41052
0.36197 1.20588 0.49456
-0.64049 2.6864 2.21441
-0.2367 2.6268 1.78105
0.27477 1.20508 0.43855
0.51954 1.83214 1.10911
0.65362 1.09155 0.72508
0.36763 2.09417 1.23154
0.36163 1.63944 0.80272
-0.85272 2.75993 2.63144
0.05207 1.52802 0.58642
0.27311 1.86236 0.94168
0.69082 1.20783 0.84195
-0.19861 2.74255 1.91984
0.0823 1.38895 0.48907
-0.68548 1.16447 0.80889
-0.47533 1.64345 0.90117
0.20109 2.36013 1.43299
-0.90694 1.67373 1.52289
0.82891 2.39542 2.1216
0.91391 1.28616 1.24879
0.69296 2.31016 1.8144
0.29294 2.47084 1.61208
0.81828 2.37734 2.08252
-0.4492 1.66972 0.89877
0.93064 2.99306 3.10568
-0.76605 2.1052 1.6948
0.0394 2.43489 1.48373
-0.63904 2.54706 2.03025
-0.78409 1.39382 1.10048
0.68433 1.99587 1.46418
-0.42791 2.40766 1.63231
0.51172 2.67883 2.05589
-0.10103 1.3622 0.4741
0.72481 2.98545 2.75357
0.93197 1.61201 1.51821
-0.76234 1.28967 0.99698
0.34794 1.27782 0.52927
0.84205 1.27006 1.11232
0.51498 1.2925 0.68285
0.18887 1.11288 0.3453
-0.25724 2.62235 1.78535
0.4603 2.34497 1.5866
-0.89854 2.22784 2.04819
0.37369 2.92717 2.28172
-0.27174 1.5303 0.65929
-0.3057 1.87824 0.97539
-0.10366 2.52105 1.59967
-0.17143 2.30671 1.35962
-0.49109 2.85619 2.28063
0.37466 2.25545 1.41213
-0.96787 2.95204 3.11541
-0.89421 1.32226 1.23671
-0.68757 2.15477 1.63351
0.02754 1.17724 0.34723
0.16609 2.90117 2.13178
0.17357 2.31494 1.36987
0.81042 1.40136 1.14774
-0.61066 1.67144 1.07134
-0.53561 1.32247 0.72411
-0.52603 1.37994 0.75276
-0.49278 1.96981 1.21287
-0.94738 1.80976 1.71634
-0.23199 1.0555 0.33234
0.50988 2.57777 1.92121
0.81236 1.55982 1.26818
-0.4068 1.01678 0.42394
0.94323 2.41222 2.34438
0.69397 1.4672 1.01976
0.04641 2.37257 1.40943
0.55404 2.67996 2.10251
-0.65518 2.93194 2.57833
-0.49551 1.21616 0.61529
0.30234 1.43104 0.60338
0.75712 2.41449 2.03067
0.42015 1.55551 0.78143
-0.52477 1.4311 0.7874
0.62553 1.7567 1.16278
0.08256 2.26022 1.28396
-0.69619 2.4445 1.97858
0.29021 2.90346 2.19174
-0.07917 2.19978 1.21602
-0.98988 1.24305 1.36615
-5e-05 2.06688 1.068
0.38386 1.44084 0.66635
0.91239 2.86371 2.88266
-0.03208 2.97103 2.20779
-0.2617 2.83839 2.08261
0.21561 2.75254 1.94061
0.32836 2.27541 1.40219
-0.61243 1.21369 0.74333
-0.16168 2.94041 2.18765
0.80009 2.06067 1.70174
0.54994 2.72377 2.15717
0.15071 2.69456 1.83788
-0.64258 2.84788 2.44051
-0.26865 2.33221 1.43198
-0.7133 2.01397 1.52282
0.89128 2.08657 1.88282
-0.0232 2.22819 1.24175
0.23955 1.98522 1.04266
0.35599 2.23879 1.37977
