ply
format ascii 1.0
comment Created by Open3D
element vertex 250
property double x
property double y
property double z
end_header
0.632978 -0.538404 -1.10615
2.4621 -1.52083 -0.907185
2.14801 -1.26323 0.0701399
0.836694 -0.262525 0.180667
1.23873 -0.669561 0.326528
0.871634 -0.548533 0.388743
0.625225 -0.219138 0.220608
2.8689 -2.36452 0.0088506
-0.0200493 -0.543483 -1.26354
-1.58792 -0.88199 -0.0965346
0.451939 -0.126419 0.162769
-0.391982 -0.385401 -1.09132
3.43212 -3.16266 -0.229346
0.229814 -0.210702 -0.794713
1.21907 -0.541748 0.246235
1.84742 -0.894237 -0.712183
-0.677865 -0.0962734 -0.131055
1.4759 -0.501384 -0.328046
0.501033 -0.504131 -1.10979
0.890858 -0.164563 -0.183518
2.02719 -1.22431 -1.03816
0.341041 -0.00974354 -0.0494444
-1.48612 -0.700991 -0.12762
-0.502567 -0.37812 0.257831
1.27556 -0.383605 -0.365744
0.433944 -0.381954 -0.978279
-1.67202 -0.655746 -0.846629
-0.109851 -0.186656 0.23253
4.13467 -4.44113 -0.556217
-0.20846 -0.173381 0.202193
-1.34544 -1.03936 -1.65099
-1.76521 -1.05564 -0.155935
-0.872423 -0.154003 -0.508358
-0.527082 -0.436082 0.279628
0.320906 -0.455648 -1.10198
-0.634284 -0.0556592 -0.346503
1.14092 -0.287135 -0.222501
4.0233 -3.70453 -1.37135
4.24967 -4.0858 -1.34161
1.98655 -0.927407 -0.164604
4.56945 -4.78564 -1.17106
-1.31329 -0.543107 -1.03018
1.65231 -0.625326 -0.310745
2.22299 -1.16453 -0.201818
-0.632111 -0.0934488 -0.0917107
3.67923 -3.24248 -0.557506
1.33265 -0.491402 0.103828
3.81954 -3.34993 -0.827035
4.20749 -4.07456 -1.5799
-0.206674 -0.345304 -1.04101
-0.482349 -0.0491495 -0.485231
2.96456 -2.3902 -1.47365
4.37137 -4.66373 -2.1601
3.68277 -3.13949 -0.713868
1.80059 -1.05417 0.230641
3.08895 -2.578 -0.117974
-0.346925 -0.39066 0.309829
-0.163461 -0.217609 0.246867
-0.035453 -0.374451 -1.06598
0.527224 -0.062071 0.00267873
4.39243 -4.84398 -0.742867
3.75616 -3.20824 -0.965654
3.61038 -3.04627 -0.63187
3.29339 -2.89704 -0.19268
0.970909 -0.203159 -0.233008
4.22426 -4.04251 -1.16024
0.601399 -0.164752 -0.563132
1.31478 -0.58829 -0.783356
-0.841825 -0.284313 -0.854172
4.35535 -4.52806 -1.99937
3.45931 -2.80054 -0.570343
-0.0345115 0.0339432 -0.179313
2.51699 -1.57584 -0.123188
-0.481848 -0.179755 -0.781387
0.573235 -0.339871 0.332669
0.0532445 -0.0444401 0.0932974
3.31665 -2.56433 -1.06091
4.35786 -4.28733 -1.33237
-1.54926 -0.536928 -0.693452
1.57843 -0.907516 -1.02819
-1.15273 -0.4727 -0.0223598
0.760557 -0.120435 -0.0626807
-0.33172 -0.427218 -1.14516
0.480221 -0.027044 -0.147189
0.427576 -0.0375903 -0.339312
-0.0939829 -0.0261757 0.045073
1.52094 -0.788119 0.247332
1.48623 -0.771092 -0.914826
-1.63848 -0.601046 -0.551632
1.05193 -0.582463 0.351713
2.85589 -2.0384 -0.187859
3.58589 -3.08059 -0.52204
0.949655 -0.298549 0.159351
-0.27412 -0.0457574 -0.54004
2.65693 -1.62759 -0.428217
0.53494 -0.506665 0.427239
0.515347 -0.0905843 0.0817362
0.135447 0.0238109 -0.252009
-1.61488 -0.604036 -0.445028
1.49879 -0.789569 -0.930849
-0.627081 -0.153116 -0.690218
2.80729 -1.81023 -0.625932
2.15432 -1.07012 -0.298105
0.166421 -0.109075 -0.63765
0.906942 -0.569724 -1.0273
1.22987 -0.390427 0.0495232
1.51516 -0.750069 -0.85681
1.93233 -1.31642 0.28155
-1.73432 -0.748574 -0.392439
2.91039 -2.39483 -0.0177985
1.63616 -0.624751 -0.119888
2.15346 -1.08356 -0.521818
1.5603 -1.01925 -1.18422
2.93112 -2.0893 -0.270292
2.82175 -1.85486 -0.779275
-0.358156 -0.400847 -1.11204
3.49818 -3.18633 -0.298664
-1.64787 -0.702931 -1.01074
2.14615 -1.47146 0.208042
3.28902 -2.863 -1.63191
2.71952 -1.94431 -1.19797
-1.209 -0.303858 -0.49351
2.45567 -1.49382 -0.119701
4.0412 -3.77583 -1.49383
-1.12755 -0.25797 -0.418174
4.02308 -3.79798 -1.6028
-1.56722 -0.681351 -1.05929
-0.861831 -0.747084 -1.45953
-1.56452 -0.564295 -0.427726
2.541 -1.57854 -0.864709
-0.733906 -0.256112 -0.846915
1.34155 -0.485264 -0.557033
-0.981291 -0.556662 -1.20733
3.83496 -3.67768 -0.501796
3.90274 -3.45889 -1.12465
-0.727008 -0.641673 -1.36436
0.956102 -0.197005 -0.102258
1.02598 -0.240161 -0.310396
2.8457 -1.99106 -1.05287
4.41381 -4.40979 -1.51767
-0.584942 -0.0408636 -0.319425
2.42611 -1.54922 -0.0142847
1.59216 -0.995011 -1.13089
3.86575 -3.86273 -0.449026
1.8433 -0.828134 -0.0573713
2.67395 -1.72003 -0.235539
0.61118 -0.0833995 -0.00410334
2.05233 -0.974024 -0.432289
-1.0462 -0.421905 0.0154913
4.30362 -4.46751 -0.802317
4.46739 -4.59628 -1.80079
2.75098 -2.04276 -0.0390465
-0.810339 -0.230833 -0.00625971
-0.241585 -0.0549532 0.0571089
3.01769 -2.08727 -0.698048
-0.428894 -0.402485 0.293426
0.344653 -0.00635034 -0.070758
1.1126 -0.689325 0.3871
-0.750222 -0.167081 -0.662207
1.94385 -0.895594 -0.514353
-1.28019 -0.447821 -0.170097
-0.404586 -0.0174222 -0.407402
-0.558187 -0.352827 -1.03342
2.3347 -1.282 -0.232418
-1.00487 -0.201641 -0.314165
-1.08219 -0.237616 -0.488065
2.07172 -1.0507 -0.655543
2.98066 -2.30925 -0.147318
-0.454331 -0.0282703 -0.422436
2.8588 -1.88989 -0.738976
4.50891 -4.65274 -1.15325
3.14077 -2.26703 -0.593587
3.24435 -2.46421 -1.04676
0.428653 -0.484337 -1.10777
1.12374 -0.286965 -0.0715788
0.631936 -0.268223 -0.736034
1.5357 -0.578008 -0.48122
1.12956 -0.383858 0.140848
1.74211 -0.900863 -0.862003
-1.02346 -0.722073 -1.39635
1.35804 -0.463337 0.0228015
1.8011 -0.745821 -0.345307
2.35842 -1.34539 -0.153854
0.275179 0.00962971 -0.229041
4.10396 -3.81429 -1.21358
3.56091 -2.95479 -0.628863
0.111012 -0.122676 -0.675646
-1.04331 -0.602209 -1.24586
-1.18877 -0.351583 -0.748469
3.156 -2.70206 -0.130871
-1.49428 -0.766128 -1.2532
-0.758732 -0.742054 -1.47007
0.0561471 -0.168961 -0.764909
4.15917 -4.21764 -0.703474
3.77274 -3.46716 -0.542302
-1.29489 -0.413718 -0.782574
2.20868 -1.21786 -0.767518
-0.738812 -0.0961308 -0.222338
-0.913164 -0.299015 -0.00350409
-0.22647 -0.23863 0.248989
-0.940095 -1.8997 -2.49859
0.0799572 -0.934354 -1.65031
0.410097 -3.81289 -3.79429
-0.831119 -4.4564 -4.31112
-0.860928 -7.06926 -5.92163
-0.988852 -6.43969 -5.54598
-0.77198 -1.50522 -2.1854
-0.540349 -3.95819 -3.98131
0.193627 -3.55183 -3.6504
0.178769 -1.7521 -2.34249
-0.447174 -1.01662 -1.76263
0.0885374 -2.42152 -2.86774
-0.652551 -1.16584 -1.8944
-0.54883 -1.43087 -2.13038
0.382445 -3.87592 -3.84067
0.0688822 -3.45668 -3.60126
-1.06469 -1.43089 -2.09083
-0.0346394 -4.98902 -4.61243
-1.13713 -3.44157 -3.62331
-0.483893 -4.08024 -4.05978
-0.305099 -6.25822 -5.41616
-0.56092 -1.42593 -2.12602
-1.15365 -3.70666 -3.804
-1.18702 -2.74613 -3.12441
-0.21595 -6.72818 -5.69143
-0.795621 -7.12373 -5.95294
-0.564887 -1.97336 -2.5713
0.487354 -4.37498 -4.15191
-0.859685 -6.11334 -5.3486
0.150195 -0.808539 -1.51782
-0.0490544 -5.06495 -4.66159
0.0471162 -0.835819 -1.55965
0.10143 -0.983242 -1.69339
-0.962338 -6.43587 -5.54384
-0.729896 -5.35491 -4.88072
0.336563 -5.05091 -4.6071
-1.16095 -3.90537 -3.93784
-1.21056 -3.0678 -3.35507
-1.33339 -2.79884 -3.1471
-0.0811771 -1.11302 -1.83399
-0.555941 -2.56896 -3.0201
0.104882 -6.46603 -5.50495
-1.22618 -5.0976 -4.71111
-0.624806 -7.41564 -6.12007
0.0851243 -2.56777 -2.97529
-1.00041 -5.55737 -5.00659
0.212489 -1.26117 -1.92754
-0.34459 -6.35288 -5.47574
-0.735123 -6.53874 -5.60373
-0.590167 -3.02151 -3.34469
