ply
format ascii 1.0
comment Created by Open3D
element vertex 250
property double x
property double y
property double z
end_header
0.36226 -1.19198 -0.601718
2.2685 -1.98823 -0.314184
2.20566 -1.12403 0.293591
0.876879 -0.16551 0.0728456
1.34329 -0.417131 0.333104
0.996242 -0.247702 0.397367
0.680796 -0.0849788 0.129968
2.99309 -2.06469 0.774636
-0.304821 -1.23098 -0.532983
-1.4546 -0.560123 0.937616
0.48969 -0.0352795 0.0753884
-0.630567 -0.961397 -0.413832
3.55035 -2.87723 0.975212
0.026728 -0.700995 -0.486487
1.28951 -0.371689 0.198151
1.66807 -1.32724 -0.419311
-0.674283 -0.0876255 0.153653
1.37575 -0.743179 -0.303795
0.231439 -1.15499 -0.59098
0.820027 -0.335563 -0.263325
1.7861 -1.80636 -0.482826
0.314042 -0.0749246 -0.120882
-1.38432 -0.455221 0.769845
-0.372086 -0.0631111 0.565327
1.1616 -0.658726 -0.353182
0.190163 -0.970493 -0.559648
-1.76149 -0.871753 0.282175
-0.0228883 0.0232913 0.316088
4.2667 -4.12237 1.38917
-0.126852 0.0236398 0.312648
-1.62685 -1.71875 -0.124358
-1.62238 -0.710808 1.05703
-0.956615 -0.357261 -0.0227801
-0.38365 -0.0898047 0.625238
0.056131 -1.09487 -0.56839
-0.695077 -0.202426 -0.0370176
1.0615 -0.478853 -0.278482
3.86326 -4.0909 0.361715
4.12745 -4.38087 0.570563
1.95284 -1.0088 -0.0480918
4.55214 -4.82744 1.06182
-1.47948 -0.944333 -0.0182734
1.5621 -0.843101 -0.258327
2.19361 -1.23544 0.0165251
-0.620137 -0.0645423 0.167247
3.70632 -3.17706 0.728442
1.35447 -0.438722 0.0338299
3.77881 -3.44826 0.570085
4.02143 -4.52374 0.406144
-0.443748 -0.91765 -0.454601
-0.587873 -0.303906 -0.180479
2.68615 -3.06235 -0.282758
4.08229 -5.36162 0.336421
3.65673 -3.20234 0.549639
1.89493 -0.826409 0.364522
3.19149 -2.33044 0.764874
-0.20775 -0.0546642 0.56817
-0.0671142 0.0149943 0.360953
-0.28361 -0.973554 -0.499549
0.511763 -0.0993992 -0.100222
4.50462 -4.57314 1.45061
3.66596 -3.42599 0.396655
3.59999 -3.07136 0.566311
3.39999 -2.6397 0.865153
0.88725 -0.40513 -0.294767
4.14772 -4.22728 0.677405
0.440281 -0.553724 -0.453302
1.10733 -1.08912 -0.525375
-1.00741 -0.684076 -0.190458
4.09641 -5.15321 0.365784
3.4466 -2.83123 0.490168
-0.0850678 -0.0881105 -0.139629
2.53888 -1.523 0.261271
-0.654007 -0.595385 -0.304707
0.673862 -0.0969376 0.302148
0.0808086 0.0221058 0.0805952
3.15285 -2.95977 0.0275733
4.25437 -4.53718 0.679478
-1.61485 -0.695285 0.279646
1.32647 -1.51578 -0.561293
-1.06038 -0.249764 0.604921
0.723444 -0.210033 -0.171449
-0.583131 -1.03418 -0.440897
0.422594 -0.166167 -0.216358
0.321311 -0.294136 -0.331074
-0.0750444 0.0195458 0.0744031
1.60425 -0.587011 0.278189
1.25478 -1.32986 -0.54531
-1.65523 -0.641486 0.445958
1.1623 -0.316011 0.34456
2.89364 -1.94726 0.426017
3.60982 -3.02281 0.67302
0.982957 -0.218151 0.0507395
-0.403758 -0.35873 -0.277797
2.59563 -1.77557 0.0415179
0.680071 -0.156286 0.488344
0.52474 -0.0679074 -0.0224786
0.058978 -0.160801 -0.230404
-1.60348 -0.576529 0.516905
1.26438 -1.35549 -0.547968
-0.7711 -0.500807 -0.218343
2.70496 -2.05729 -0.0196563
2.09206 -1.22043 -0.0946548
-0.00196877 -0.515605 -0.424664
0.649052 -1.19232 -0.599636
1.23095 -0.387825 -0.0427234
1.29599 -1.27919 -0.52585
2.06195 -1.00348 0.536194
-1.6886 -0.638209 0.680837
3.02873 -2.10913 0.764367
1.59824 -0.716315 -0.119378
2.0321 -1.37656 -0.243837
1.27847 -1.69964 -0.59373
2.94861 -2.04708 0.380621
2.68192 -2.19243 -0.102845
-0.6022 -0.990023 -0.427549
3.59727 -2.9471 0.923779
-1.7779 -1.01685 0.190423
2.26276 -1.18993 0.527643
3.00283 -3.55394 -0.17359
2.48004 -2.52246 -0.31281
-1.25922 -0.425098 0.176694
2.47264 -1.45286 0.226742
3.85463 -4.22624 0.316843
-1.16563 -0.349901 0.177947
3.8101 -4.31217 0.259163
-1.71608 -1.04074 0.120168
-1.14245 -1.42455 -0.310775
-1.55472 -0.540636 0.489552
2.36148 -2.01193 -0.267801
-0.905079 -0.669359 -0.232952
1.18353 -0.866769 -0.439889
-1.20826 -1.10461 -0.224518
3.91552 -3.4832 1.01
3.78919 -3.73302 0.408308
-0.99857 -1.29728 -0.348828
0.907821 -0.313565 -0.202327
0.92285 -0.48914 -0.340219
2.64491 -2.4758 -0.213806
4.27046 -4.75588 0.613307
-0.642056 -0.178749 -0.0408881
2.47861 -1.42248 0.345477
1.32089 -1.64992 -0.580472
3.97842 -3.5907 1.15988
1.83447 -0.849461 0.00164294
2.67364 -1.72079 0.233544
0.59249 -0.12852 -0.113802
1.94819 -1.22545 -0.224719
-0.953439 -0.197972 0.569675
4.36454 -4.32043 1.18667
4.26444 -5.08625 0.520443
2.83395 -1.84245 0.56248
-0.753371 -0.0933008 0.365649
-0.210079 0.0211103 0.141655
2.91551 -2.33397 0.0534018
-0.289419 -0.0657607 0.586477
0.311381 -0.0866777 -0.139147
1.24101 -0.379322 0.422976
-0.879932 -0.48023 -0.156092
1.81403 -1.209 -0.30463
-1.22494 -0.314419 0.518695
-0.49567 -0.237318 -0.167215
-0.77735 -0.881933 -0.349201
2.30442 -1.3551 0.0413968
-1.0259 -0.252411 0.181496
-1.14324 -0.384991 0.102955
1.91427 -1.43081 -0.337738
3.05208 -2.13683 0.597857
-0.546226 -0.250125 -0.157298
2.73191 -2.19621 -0.061492
4.48524 -4.70987 1.00397
3.08019 -2.41329 0.211396
3.07712 -2.86795 -0.00826967
0.160661 -1.13133 -0.582894
1.08588 -0.378352 -0.167226
0.433436 -0.747443 -0.51623
1.39946 -0.906905 -0.378228
1.15898 -0.31285 0.044704
1.52742 -1.41918 -0.492423
-1.28264 -1.34778 -0.238709
1.35394 -0.473237 -0.0486701
1.70764 -0.971459 -0.244313
2.35495 -1.35377 0.13194
0.2004 -0.170902 -0.24271
3.99452 -4.07851 0.523149
3.54398 -2.99566 0.522062
-0.0638745 -0.54489 -0.427651
-1.27332 -1.15751 -0.205225
-1.30391 -0.629546 0.0221148
3.26502 -2.43886 0.818662
-1.68996 -1.23855 0.0186974
-1.04714 -1.43834 -0.349416
-0.135748 -0.632236 -0.445687
4.22716 -4.05349 1.13241
3.82321 -3.34533 0.860671
-1.40827 -0.687439 0.0673065
2.03236 -1.64351 -0.344777
-0.757332 -0.140841 0.105505
-0.843979 -0.131989 0.439963
-0.124669 0.00713886 0.393237
-1.37917 -2.95971 -0.271344
-0.273287 -1.78716 -0.578183
-0.239382 -5.38088 -0.303044
-1.50058 -6.07261 0.0877572
-1.69433 -9.08128 0.663958
-1.78032 -8.35045 0.55291
-1.17436 -2.47666 -0.353086
-1.18462 -5.51361 -0.0831838
-0.434664 -5.06866 -0.313269
-0.281337 -2.8629 -0.560152
-0.799682 -1.86766 -0.461222
-0.440507 -3.69875 -0.469817
-1.01646 -2.04438 -0.401346
-0.953594 -2.40805 -0.423134
-0.271872 -5.45559 -0.287185
-0.550616 -4.95228 -0.306933
-1.43663 -2.32882 -0.255563
-0.764638 -6.7514 0.00712999
-1.71243 -4.83047 -0.00605424
-1.13918 -5.66225 -0.0742122
-1.10955 -8.20035 0.34114
-0.964497 -2.40025 -0.420006
-1.74969 -5.14562 0.0438328
-1.69719 -3.9778 -0.0940892
-1.05005 -8.74188 0.429381
-1.63466 -9.14935 0.659734
-1.0321 -3.1013 -0.376171
-0.204006 -6.04407 -0.209631
-1.63707 -7.99012 0.444332
-0.183241 -1.61352 -0.585702
-0.783874 -6.83897 0.0258746
-0.29039 -1.65063 -0.569562
-0.25933 -1.85419 -0.582517
-1.75475 -8.34894 0.544761
-1.46478 -7.12909 0.244583
-0.401507 -6.83277 -0.0491217
-1.77231 -5.38132 0.0809893
-1.74883 -4.3673 -0.0406847
-1.83796 -4.01699 -0.0360933
-0.458713 -2.02447 -0.54775
-1.0833 -3.84212 -0.306845
-0.719665 -8.45666 0.303172
-1.92053 -6.7739 0.330715
-1.48617 -9.49516 0.68603
-0.457733 -3.87834 -0.449404
-1.73679 -7.33514 0.361042
-0.187615 -2.2271 -0.596577
-1.15367 -8.30618 0.37153
-1.54284 -8.48874 0.508125
-1.15703 -4.39005 -0.23146
