ply
format ascii 1.0
comment Created by Open3D
element vertex 400
property double x
property double y
property double z
end_header
-0.298306 0.748586 1.71476
-1.60055 2.29343 2.24818
-0.222457 1.11182 1.30037
-1.49714 1.5689 0.844507
-0.715361 0.839561 2.41686
-0.420537 0.874577 1.93108
-0.780228 1.23013 0.536464
-0.424902 1.30513 1.70821
-1.55389 2.28493 2.3426
-2.547 2.54511 2.36759
-0.168081 0.558701 1.45277
-0.51711 1.47759 1.17873
-1.54439 1.9297 1.34984
-1.35281 2.15123 2.04928
-1.08325 1.94198 1.66143
-0.298042 0.263582 1.65275
-0.175422 0.703462 1.45932
-2.2206 2.27779 1.86411
-0.141491 0.884391 0.558912
-1.84246 1.9604 1.36217
-0.489039 1.44917 1.65281
-0.660885 1.6467 1.74215
-1.15428 1.97983 1.68416
-0.44899 1.39893 1.09034
-0.165348 0.946858 0.621481
-0.525483 1.37155 1.89548
-1.52629 1.56659 0.841278
-1.15507 1.7798 2.76872
-1.0958 1.7468 1.17654
-1.14723 1.62133 2.87355
-0.535937 0.590877 2.12294
-1.07629 1.8762 1.46773
-1.0272 1.37782 0.656568
-1.3186 2.09671 1.86339
-0.899088 1.45796 0.793746
-0.671425 1.49099 0.977589
-1.52732 2.27248 2.54947
-1.06544 1.58884 2.76242
-0.0949568 0.897647 1.08299
-0.83536 1.30955 0.617029
-1.20053 1.8076 1.24062
-0.895889 1.21085 2.64913
-1.86215 2.23332 1.84578
-0.900295 1.83718 1.62752
-1.33236 2.14697 2.08793
-0.696084 1.12727 0.443101
-0.879891 1.46209 2.52897
-0.865721 1.6847 1.20484
-1.44113 1.65795 3.28958
-0.735977 1.62594 1.20821
-2.56708 2.45406 2.17114
-0.763561 1.32734 0.664088
-1.69669 1.96353 1.3801
-2.29465 2.51037 2.35682
-2.13174 2.24554 1.81396
-0.56493 1.48205 1.84759
-0.542835 0.955815 2.1343
-0.616659 0.588029 2.24807
-0.340145 1.24048 0.892143
-0.554772 1.32458 0.778606
-2.17027 2.14489 1.63864
-0.764154 1.15015 2.45952
-0.871121 1.45925 0.805828
-0.500933 0.540843 2.05988
-0.928185 1.23671 2.69171
-1.92607 2.20182 1.76405
-1.13739 1.51946 2.91037
-0.32087 1.22076 1.49955
-1.28055 1.97015 1.5325
-0.952594 1.5401 2.60569
-0.894017 1.55961 2.4898
-0.703192 1.18411 0.506235
-0.248659 0.947379 1.55341
-2.57021 2.50047 2.26529
-1.41005 2.15868 1.96557
-0.588482 0.947292 2.21185
-0.107732 0.747382 1.27219
-0.0788822 0.501572 1.24199
-0.824836 1.76609 2.02603
-0.894636 1.33683 2.61033
-1.02363 1.79532 2.49989
-1.27837 1.71218 3.02235
-1.10231 1.95635 2.38108
-0.688248 1.54688 2.07958
-1.56427 2.26028 2.14971
-0.217227 1.08074 0.78755
-0.250258 1.06764 1.46941
-1.00323 1.92305 2.13039
-0.152666 1.01269 1.16013
-0.449282 0.792262 1.98972
-1.33663 2.09105 2.67372
-0.986143 1.89488 1.66957
-0.999148 1.4184 0.712627
-1.41247 2.05789 1.65517
-1.06168 1.8231 2.54159
-0.142153 0.964823 1.20406
-1.20431 2.0744 2.06915
-0.319235 0.602285 1.75596
-1.15915 1.19246 3.02943
-1.12346 2.02213 2.04474
-0.984158 1.83743 2.33797
-0.955377 1.8681 2.16818
-1.27477 1.65646 0.978873
-0.2726 0.92532 1.62022
-0.0509662 0.682086 1.12183
-0.799 1.66896 2.17239
-1.37658 2.16398 2.0594
-0.680143 1.22942 2.29715
-0.699398 1.44523 2.20967
-1.36466 1.71193 1.04326
-0.207498 1.04843 0.735296
-1.33344 2.1226 1.9458
-1.93874 2.14939 1.66375
-1.02756 1.54107 0.871217
-0.85824 1.37725 2.53548
-0.452516 0.940706 1.97813
-1.2131 2.00098 1.67563
-1.78194 2.08297 1.56999
-1.49246 1.45861 0.716208
-1.00072 1.11612 2.81821
-0.648946 1.38541 0.807836
-0.185936 0.358436 1.46475
-1.20005 1.88768 1.39874
-1.64123 1.68196 3.55258
-1.34167 1.94395 2.92817
-1.12597 1.19422 0.442206
-0.705345 1.57891 1.13067
-0.375233 0.354513 1.81369
-1.33398 2.06891 2.7188
-0.271362 0.283582 1.61016
-1.37125 1.99505 2.91895
-1.316 1.72183 3.07388
-0.259052 1.04647 1.51489
-0.58738 1.22259 0.604768
-0.0842184 0.845518 1.11368
-0.555267 1.54129 1.33105
-0.227103 1.13687 0.928513
-1.27048 2.06174 1.80473
-0.0655099 0.86123 0.770916
-2.11424 2.16989 1.68206
-1.7998 1.80493 1.14244
-0.0126247 0.743855 0.794858
-0.795185 1.11094 0.399423
-0.880986 1.35756 2.5807
-1.3246 2.15411 2.23526
-1.91638 1.96114 1.3606
-1.73597 2.18967 1.79541
-1.42072 1.48463 0.746317
-1.2572 2.09868 2.01512
-0.992648 1.35809 2.75432
-0.402365 0.188665 1.80852
-0.068269 0.875209 0.91812
-0.116054 0.886354 0.620251
-0.522831 1.32042 1.93947
-0.735899 1.34433 0.698627
-2.45054 2.40335 2.08102
-1.47295 1.51825 0.784587
-0.0854957 0.457706 1.25721
-1.42564 1.43903 0.694236
-0.0249323 0.691532 1.01146
-0.182154 1.08446 0.969356
-1.4298 1.70594 1.02614
-1.44272 1.46513 0.723565
-0.894031 1.34784 2.60529
-0.64368 1.61766 1.37173
-0.478225 0.647545 2.03564
-1.19397 1.36508 0.620714
-1.63737 1.70615 3.53768
-0.232258 1.08859 1.38343
-1.47385 1.67047 0.974028
-0.0702729 0.776683 1.12858
-0.46625 0.72755 2.0196
-0.337404 1.23488 0.883945
-0.112138 0.953278 1.05018
-0.642164 1.27766 2.20836
-0.4027 1.19085 1.768
-0.612253 1.47992 1.98062
-1.11844 1.98169 2.35253
-0.474151 1.37288 0.964941
-1.09579 1.87044 1.43494
-0.426711 1.37077 1.59897
-0.950268 1.72341 1.21829
-0.744076 1.55779 1.04491
-1.00228 1.93533 2.0035
-0.744589 1.45199 2.29276
-1.13167 2.02067 1.94482
-2.3811 2.5017 2.30462
-2.36189 2.35177 1.98959
-0.191899 0.986309 0.641592
-2.42468 2.37711 2.03269
-0.197512 0.843032 1.47416
-0.0422019 0.814412 0.771393
-0.822422 1.12869 0.412465
-0.907718 1.33386 2.63195
-1.10029 1.6783 2.7597
-0.886865 1.62847 2.41664
-0.823037 1.00033 2.57198
-0.480943 1.46898 1.52899
-1.93939 2.27443 1.9109
-0.11239 0.90218 0.6649
-0.0611229 0.857873 0.920042
-0.661686 1.58646 1.94235
-0.923925 1.60469 2.50848
-1.16532 1.78939 1.22249
-0.844043 1.55931 2.3973
-1.09721 1.09845 2.95443
-1.2548 1.6166 3.04029
-1.00349 1.64611 1.04264
-0.348093 1.31229 1.12033
-0.721361 0.930911 2.42372
-1.12999 1.52771 0.828321
-1.23584 1.66861 2.98346
-1.3836 2.13785 1.92342
-2.06618 2.1498 1.65123
-0.51631 1.1455 0.542613
-0.622775 0.732675 2.27215
-1.28106 1.92433 1.43051
-1.57266 1.64783 3.47415
-1.41245 2.19805 2.50945
-0.096222 0.929772 0.988503
-1.13296 1.93309 2.51911
-0.859334 1.82563 1.76534
-1.5891 1.55814 0.831411
-0.644683 1.31408 2.19346
-0.952085 1.84851 1.55107
-0.508139 1.44775 1.10141
-0.615455 0.790035 2.26285
-0.754105 0.902195 2.47445
-1.2382 1.99509 1.63097
-0.923829 1.64944 1.0901
-0.710231 1.56209 2.11229
-0.66683 1.48334 2.10563
-1.56171 1.61953 0.905282
-0.460471 0.676971 2.00809
-0.643109 1.47504 2.06085
-0.98678 1.09671 2.80056
-1.43168 1.5932 3.30317
-0.0727195 0.80264 1.11361
-0.690273 1.35607 0.737615
-0.566978 1.46955 1.05365
-0.59304 1.53706 1.82623
-1.51401 2.1586 1.84673
-1.58012 1.77296 3.42843
-0.439139 1.16605 1.86787
-1.53392 2.27775 2.384
-0.497456 1.39513 1.79055
-0.474735 1.4585 1.25344
-1.163 1.86186 1.36619
-0.153488 0.546568 1.42031
-0.813906 1.6346 2.2574
-0.0227283 0.762648 0.872115
-1.44331 1.41144 3.37243
-0.653184 1.43917 0.89627
-0.808212 1.77349 1.60146
-1.155 1.69222 2.84022
-1.26118 1.64262 0.961705
-1.02023 1.30572 2.81103
-1.79552 1.86839 1.22959
-2.14396 2.27016 1.85844
-0.213513 1.08112 1.32094
-0.36146 0.46294 1.81384
-1.1024 1.96061 2.36865
-0.216136 0.432296 1.53979
-0.688345 1.59267 1.18807
-1.73544 2.2321 1.89593
-1.25823 1.7578 2.95975
-0.555323 1.25585 2.0545
-1.23747 1.9638 2.69995
-0.739578 1.45418 2.28152
-1.01334 1.13385 2.83398
-0.911677 1.2411 0.517839
-0.229789 1.14314 0.941363
-0.841486 1.75835 1.43624
-1.43864 1.83251 3.18705
-1.61475 1.81782 1.16675
-1.48467 1.62277 3.36457
-0.161807 0.891647 0.533776
-1.42578 1.48272 3.33142
-1.84685 2.32554 2.07963
-0.558502 1.26603 0.68381
-0.701539 1.68276 1.79191
-0.357477 0.757787 1.82704
-1.08267 1.56069 2.80602
-0.445271 1.27827 1.79407
-1.49703 2.22124 2.08947
-0.0917681 0.600308 1.26869
-0.0848919 0.908272 0.961187
-0.255585 1.14949 0.863045
-1.00521 1.69538 2.5777
-1.8285 2.3927 2.32829
-1.30857 1.73179 3.05632
-1.92199 2.42606 2.34798
-0.736764 1.02543 2.43877
-0.453187 1.44638 1.3346
-1.53716 2.2756 2.33005
-0.395758 0.629248 1.89464
-1.31421 2.11306 1.94041
-1.33657 1.94362 2.91943
-0.68158 1.29614 0.657001
-0.118569 0.488719 1.33843
-1.20088 2.06458 1.98478
-0.17685 1.0737 1.11888
-1.55949 2.04384 1.55376
-0.00956749 0.661357 0.965614
-1.50878 2.13476 1.78508
-0.700704 1.6923 1.61897
-0.242169 0.338429 1.57045
-0.245573 1.17474 1.002
-1.22707 1.91817 1.4486
-0.156898 0.857538 1.35899
-1.8032 2.13429 1.6606
-0.848243 1.00946 2.60846
-0.556321 1.40538 1.93329
-0.599639 1.1456 0.500291
-0.423423 1.05439 1.89028
-0.362528 1.25124 1.59372
-1.29463 1.29939 3.19674
-1.48206 1.76891 1.10939
-1.68385 1.82075 1.16654
-1.56183 1.50329 3.50573
-0.486074 0.366114 1.99973
-0.215784 0.552084 1.553
-1.45245 2.11749 1.78124
-0.406933 1.06578 0.510302
-0.620231 1.35416 0.777303
-0.402503 1.31646 1.62081
-1.8118 2.29481 2.01616
-1.80742 2.40031 2.40154
-2.19468 2.22151 1.76565
-0.380927 1.36106 1.36264
-0.458373 1.22987 1.86719
-1.37495 1.787 3.12157
-1.42377 1.78277 1.13817
-1.25195 1.73965 2.9628
-1.31681 1.54295 0.822265
-1.22012 1.90789 2.74643
-0.630282 1.62815 1.58826
-1.15077 2.04055 2.06153
-1.05756 1.97585 1.97755
-2.69407 2.53855 2.33226
-0.963153 1.55968 0.920296
-0.908367 1.32601 0.618078
-0.247001 0.779331 1.60542
-0.573172 0.903162 2.19126
-0.342945 1.0009 1.74511
-0.802934 1.5049 0.907882
-1.05673 1.76131 1.22449
-0.692873 1.58224 2.03908
-0.873026 1.83656 1.87593
-0.529406 1.3228 1.95222
-0.613976 1.56441 1.8336
-2.16708 2.39738 2.11918
-0.604147 1.37507 2.07098
-0.0326589 0.744279 0.990542
-0.660371 1.15974 2.28732
-0.0814314 0.844921 1.1013
-1.31703 1.42831 0.684973
-0.549488 0.615978 2.1475
-1.57213 2.05675 1.57514
-0.299713 1.13526 0.734469
-0.538779 1.25575 0.682166
-0.85898 1.38496 0.706994
-0.382444 1.29544 1.58873
-1.67262 1.89036 1.26861
-1.37233 1.5022 0.76869
-0.302563 1.26306 1.2531
-1.64457 1.85743 1.22199
-0.458513 0.637263 2.0021
-1.47765 1.85274 1.23705
-0.79412 1.75938 1.91166
-0.201442 0.922552 0.519946
-0.339963 0.589283 1.7928
-0.864534 1.75317 2.18976
-0.842482 0.962472 2.60295
-0.368184 0.220224 1.76169
-1.72255 2.36546 2.38811
-0.792638 1.76651 1.85196
-0.880462 1.23168 2.62067
-0.881313 1.67334 1.16684
-0.35431 0.82842 1.81403
-1.19772 2.04095 1.85159
-0.239785 0.755735 1.59403
-0.0489056 0.821216 0.941301
-1.50576 2.2563 2.28899
-0.435863 1.32868 1.7076
-1.72259 2.04746 1.51781
-1.22869 2.07953 1.98454
-0.156018 0.635468 1.42308
-1.54407 2.0744 1.62267
-0.19321 1.01839 1.33513
-0.611922 0.900402 2.25439
-1.88482 2.28918 1.96494
-1.09754 1.6842 1.06769
-1.32028 2.14249 2.41284
-0.0225925 0.581783 1.06559
-0.882704 1.6103 1.04336
-0.303995 1.08638 1.60408
-0.944011 1.80244 2.30364
-1.86147 2.21372 1.80419
-1.28194 1.65499 0.975529
