ply
format ascii 1.0
comment Created by Open3D
element vertex 250
property double x
property double y
property double z
end_header
0.363649 -1.26034 0.439789
-0.938944 -2.39049 1.61301
-1.45883 -1.50805 1.34618
-0.568932 -0.325043 0.610148
-1.03407 -0.650274 0.772803
-0.891879 -0.416196 0.493041
-0.503877 -0.206932 0.436901
-2.23346 -2.56183 1.50676
0.711591 -1.17031 -0.127726
0.171668 -0.240757 -1.79479
-0.350217 -0.12415 0.329634
0.788805 -0.839926 -0.406775
-2.65779 -3.45686 1.67951
0.431031 -0.710981 0.193638
-0.898251 -0.600534 0.820218
-0.551909 -1.63251 1.32294
0.288751 0.0468127 -0.632753
-0.518532 -0.99994 1.12629
0.430274 -1.19898 0.337841
-0.252698 -0.493653 0.739485
-0.531273 -2.1273 1.3706
-0.0853682 -0.137207 0.304524
0.254303 -0.157269 -1.62075
-0.222136 0.0291361 -0.641742
-0.358166 -0.878516 1.00394
0.414355 -1.00898 0.318588
0.903916 -0.512984 -1.69181
-0.240029 0.0388716 -0.204581
-3.31056 -4.79853 1.77277
-0.175077 0.0586859 -0.283378
1.21907 -1.38463 -1.48758
0.189807 -0.352586 -2.02344
0.621214 -0.171104 -0.792517
-0.260662 0.0073372 -0.691503
0.512129 -1.1061 0.198092
0.462818 -0.0689864 -0.553643
-0.37302 -0.680359 0.911926
-2.25337 -4.72962 2.08425
-2.55324 -5.05627 2.1139
-1.04512 -1.35995 1.37544
-3.16081 -5.5564 2.07106
0.980543 -0.648499 -1.30344
-0.657824 -1.13145 1.2267
-1.22147 -1.62536 1.48483
0.243546 0.0597613 -0.594829
-2.52915 -3.78965 1.8982
-0.800567 -0.684647 0.958411
-2.42338 -4.07532 2.00348
-2.34667 -5.18257 2.10598
0.705712 -0.833724 -0.229195
0.52152 -0.194096 -0.401085
-1.12275 -3.52217 1.7341
-2.25638 -6.0189 2.05107
-2.3549 -3.81172 1.96316
-1.35458 -1.15476 1.11275
-2.32188 -2.86039 1.62131
-0.323504 0.0065496 -0.51407
-0.24858 0.0407274 -0.267518
0.650389 -0.92044 -0.0870351
-0.218117 -0.197737 0.441759
-3.46363 -5.28348 1.84323
-2.21958 -4.03861 2.02414
-2.34534 -3.67187 1.93149
-2.5003 -3.19948 1.66981
-0.26199 -0.575761 0.798806
-2.66352 -4.90541 2.09166
0.144498 -0.643191 0.520929
-0.151961 -1.29704 0.991462
0.812945 -0.48846 -0.787173
-2.30593 -5.81594 2.08025
-2.21326 -3.41011 1.89941
0.169625 -0.0755997 0.00286747
-1.59868 -1.9636 1.55634
0.684824 -0.472275 -0.427817
-0.635845 -0.210988 0.325523
-0.114449 0.0094426 0.0180735
-1.65804 -3.498 1.92779
-2.70269 -5.22955 2.12003
0.803141 -0.367543 -1.54572
-0.218296 -1.75839 1.11022
0.174264 -0.0228129 -1.23363
-0.278717 -0.348853 0.630475
0.788146 -0.921296 -0.366052
-0.0665614 -0.250749 0.430932
0.096316 -0.361485 0.399272
-0.015992 0.0360832 -0.0999589
-1.13213 -0.868218 0.979823
-0.203901 -1.56183 1.07679
0.690282 -0.300979 -1.66826
-0.943433 -0.516493 0.642417
-1.90623 -2.44074 1.65998
-2.44034 -3.62213 1.88311
-0.61036 -0.39752 0.696999
0.493461 -0.286211 -0.208466
-1.43617 -2.2303 1.68964
-0.782819 -0.26351 0.207751
-0.290482 -0.166401 0.410366
0.161862 -0.177452 0.157267
0.597277 -0.244361 -1.6596
-0.205353 -1.58888 1.08145
0.678104 -0.354188 -0.554799
-1.42896 -2.52964 1.76313
-1.0734 -1.5956 1.47547
0.383219 -0.521346 0.16593
0.190321 -1.31467 0.661735
-0.669972 -0.614245 0.917228
-0.24838 -1.51915 1.10586
-1.57626 -1.35367 1.10866
0.522913 -0.282777 -1.83544
-2.24284 -2.61254 1.53304
-0.800898 -1.0087 1.19282
-0.905416 -1.74304 1.49192
-0.148101 -1.93097 1.06074
-1.8945 -2.55074 1.71297
-1.33743 -2.661 1.77211
0.78518 -0.873875 -0.381345
-2.63898 -3.53618 1.73504
0.999143 -0.655683 -1.67421
-1.67383 -1.57481 1.23802
-1.35751 -4.06026 1.83003
-1.02129 -2.9546 1.68481
0.649271 -0.173245 -1.16017
-1.53748 -1.88355 1.53771
-2.20096 -4.86247 2.08129
0.585852 -0.117046 -1.07511
-2.12106 -4.94054 2.06663
1.02012 -0.693379 -1.58779
1.05253 -1.19413 -0.947269
0.586819 -0.219342 -1.59895
-1.02954 -2.42956 1.65332
0.784273 -0.494883 -0.679325
-0.284557 -1.09003 1.03749
0.996048 -0.864552 -0.995432
-2.85263 -4.11909 1.83837
-2.27654 -4.36272 2.06013
0.98589 -1.09777 -0.790368
-0.355711 -0.486358 0.774805
-0.239964 -0.6666 0.839476
-1.20282 -2.93622 1.76145
-2.64104 -5.44966 2.13481
0.432145 -0.0558897 -0.505951
-1.6382 -1.85047 1.47593
-0.188283 -1.88969 1.09433
-3.00053 -4.23091 1.77836
-1.0274 -1.17942 1.28074
-1.64046 -2.18413 1.6439
-0.253157 -0.242037 0.507782
-0.883248 -1.57822 1.4411
0.133909 0.00654805 -1.12018
-3.19102 -5.01884 1.93703
-2.5354 -5.77618 2.12925
-1.98809 -2.32158 1.54921
0.167736 0.0639997 -0.82325
0.0111552 0.065565 -0.245401
-1.58969 -2.83816 1.83527
-0.288248 0.0117338 -0.590608
-0.0682288 -0.148916 0.311451
-1.04763 -0.590561 0.645451
0.691931 -0.311172 -0.67355
-0.740682 -1.53975 1.38772
0.346949 -0.0584329 -1.32083
0.450097 -0.14564 -0.32584
0.818454 -0.731879 -0.546358
-1.29746 -1.76276 1.53546
0.491086 -0.0475842 -0.951679
0.635155 -0.15848 -1.01847
-0.755477 -1.77755 1.44752
-2.12184 -2.65029 1.64695
0.473554 -0.14831 -0.373388
-1.39997 -2.67261 1.78542
-3.08468 -5.43054 2.07416
-1.80738 -2.9412 1.85444
-1.59195 -3.39494 1.90629
0.464198 -1.16211 0.281939
-0.484766 -0.582208 0.881074
0.215176 -0.834339 0.520201
-0.459536 -1.16784 1.16147
-0.702887 -0.523863 0.821352
-0.401661 -1.69892 1.24173
1.07254 -1.0897 -1.08668
-0.731611 -0.721473 1.00185
-0.745212 -1.28434 1.30943
-1.39993 -1.76764 1.52038
0.0878542 -0.214482 0.273048
-2.46158 -4.73623 2.09113
-2.283 -3.58866 1.92764
0.425149 -0.538525 0.114494
1.02413 -0.903494 -1.06684
0.816514 -0.371181 -1.13689
-2.39953 -2.97866 1.62741
1.10211 -0.896189 -1.54031
1.02743 -1.22707 -0.852132
0.489965 -0.611362 0.0543774
-3.08824 -4.73299 1.90883
-2.69014 -3.97192 1.88039
0.84792 -0.406648 -1.25539
-0.802497 -2.00881 1.50705
0.381342 0.0084631 -0.677515
0.166081 0.0458647 -0.945306
-0.239167 0.0450638 -0.333162
1.29329 -2.65461 -1.41988
0.775971 -1.72375 -0.171732
0.841896 -5.24672 -0.930638
1.34448 -5.67334 -2.26752
1.2572 -8.56811 -3.28455
1.33503 -7.83879 -3.15853
1.19474 -2.22219 -1.12787
1.24397 -5.19064 -1.82206
0.940424 -4.90389 -1.02269
0.857836 -2.77726 -0.374244
1.0048 -1.69917 -0.665984
0.952204 -3.56419 -0.696704
1.10191 -1.82952 -0.901329
1.11253 -2.19908 -0.901906
0.855065 -5.31333 -0.978377
0.994907 -4.76758 -1.09673
1.26152 -2.02405 -1.36542
1.02577 -6.48121 -1.7629
1.44048 -4.41787 -2.16178
1.22225 -5.34475 -1.81771
1.08936 -7.82578 -2.48268
1.1159 -2.18925 -0.910938
1.44983 -4.71828 -2.2752
1.42902 -3.58722 -1.94986
1.02947 -8.36517 -2.58293
1.23063 -8.64631 -3.24728
1.18103 -2.86288 -1.11082
0.802669 -5.90077 -1.07375
1.30513 -7.5162 -2.9194
0.713297 -1.5706 -0.0671759
1.0298 -6.56282 -1.80428
0.767744 -1.58622 -0.166725
0.776764 -1.79232 -0.169802
1.32608 -7.84243 -3.13345
1.28791 -6.71108 -2.51635
0.860088 -6.6316 -1.46028
1.45381 -4.94395 -2.35586
1.4505 -3.95775 -2.08941
1.47044 -3.59699 -2.10121
0.88291 -1.92055 -0.375343
1.21942 -3.57768 -1.32018
0.907959 -8.15223 -2.20041
1.46198 -6.2734 -2.86192
1.15017 -9.0127 -3.20714
0.961519 -3.73643 -0.753381
1.37551 -6.8577 -2.83389
0.776713 -2.17232 -0.169745
1.10056 -7.92019 -2.5536
1.24027 -8.02093 -2.97046
1.25008 -4.0987 -1.51748
