ply
format ascii 1.0
comment Created by Open3D
element vertex 400
property double x
property double y
property double z
end_header
-0.720561 2.3592 0.0611694
0.0114977 3.29459 0.670408
-0.347335 3.41898 0.473355
-0.718428 3.27163 -0.422928
-0.0651985 3.57974 0.602981
-0.401229 1.20856 0.470511
-0.105577 3.46803 0.605983
-0.068166 2.2043 0.719284
0.318094 2.57741 0.748704
-0.605955 1.91942 0.356375
-0.204808 1.45955 0.629242
-0.693856 2.45852 0.153654
0.666251 4.26809 0.608761
-0.571304 3.0748 0.298756
-0.0555113 3.61848 0.599899
-0.208466 3.69712 0.509454
-0.725131 3.17499 -0.412561
-0.741523 2.27232 -0.369823
-0.144925 3.20983 0.629675
0.691512 3.67067 0.673642
-0.725188 2.32805 0.0395917
0.181777 1.7072 0.712417
-0.495151 2.99873 0.418599
0.093684 2.01946 0.734734
-0.222363 2.19482 0.675137
-0.61643 2.57701 0.31813
0.319552 3.3977 0.705512
-0.132944 3.09984 0.648976
0.611025 2.11031 0.699075
0.0884691 2.5602 0.740359
-0.594058 2.43036 0.370952
-0.661765 3.85983 -0.543045
0.0976901 2.11445 0.7391
-0.72223 2.85681 -0.0567898
-0.716461 2.32729 -0.587161
-0.51954 1.56124 0.43258
0.552091 2.82526 0.729271
0.08089 2.83747 0.72722
-0.0551227 1.76843 0.701517
-0.456314 1.16941 0.404426
0.0460288 1.83133 0.719259
-0.318418 3.32562 0.514782
-0.16833 3.43886 0.58285
-0.732326 2.44187 -0.00921644
-0.683192 1.5761 -0.367272
-0.354778 1.66674 0.587472
-0.448756 2.63138 0.519084
-0.370822 3.47413 0.440798
-0.645622 2.04019 0.288618
0.0298772 1.40438 0.668037
0.455048 2.94151 0.734928
-0.50033 2.5669 0.47636
-0.499357 2.3383 0.494973
-0.725412 2.56888 0.0105979
-0.635288 3.5182 0.00135231
-0.586367 3.53278 0.124993
-0.681669 3.38597 -0.111789
-0.373924 1.01704 0.431666
-0.731036 2.26898 0.00578443
-0.575316 1.74727 0.386844
-0.710399 1.69262 -0.113239
-0.687326 3.62046 -0.432236
-0.571727 2.12148 0.416163
-0.701668 2.53735 0.117132
-0.575199 1.61261 0.364651
-0.679097 3.26034 -0.0293672
-0.0156955 1.7488 0.705704
-0.727026 1.87665 -0.229576
0.0839768 1.97363 0.731657
-0.732495 1.94399 -0.215665
-0.513679 2.51972 0.466741
-0.316112 1.10509 0.502788
0.2232 3.0615 0.72766
0.597329 3.00402 0.720449
-0.569673 1.38215 0.312837
-0.636023 3.33124 0.0833768
0.0913301 1.15504 0.62487
0.24728 1.4332 0.67367
-0.0441237 2.3227 0.724346
0.396832 2.72065 0.743872
-0.466951 1.34893 0.445879
-0.0955656 2.54261 0.707354
-0.745454 2.44566 -0.122844
-0.293884 1.68445 0.621586
-0.326973 0.898153 0.423507
-0.160703 1.9296 0.688757
0.0407384 3.7706 0.606278
0.353496 3.31272 0.714646
0.535247 1.37971 0.623587
-0.457994 3.17546 0.423686
-0.409509 1.91709 0.571451
0.634203 3.95233 0.649423
0.62275 3.07887 0.71521
-0.706341 1.76437 0.0211688
-0.00926838 3.48964 0.637222
0.70265 2.76081 0.70766
-0.741326 2.12565 -0.131046
-0.618543 4.17876 -0.730603
-0.621428 1.60027 0.273942
-0.61255 1.63909 0.30271
-0.458709 1.16354 0.399651
-0.325492 2.16827 0.628558
-0.723904 1.84872 -0.0948836
-0.0691806 1.26759 0.631019
-0.692513 1.53946 -0.162563
-0.713207 2.28638 -0.594517
-0.318485 2.15808 0.632285
0.520376 2.54003 0.732786
-0.670019 1.99827 -0.701739
0.455199 2.88183 0.736799
0.114546 2.55625 0.743076
-0.676101 1.43808 -0.218531
-0.41654 1.47265 0.51794
-0.392694 2.86158 0.537226
-0.735474 2.47399 -0.488244
-0.641645 1.3974 -0.458345
0.40764 2.96567 0.73629
-0.50247 1.34324 0.40346
-0.240148 1.92962 0.662262
-0.450334 2.70827 0.508996
0.259139 3.28522 0.712059
-0.640316 4.03436 -0.600246
-0.713447 2.07037 0.0832029
-0.73411 2.03682 -0.0726703
-0.623121 2.13251 0.335469
-0.229154 1.86218 0.662766
0.32001 2.57936 0.74864
-0.284219 1.09066 0.517211
-0.690245 3.59158 -0.427125
-0.604989 1.69339 0.328651
-0.0595739 1.93149 0.712106
0.179963 3.13025 0.718303
-0.730759 1.91435 -0.162939
-0.621051 1.69627 -0.753381
0.108944 2.11518 0.739824
-0.737783 2.03194 -0.229963
0.448142 1.40041 0.643942
-0.180629 1.19986 0.589011
-0.737858 2.95471 -0.364648
-0.6862 1.53279 -0.27951
-0.538332 1.03381 0.204578
0.422397 1.88677 0.711547
-0.73888 2.43881 -0.45046
-0.240091 1.25365 0.578639
-0.665338 1.49443 -0.410638
0.538746 3.51199 0.696626
-0.534838 3.38847 0.270762
0.646869 3.97105 0.646839
-0.685148 3.61404 -0.597148
-0.456021 1.45039 0.479539
-0.685324 1.70189 0.108126
-0.721007 2.6507 0.0152725
-0.747695 2.35891 -0.160075
0.448036 1.87488 0.706896
0.647698 2.60803 0.715208
-0.673479 3.74116 -0.423979
-0.37486 3.17987 0.49975
-0.582685 1.04335 0.0574747
0.407417 1.79146 0.704127
-0.29615 2.64828 0.62289
-0.695857 2.87457 0.059673
0.713407 1.94978 0.662397
-0.197219 1.75647 0.666201
-0.521117 2.55406 0.455073
-0.747937 2.2954 -0.251007
0.153753 3.88432 0.617233
-0.505691 3.05761 0.394449
0.112887 1.13123 0.620227
-0.71611 2.54828 -0.63486
-0.630205 4.03742 -0.382415
-0.487247 3.15894 0.394673
-0.722657 1.92025 -0.0177266
-0.483859 3.3774 0.345421
0.504675 1.96917 0.706755
-0.524137 3.51852 0.246683
-0.399711 3.63819 0.370549
-0.570016 1.0801 0.149514
-0.414292 1.34743 0.494648
0.204235 1.57752 0.696605
-0.0884432 1.58854 0.677237
0.168502 3.74805 0.642662
-0.502498 3.19008 0.369052
-0.230764 3.22984 0.586226
-0.542485 3.31165 0.281435
-0.715426 2.23671 -0.566036
-0.108095 1.73402 0.688305
-0.344297 2.97515 0.556443
-0.666151 1.38768 -0.249071
-0.72856 2.70117 -0.56423
0.334772 3.48399 0.697732
-0.617922 3.67735 -0.0260823
0.0814484 3.5241 0.656898
0.0853436 1.2252 0.639314
-0.303076 1.35997 0.570674
-0.694954 2.67226 0.115366
-0.629576 4.07602 -0.749396
0.396627 2.67189 0.744517
-0.18212 3.44915 0.57414
0.342981 3.21801 0.721921
-0.636257 1.68987 -0.692297
-0.349456 2.07621 0.614734
-0.467442 1.10915 0.368588
-0.634507 1.66408 0.260023
0.533668 3.62463 0.686728
-0.694479 1.6189 -0.316529
0.281512 1.67563 0.704392
-0.715115 2.89039 -0.0301049
-0.648621 3.93308 -0.420241
-0.716552 2.70645 -0.647372
-0.403478 2.73179 0.545252
-0.347895 0.95557 0.430005
-0.486542 2.65664 0.480658
-0.626313 4.10067 -0.446863
-0.260725 3.24068 0.567665
0.130435 1.64404 0.705465
-0.733562 2.73618 -0.521242
-0.478488 2.63449 0.491202
-0.0475994 2.02157 0.718531
-0.469482 1.32988 0.438298
-0.231305 3.701 0.494165
0.306173 2.34629 0.747473
0.13185 1.19942 0.63512
-0.716052 3.01302 -0.0903323
0.151949 3.34283 0.693709
-0.748195 2.40284 -0.313045
-0.705736 3.03097 -0.702396
0.261153 2.49768 0.749953
-0.726855 3.15032 -0.347975
-0.71388 1.88938 0.0338698
-0.742686 2.83011 -0.361646
0.171866 1.48352 0.684526
-0.705746 3.37641 -0.561346
0.330809 2.7035 0.746709
-0.0456806 3.69286 0.590209
-0.318885 0.920186 0.438415
-0.620455 2.42557 0.327755
0.109643 1.61611 0.701733
-0.740297 2.07076 -0.192307
-0.743921 2.63432 -0.148971
-0.670838 1.80782 -0.608728
-0.661073 3.809 -0.695413
-0.729229 2.19809 -0.457919
-0.664621 2.54419 0.223189
-0.738947 2.2222 -0.377277
0.00599686 2.51031 0.730257
-0.718061 2.60701 -0.630391
-0.556227 1.62207 0.395233
-0.715684 3.02842 -0.0960743
-0.420983 1.99681 0.566237
0.0578046 1.48991 0.682975
-0.637543 3.52879 -0.0114825
-0.709004 3.19003 -0.640184
-0.376129 1.78424 0.585391
-0.735526 2.79886 -0.494586
-0.672852 3.66833 -0.702612
-0.534704 1.87293 0.453796
-0.418522 2.12378 0.569998
-0.712592 3.23937 -0.217592
0.136795 3.7314 0.638505
-0.698766 2.03973 0.140844
-0.606347 2.87882 0.283893
-0.061533 1.81173 0.703897
0.35907 3.25584 0.71938
-0.591199 1.65619 0.346441
-0.0456336 2.78976 0.705986
-0.671929 2.01933 -0.702079
-0.574487 3.22419 0.253673
-0.677648 1.4401 -0.186478
0.0453958 1.88715 0.723286
-0.746938 2.24483 -0.209368
-0.367837 1.73643 0.586503
-0.702708 1.71052 -0.344588
-0.681208 3.58469 -0.683028
-0.602097 1.5749 -0.755477
-0.451715 3.03197 0.458545
-0.634662 3.02827 0.189778
-0.502596 0.916835 0.203164
-0.685155 2.05346 0.188355
-0.2953 1.51672 0.6006
-0.698231 1.77811 0.0779992
0.0682161 1.92405 0.727576
0.578574 1.62863 0.654324
-0.0514269 3.09906 0.676283
-0.31101 0.940395 0.45171
-0.708505 2.64451 0.0719954
-0.507354 1.96547 0.489366
-0.742772 2.81042 -0.377652
-0.6206 1.61075 0.2786
-0.6536 1.85311 0.25151
0.497972 3.80541 0.667892
-0.291283 2.24265 0.645317
-0.0933418 2.44863 0.711268
-0.574944 2.83638 0.344356
-0.403071 3.37255 0.434919
0.00668784 3.04796 0.696728
-0.0121068 1.15782 0.617093
0.65736 2.95521 0.71382
-0.721174 3.22782 -0.438664
-0.723937 2.5252 0.0261927
-0.611611 1.20239 0.0997086
0.2169 3.4654 0.68889
-0.255503 3.11682 0.590247
-0.577557 1.16222 0.188973
-0.728885 2.07978 -0.00585526
-0.645414 1.28455 -0.278944
-0.691269 2.35163 0.171361
-0.674071 1.72687 0.162649
0.538719 3.81227 0.667209
-0.507619 1.49513 0.433981
-0.653458 1.98276 0.267222
-0.671424 1.44941 -0.305544
-0.270917 3.29681 0.551793
-0.508135 1.32796 0.391745
0.306918 1.39538 0.662498
-0.0350309 1.79932 0.707249
-0.605762 2.68214 0.321378
0.565883 2.26035 0.716723
-0.723038 3.19402 -0.449218
-0.664917 1.79248 -0.627547
-0.737877 2.9165 -0.242117
-0.63652 2.88706 0.22224
-0.726021 3.1536 -0.431201
-0.0678426 1.8162 0.703107
-0.601752 4.31246 -0.714372
0.336479 2.68701 0.746879
-0.50344 2.77088 0.44772
0.193465 3.23665 0.710275
0.407765 1.76374 0.701105
-0.749739 2.44662 -0.218049
-0.0850969 2.85669 0.690253
-0.673311 3.34795 -0.0503707
-0.372611 1.29846 0.515489
-0.628458 4.0581 -0.396578
-0.705902 2.2134 -0.612102
0.392711 1.61691 0.685401
-0.620306 1.27781 0.128244
-0.674289 1.6846 -0.516549
-0.668971 1.39678 -0.0593209
-0.517341 1.03109 0.250239
-0.236604 3.11671 0.600396
-0.704666 2.78004 0.0537037
0.545539 3.02361 0.725189
-0.586964 3.68324 0.0584863
-0.243356 1.54827 0.627654
-0.235262 2.01782 0.667588
-0.387391 2.91379 0.533989
-0.352326 2.59249 0.594764
0.0594731 3.63228 0.635033
-0.686585 2.59337 0.156735
0.766072 4.29034 0.602702
0.589527 1.80947 0.675077
0.225555 2.67872 0.746815
-0.434479 1.07796 0.395531
-0.502138 3.55883 0.267252
-0.595268 2.60555 0.349802
-0.699863 1.80249 -0.446243
0.131752 1.93944 0.731852
0.0795535 1.44715 0.677913
0.0583694 1.50805 0.685549
-0.0300219 2.25049 0.726918
0.623189 2.49333 0.716609
-0.197538 0.981351 0.525622
-0.68882 3.18126 -0.0322596
-0.720245 1.9997 -0.428605
-0.00876896 1.01874 0.584071
-0.700884 3.36342 -0.633044
-0.714431 1.75855 -0.266991
-0.514387 2.67428 0.448753
-0.68049 3.38172 -0.10304
0.286477 3.89635 0.640087
0.0499435 1.29503 0.650813
-0.627617 1.43855 0.200043
-0.727275 3.1432 -0.343455
-0.684131 1.65247 0.0899491
0.0492184 1.56872 0.692918
-0.739277 2.06438 -0.145357
-0.546509 2.50611 0.429751
0.259321 3.12759 0.725241
-0.561069 3.60285 0.150651
-0.435898 2.41534 0.547862
0.761501 1.84498 0.638401
-0.499405 2.21669 0.499475
-0.658675 1.49001 0.115815
-0.635682 4.0633 -0.654632
-0.358936 3.66198 0.404304
-0.19284 3.47967 0.56294
-0.558424 3.31856 0.253506
-0.668796 2.60046 0.204424
0.197873 1.38382 0.668233
-0.262055 3.62609 0.490705
-0.745214 2.66043 -0.386284
-0.672166 3.45135 -0.105566
-0.534908 3.20492 0.321772
0.250688 3.73946 0.658058
-0.260151 2.66168 0.640079
0.258804 2.50089 0.749954
-0.732105 2.80678 -0.528355
-0.476815 2.45362 0.509625
-0.640667 2.14103 0.301893
-0.681233 2.55871 0.177787
