ply
format ascii 1.0
comment Created by Open3D
element vertex 100
property double x
property double y
property double z
end_header
0.454479 0.894413 0.0419838
0.125454 0.670923 0.745387
0.911036 0.775781 0.815108
0.514471 0.0366872 0.936835
0.0744647 0.140834 0.723305
0.428239 0.788764 0.956612
0.753139 0.379845 0.748315
0.840273 0.450677 0.613214
0.386696 0.10781 0.256595
0.892728 0.778731 0.148195
0.0835015 0.618705 0.366291
0.992466 0.203599 0.245923
0.373567 0.997478 0.813883
0.75704 0.0779433 0.970334
0.773639 0.900336 0.79183
0.232825 0.859516 0.628498
0.291858 0.872594 0.982936
0.783701 0.252411 0.254725
0.803079 0.979612 0.596733
0.374247 0.622789 0.183615
0.637882 0.547525 0.00509022
0.379202 0.137567 0.366662
0.15178 0.363682 0.0186435
0.0662034 0.566964 0.821783
0.626893 0.148645 0.741643
0.699568 0.195252 0.182303
0.385797 0.697626 0.322917
0.0198153 0.872935 0.151246
0.0311577 0.253805 0.78645
0.321913 0.999272 0.844629
0.343124 0.125741 0.938025
0.691846 0.351503 0.91325
0.12951 0.260667 0.780423
0.952852 0.141926 0.981989
0.00793885 0.299897 0.260421
0.956891 0.483137 0.950046
0.373883 0.617939 0.892695
0.506703 0.224006 0.456492
0.107995 0.754901 0.0796723
0.95993 0.324773 0.492107
0.720082 0.206633 0.952283
0.427854 0.0354393 0.331755
0.825674 0.816286 0.590911
0.695485 0.910253 0.925028
0.954784 0.817351 0.726182
0.825477 0.346157 0.80045
0.208572 0.651553 0.823526
0.163782 0.681887 0.355165
0.0266967 0.805263 0.332743
0.962764 0.714084 0.190091
0.608014 0.313755 0.64639
0.750589 0.366915 0.475158
0.831799 0.419049 0.118157
0.0669275 0.135474 0.793348
0.368103 0.0318153 0.174216
0.584011 0.36698 0.649666
0.866315 0.584227 0.41791
0.45001 0.398303 0.300752
0.0641147 0.647229 0.105092
0.464359 0.760129 0.340724
0.186127 0.22618 0.768778
0.203281 0.0052698 0.0466646
0.367447 0.640167 0.5471
0.701583 0.643257 0.716871
0.116802 0.194669 0.549732
0.335921 0.911943 0.836064
0.758568 0.944139 0.953443
0.549412 0.18797 0.450434
0.989244 0.789684 0.196561
0.753674 0.489138 0.251335
0.0439106 0.749402 0.48732
0.658514 0.350621 0.930048
0.592345 0.290518 0.36492
0.0711583 0.412461 0.197056
0.259643 0.856245 0.0770861
0.396937 0.0819876 0.443464
0.572518 0.210116 0.461618
0.735952 0.704359 0.639907
0.482017 0.927051 0.870199
0.330313 0.694939 0.0845706
0.156458 0.163673 0.987363
0.359636 0.290178 0.98776
0.969325 0.684445 0.655933
0.237742 0.424101 0.888898
0.676275 0.445955 0.785256
0.730794 0.646193 0.648985
0.0555644 0.455789 0.282862
0.952206 0.958129 0.838064
0.359329 0.140493 0.529714
0.0955728 0.522559 0.124025
0.366167 0.0955716 0.134736
0.696758 0.162856 0.729456
0.642665 0.722857 0.395313
0.410849 0.491546 0.680174
0.0613245 0.0914127 0.000264726
0.21088 0.368431 0.437985
0.487837 0.202599 0.899501
0.802818 0.260509 0.480354
0.639705 0.191983 0.175418
0.541958 0.84667 0.755336
