ply
format ascii 1.0
comment Created by Open3D
element vertex 1941
property double x
property double y
property double z
end_header
4.10079 -10.9614 1.14715
3.32516 3.92623 1.10982
-10.2598 10.6351 2.38861
3.51621 -8.11544 1.37559
11.0422 -7.12747 1.66535
6.85298 6.15738 3.53156
-10.4843 9.33532 1.8761
6.31654 1.66161 1.94266
0.22215 -7.72354 2.3504
5.06592 -9.80418 0.13296
10.537 7.54682 1.40567
-5.65333 11.8272 3.32806
8.24383 5.93053 3.86343
11.9704 7.77449 1.51806
3.72031 -8.74261 0.67684
11.2344 8.38812 0.51928
-2.03384 0.76792 1.82466
-4.9674 -10.8962 2.86843
-8.13053 11.93 1.84228
5.56449 8.17381 1.0272
-7.39253 -0.03961 2.10381
-5.20707 -10.6348 2.52708
4.19009 7.23151 1.71637
2.55698 6.02201 3.51796
9.4013 -1.54102 2.05324
-9.3312 -11.8504 2.66104
11.3216 2.9543 0.07015
11.4071 -6.36818 2.07987
4.67635 -7.94159 0.91316
3.69495 -2.58875 0.62342
-8.86903 -8.47718 0.88879
5.14012 -8.07015 0.87561
1.66766 -8.37341 2.49893
3.75739 -4.40349 1.11838
-11.9014 -1.55496 2.63289
9.18353 6.00706 3.20104
-7.84557 5.31875 1.56992
-10.1599 -1.34973 2.88993
-5.9376 -1.18277 2.7171
-0.36839 -6.74371 2.5357
-9.19852 -2.46181 0.99795
6.50779 -4.08073 1.63223
3.21932 9.63988 0.94539
-6.35162 -3.1675 0.93195
6.92441 -1.58823 2.58074
-8.62381 -5.03167 1.59585
10.3646 -4.45864 0.94152
3.82222 9.9203 0.491
1.79288 10.2117 2.2694
-3.0118 -0.71665 2.62458
-7.12636 9.16809 0.286
6.4476 -11.9094 2.95551
4.43853 9.24472 0.05343
-0.669 -7.41278 1.80682
6.51088 -1.59025 2.20628
7.18549 7.05611 3.50063
-1.81552 4.90732 1.22349
-2.94924 -8.75638 1.02402
-3.76678 6.50043 3.56175
-5.96469 7.92499 2.24219
-8.06853 11.6789 1.6543
0.28358 9.98535 1.43285
8.96702 -2.53058 1.62287
10.0366 -2.31341 0.74942
-7.32061 -11.0834 1.22663
4.21491 3.52806 0.19497
7.19201 7.00216 3.54127
-9.20275 -3.88481 1.04349
-9.65761 -5.89766 3.15734
5.86843 -9.51678 0.60126
6.19339 -1.56313 1.91799
-3.01544 -2.7376 0.95468
1.17665 10.3559 2.32642
6.89401 5.53018 3.30318
7.87775 -9.81338 2.07428
-4.22486 -1.74358 2.71157
-2.87314 -0.49917 2.61274
-11.0796 6.39536 3.99018
8.37282 -11.5056 3.3566
5.07599 -0.66504 1.85227
-4.98148 9.63493 1.98602
-11.6753 -2.07583 2.29394
-0.35709 -4.56099 1.49963
6.92449 7.45957 2.9825
4.94326 -2.78964 0.08783
9.97716 -5.65367 2.28359
-4.8569 11.9575 3.80989
4.65766 -4.02023 0.3633
0.80804 -2.09969 2.21836
8.27492 9.80127 1.98275
0.19134 9.16242 1.2244
-2.83322 -0.76679 2.41664
-9.9907 6.11399 3.52191
6.53834 7.10402 2.934
-11.6385 -2.71862 1.88847
8.31357 -5.60574 3.67541
1.45425 -4.10484 2.42236
3.05702 -3.7132 1.24344
-1.79785 4.13863 0.48288
-7.90552 7.25968 1.56126
11.1102 -6.62384 1.9491
-2.90297 -4.69575 1.74699
-5.73599 9.17904 1.55034
6.57897 3.12364 1.29165
4.42286 11.2225 1.26657
2.75754 -4.93651 2.59693
-3.47741 9.78506 1.39375
9.29368 -0.5501 2.98319
4.78369 -4.49624 0.78807
-10.736 -5.10848 3.35231
4.49324 -6.76406 1.91051
10.8072 2.23799 0.39892
8.47212 11.6943 3.45821
7.34037 -4.44433 2.60611
-1.60571 11.501 1.48475
10.4403 -4.72794 1.16577
-9.91189 7.50398 2.81098
-1.7075 7.99035 0.87338
10.3764 -0.17935 2.1696
-4.70013 3.50338 2.06466
8.83723 -11.7102 3.20963
-4.05336 -5.20374 3.2624
-11.1416 9.53752 1.9957
-7.0206 9.82371 0.40615
8.99866 4.38396 2.09079
3.25689 -7.85968 1.87926
-2.73057 -1.85866 1.31654
2.0825 -2.84261 1.91627
6.46668 -6.94554 2.97101
-0.64925 -9.22024 0.41626
3.52827 -8.35913 1.13895
1.0293 -8.96129 1.96244
10.5132 -9.66884 0.14374
-3.59335 5.78082 3.31299
9.66663 0.53982 2.6183
8.80742 8.78712 1.77539
8.23624 7.69324 3.08787
8.77453 2.86563 1.64322
-4.90084 1.62302 2.93009
-11.0519 4.79307 3.079
-4.84173 3.72625 2.15775
7.53055 -6.79177 3.82158
-8.56735 -8.54777 0.60439
-2.5857 -5.9994 2.4323
-4.41809 8.93289 2.07556
6.52406 1.32109 2.48567
7.19976 0.35846 3.72996
10.2343 -0.91066 1.88927
9.63814 4.64085 1.71677
8.25605 11.6786 3.55138
10.5019 10.7923 0.91752
3.0461 -9.62268 1.11487
7.60925 8.58441 2.30302
9.89591 -2.55219 0.71483
-0.98717 6.73713 2.06426
10.419 0.02844 2.16126
7.96661 -9.54293 2.00064
-9.43688 1.06006 2.50092
-9.51678 2.8481 1.13463
7.25413 7.95441 2.72516
-3.6439 7.03355 3.21289
-4.82452 7.76089 3.08668
6.9004 -3.5079 1.64511
-6.78824 3.27653 0.52523
0.06859 11.0794 2.1523
3.08405 -9.8282 1.13779
4.98338 -6.38812 2.03099
2.14193 1.71157 2.70098
4.98947 3.30108 0.05083
-10.6075 3.70781 2.08171
5.20823 -9.52186 0.12514
-3.40338 -4.05546 1.64812
-1.10242 2.62497 0.2382
-8.89846 7.86642 1.48521
-7.59616 -11.9281 1.83618
-0.26562 1.2921 2.0126
-5.40834 10.7085 2.48428
8.09125 10.9787 2.95515
5.3968 3.59284 0.3253
-5.81525 8.00184 2.30372
-1.15531 1.48324 1.17252
-11.3941 -11.93 3.72588
7.05936 -9.51423 1.70456
-11.5288 -5.20237 3.33178
-11.1072 5.2167 3.47698
2.53365 -11.2583 2.83094
2.96821 11.7484 2.85623
0.34436 -5.92389 3.27374
-5.4082 -6.1131 3.7531
-9.88336 -7.92778 2.36895
-7.05189 2.12097 0.78196
-9.46625 0.86364 2.69113
8.74665 -7.07671 3.32868
-2.39407 -9.06339 0.38477
-3.57357 5.93667 3.35922
3.3695 6.73808 2.67237
2.51995 -10.8779 2.46501
-2.84249 -10.3436 1.09858
4.59811 6.90974 1.81658
10.1413 4.81946 1.4501
-6.28581 -7.90392 1.94746
-10.9596 -1.46158 3.10836
-1.29145 10.6663 0.71541
-11.1924 -4.4852 2.75546
8.29877 -9.30669 1.90967
-11.3635 -7.4696 3.30806
1.99401 -4.26737 2.4813
8.75492 -10.4353 2.08949
-0.42782 -5.16711 2.02432
-5.64786 7.56686 2.87663
10.6252 -8.40017 0.54838
6.2811 -9.15276 1.03469
7.63485 -6.98185 3.74179
7.81034 -0.56694 3.8426
-7.58952 11.4183 1.44497
6.43063 11.7598 2.83886
-1.47324 -6.04241 1.97591
-0.37473 -7.64871 1.83781
5.81053 -11.7148 2.20355
-1.18477 5.46891 1.75998
4.02356 -5.21522 1.70992
3.50164 0.44537 2.55014
-4.83646 11.3681 3.35629
-7.80613 4.13981 0.45934
11.4862 -10.8118 0.93524
8.80783 0.56004 3.42578
0.44994 -10.0972 1.65259
-2.35028 1.33189 1.52536
9.07424 -6.77256 3.22603
-0.60137 5.78035 2.31045
3.22505 3.40837 0.95201
-0.54623 9.3951 0.48097
9.42538 3.9027 1.27533
-5.66989 -10.4593 2.06465
-6.29007 -8.95635 1.10084
5.9041 7.52976 1.9485
-8.43479 3.54355 0.24368
-3.42499 5.13453 2.68933
-11.4204 5.42182 3.56253
-10.9968 -10.2615 2.33009
-1.00189 9.47287 0.15867
11.4642 -9.86383 0.20265
0.21274 2.68369 1.31416
5.9776 -2.92984 0.72149
-11.4489 -7.8988 2.8542
-1.3053 -6.79799 1.90543
9.07473 2.76051 1.41468
-5.68002 0.65662 3.35931
1.71394 3.33534 2.00848
8.99852 -8.74032 1.6387
-1.56677 -1.66352 0.90742
-10.1926 -9.66574 1.72346
4.81409 11.4492 1.4434
3.95684 -6.39751 2.26557
2.76234 -2.69054 1.47024
2.4584 1.26582 2.93155
-0.57883 -5.6092 2.2343
-9.31849 6.91198 2.70264
8.3912 0.75842 3.58506
-0.5654 -11.5138 1.9596
-11.7202 -10.1755 2.0176
10.5625 8.61259 0.40441
-7.07587 -9.25428 0.30226
-0.23101 11.733 2.44345
-4.93796 5.95937 3.92269
-7.50808 -5.98004 2.01363
-11.6663 11.2358 3.02131
-2.28654 3.23799 0.25004
-3.94693 7.40234 3.15751
-11.7109 -0.85012 3.41475
11.4259 -0.82153 1.77227
-1.4531 11.7639 1.70186
5.02214 7.97447 0.92739
-5.0643 5.54322 3.67721
-5.67459 -11.4415 3.003
4.27662 -8.90345 0.22629
-11.3022 9.89517 2.06198
4.74058 0.09001 1.99635
-1.30842 7.59625 1.28911
11.3224 -9.60906 0.06986
9.43889 -7.03273 2.71789
-10.2399 1.75828 2.5414
3.05394 -2.39334 1.35466
6.85795 7.66866 2.7279
9.1372 7.68202 2.45474
11.4589 -6.61503 2.05087
5.07481 -2.64684 0.18487
-11.7929 1.45745 2.81169
5.57043 -10.5444 0.91009
-3.03855 -10.0146 1.0661
10.122 7.4169 1.7812
-5.87463 2.74367 1.47542
0.70294 -4.45585 2.39273
9.44428 0.73572 2.72185
1.38818 -5.86646 3.89779
3.02846 10.3913 1.54473
3.49371 9.99694 0.81438
-8.44418 -8.75142 0.38744
-3.28425 11.1422 2.28826
-1.24695 -3.04688 0.05646
3.59699 -9.40037 0.56048
-6.20721 -3.69768 1.22657
6.51615 4.58801 2.10681
9.24706 10.2677 1.51151
-6.13372 -10.1345 1.39035
-5.73158 -9.81272 1.59836
-7.23725 9.86732 0.28056
-7.42748 11.8795 1.86282
9.42037 -5.59076 2.77411
9.42041 -11.658 2.61939
-7.59934 2.06612 0.55693
5.92878 11.9414 2.46398
3.52873 2.68226 0.72611
-6.45387 -5.29252 2.37827
4.64752 7.06777 1.70978
11.2748 11.1491 1.19164
9.65316 -4.59389 1.65538
-7.56198 -9.18166 0.07174
11.2238 -11.8099 1.7532
-2.2899 2.91689 0.27274
-9.30597 -5.99519 2.84028
-1.45659 -3.92028 0.29468
9.49075 2.25653 1.30084
-5.73946 -11.7567 3.20708
9.28895 4.9726 2.3927
-9.40047 11.3194 2.29384
-9.22216 -4.77639 1.86273
1.75052 7.13366 3.64352
-1.45848 -6.95272 1.79041
-1.96163 3.29962 0.08787
-7.82048 5.33191 1.58121
10.8813 -3.19835 0.00813
-3.91463 -9.26457 1.71112
-5.14712 10.2136 2.20231
10.9722 9.99779 0.16
10.7987 6.08734 2.0002
-9.09915 9.08372 0.7377
10.4899 -1.9272 0.77623
-4.95291 7.61188 3.21095
-3.16943 -6.97825 2.79585
-2.81555 -11.6487 2.28736
11.0372 -2.51087 0.19327
2.01379 -1.93051 2.55147
11.1221 8.78366 0.20657
-11.8441 8.93793 1.7773
-9.5578 9.91013 1.24812
-8.98427 11.5568 2.10584
10.6321 -1.76131 0.87597
-9.99129 -4.8549 2.67872
-6.74378 -4.96997 1.81025
0.87191 -1.20852 3.11997
3.24468 6.30665 2.89682
8.27385 3.2948 1.92486
10.4727 7.20446 1.7384
6.60459 3.37816 1.34375
-6.53054 -6.83066 2.60901
-9.54167 8.31987 1.6674
-1.10419 7.107 1.78633
-2.21779 -5.50374 1.9134
-2.02902 -0.60259 1.92703
-0.2318 10.1321 1.01015
-1.93282 5.72001 1.91038
5.57401 -0.96951 1.91449
5.04469 -0.26325 2.02026
-11.3533 -5.09271 3.30792
6.95736 -2.94148 1.64421
-4.73163 5.05199 3.33292
4.70959 -4.30228 0.60129
-7.77774 5.13967 1.41731
5.73022 -4.15973 0.94983
-2.96235 -2.78536 0.8845
-3.37668 11.4215 2.64614
-1.39458 7.59712 1.26954
-0.1974 -1.69678 1.67823
4.84056 8.70713 0.25485
10.7538 11.1444 1.17737
5.35628 -4.55041 1.03896
1.62971 2.94885 2.01678
-3.67187 9.618 1.52439
-8.77856 -11.5263 1.90395
-2.19932 -11.8359 1.93596
-3.94345 6.83039 3.57263
-1.10245 1.83721 0.84441
-10.5321 4.81395 2.99591
-4.44896 -8.70681 2.21236
5.32435 2.87627 0.21647
-9.43806 -6.12924 3.00145
8.76252 -6.28378 3.6149
-0.62376 6.29558 2.41583
3.62646 -7.83533 1.55256
7.86984 8.92404 2.12265
-9.84328 -5.78797 3.28625
-4.73152 11.3578 3.35416
7.30034 7.67341 3.03021
2.85335 -11.9832 3.119
3.39065 4.86497 1.9055
4.40311 10.2859 0.39584
-3.71784 1.93301 2.19054
-5.18018 -3.6622 2.02505
-9.66191 2.42013 1.48407
-6.46351 7.01223 2.56646
5.58518 -4.04543 0.73871
-7.97195 -11.5934 1.56977
9.35963 11.9828 2.89963
11.2043 -10.3054 0.38505
8.8057 -11.7201 3.24307
-3.72812 -8.05684 2.352
-2.61899 1.96343 1.11824
11.9475 3.08982 0.42121
-10.7236 -6.48863 3.9422
4.934 -1.17535 1.40967
-4.86395 1.04762 3.48817
10.0066 -9.96832 0.59459
-10.923 -9.43114 1.99739
-5.49964 -9.59371 1.72003
5.72753 6.66455 2.40066
-2.0179 -10.6216 0.733
-3.15853 6.83028 2.87097
2.02335 9.05071 1.96848
1.81911 1.76511 2.77624
-0.0554 -8.99544 1.03539
5.67101 -0.25163 2.39386
7.43629 -10.4142 2.36487
-1.93931 -1.07381 1.54392
-10.056 2.25972 1.95441
1.39738 10.302 2.3457
11.536 -5.47233 1.83141
-10.134 -5.28982 3.19709
8.87663 10.4604 2.01111
-8.37821 -1.41472 1.28973
-4.37644 4.86771 3.0988
6.50425 11.4151 2.62662
-9.23986 -0.39408 2.73949
-10.2734 4.63261 2.67069
7.20068 5.49536 3.49947
-10.9914 -7.13968 3.65508
-6.40833 -3.96464 1.1952
9.17756 -4.37712 1.91568
5.92007 -3.78448 0.84445
7.32648 1.39633 3.03765
-3.07359 6.57414 2.89002
0.00129 -6.20184 2.99798
6.62249 8.5544 1.68829
-0.0609 11.0025 1.94606
-9.33079 -1.9891 1.49994
-1.39166 7.8752 0.99479
-10.4533 -11.0625 2.92342
-7.57319 10.0307 0.21718
-2.56894 6.4266 2.44787
3.95663 -5.11373 1.6629
1.26103 5.42682 3.60759
-6.62058 -0.93964 2.25906
-8.35264 4.03104 0.49193
6.08522 6.05953 2.77842
-5.9398 -11.3628 2.69566
3.96459 8.33764 0.80179
-5.50991 -10.002 1.86051
5.71423 -3.27125 0.46964
0.71639 2.74123 1.73575
-1.13007 10.3951 0.53055
10.0968 -3.21488 0.38015
3.69107 5.31079 2.04108
11.9772 -3.24324 0.44953
10.2047 -7.48213 1.66009
2.61395 -7.71539 2.64164
0.7369 1.7635 2.48048
2.90621 -11.7127 2.89042
-11.5748 4.91891 3.04197
-4.31087 7.64352 3.12938
1.68778 -8.16034 2.69158
-5.83448 9.03418 1.50912
5.9335 5.32833 2.23513
11.3158 -5.8318 1.95069
-7.17075 -3.41991 0.26295
-3.28308 -6.50953 3.11551
7.33242 -8.70192 2.11712
2.36908 -6.42957 3.68724
-1.30722 -3.58315 0.13045
9.16965 -5.12194 2.65057
-8.74386 -0.10689 2.36479
-4.56456 6.55665 3.95193
-9.70411 -3.58796 1.37369
3.42073 -10.2183 1.02315
7.89915 -2.6273 2.12834
1.26462 -5.75796 3.81871
-0.24903 -6.10556 2.7378
5.42313 10.9814 1.22791
9.64427 -8.3642 1.2939
6.20097 -11.4281 2.33705
7.7611 10.9495 2.9496
-3.53551 3.22485 1.38727
5.73829 4.6285 1.39789
10.1994 -0.3958 2.22321
-10.7967 11.2667 3.24806
-7.73485 -10.2748 0.34712
-6.20208 -9.9864 1.23463
-8.63389 10.8277 1.12197
6.84579 -9.66109 1.56119
3.38365 3.39271 0.79166
-2.40346 0.79274 2.02899
-7.89548 -1.06436 1.48593
-9.30231 5.20257 2.34862
5.2603 7.30833 1.66536
-4.0089 6.96277 3.54042
1.59219 2.61891 2.13329
-8.63658 3.55008 0.3732
-0.12289 -1.42241 2.02526
11.5949 10.5059 0.70392
6.12177 -3.52696 0.91263
2.73826 -0.67551 3.17287
-10.9224 9.0309 2.07389
-5.96006 9.63068 1.33865
-11.5629 -2.08716 2.34964
4.54614 10.7741 0.7941
-9.67113 11.9827 3.07832
-5.05031 8.16081 2.64141
7.08047 -5.56965 3.47152
-1.941 10.0281 0.24431
1.69406 4.21037 2.51121
-2.82625 9.40807 0.69
2.70064 -8.78256 1.62604
11.3839 0.04108 2.0736
-6.49355 9.6247 0.8111
-1.02401 3.52004 0.21656
-8.69502 -10.5941 0.94255
-0.29731 11.1785 1.88898
10.9543 0.7833 1.70944
8.867 8.43254 1.98249
-9.38686 -3.33472 0.98068
-7.28623 -1.17402 1.54333
4.64206 7.34586 1.48901
4.3009 -0.21243 2.061
2.50592 -4.00123 1.94101
-11.628 8.17596 2.49015
-5.0968 -3.07733 1.92908
-6.78574 2.13028 0.98759
7.74717 -0.27257 3.95738
-5.32836 -6.72478 3.72029
-5.06358 7.21619 3.53439
-6.88289 7.26507 1.99106
-0.15913 -3.98511 1.17671
6.1788 2.11355 1.37931
1.08995 10.5552 2.46037
-11.2141 0.66072 3.76578
-4.67363 5.92508 3.93581
6.1602 -7.50836 2.21611
-1.25358 -6.85998 1.88811
-5.66611 4.60958 2.47602
-2.24795 9.08906 0.27647
-6.28161 -0.21889 2.97771
10.7612 6.61519 1.97273
2.32716 -7.20492 3.33178
-7.46848 -6.87791 1.90169
-0.03282 7.14728 2.61651
-1.23463 -5.75818 1.9213
7.10514 5.88975 3.65608
11.2775 2.61673 0.17408
8.20533 -7.68386 3.10821
7.44684 -10.1697 2.18311
-7.77319 -6.10363 1.98718
8.60574 -6.22768 3.72895
10.7217 -0.88962 1.66697
-1.84686 -11.6462 1.64357
5.07861 3.89559 0.33735
6.79503 11.9601 3.31159
8.26793 -11.2798 3.19595
-10.1964 -6.32966 3.6962
-7.33583 1.64815 1.05399
-3.94896 -4.58886 2.59925
-8.39338 11.0455 1.19189
10.1946 -0.03221 2.30348
-9.42629 -2.23022 1.38886
6.0373 6.9002 2.5722
-0.35915 8.35847 1.16516
0.83925 -9.27093 1.75595
-0.33104 -10.5105 1.20874
-5.3385 0.42968 3.71941
2.80619 -9.47749 1.33053
5.7127 -8.39792 0.94245
2.54487 11.0078 2.57417
-1.0823 4.55131 0.95658
-5.93576 -1.37128 2.53867
10.2359 11.7948 1.99174
-8.09379 -10.5294 0.57912
-5.99083 0.12467 3.28045
-10.67 -4.23795 2.49063
-8.1107 -11.1562 1.19275
-10.4151 6.03659 3.80596
6.25767 -11.7684 2.67264
11.4137 -4.6561 1.02987
7.46517 5.09378 3.29758
10.9896 -9.80027 0.06969
-7.24619 11.0585 1.24198
-7.86653 -1.3668 1.20266
7.30688 2.53073 2.03489
-0.48466 -2.23168 0.92028
-2.76289 9.26482 0.64305
5.36404 -6.25772 2.20459
-4.36554 -1.10745 3.3874
-1.72715 -11.7322 1.68396
2.66888 -1.97879 2.05854
-3.15603 11.4063 2.4137
-6.04679 5.7374 3.08893
5.0898 1.89654 0.75037
-1.66813 6.80192 1.87318
-9.81367 -6.97655 3.14826
-10.7578 5.18925 3.43086
-4.60718 11.9907 3.8333
1.47657 5.92161 3.93091
-7.04027 -4.22759 0.84716
-3.79289 -0.94563 3.19145
0.3418 5.27992 2.87273
-10.847 -5.39018 3.61606
11.2725 8.64137 0.32959
7.37649 -11.5975 3.4544
9.28696 10.8504 1.9927
-8.83183 -11.1657 1.61049
-7.10314 4.62256 1.17918
0.83844 1.09349 3.20299
3.02432 -1.10229 2.56856
8.27757 5.29266 3.45987
6.25687 5.33603 2.55768
3.70141 4.24526 1.01864
-5.31532 7.60186 3.07314
7.2235 6.65584 3.73911
5.58394 -8.4535 0.79211
2.79727 -8.17304 2.02389
9.11397 5.80294 3.19272
-4.63465 -5.47003 3.68419
-0.79406 10.4166 0.73959
7.63801 10.0025 2.13906
7.16874 8.40723 2.24881
-2.44101 0.7162 2.10965
7.22342 -9.34435 1.81093
9.74802 2.87238 0.71838
0.63058 11.3684 2.9539
7.09218 8.35772 2.24089
-8.77061 -0.68488 2.16599
-4.35792 2.69488 2.03596
-10.792 3.16616 1.97966
-2.41752 -9.34994 0.34036
-5.19002 7.50799 3.22722
2.0514 -1.05892 3.37653
-9.64043 -2.52684 1.39707
11.8888 -9.89647 0.48231
-3.04354 1.61638 1.85653
-1.01376 5.88127 2.07149
9.52373 -11.4383 2.32962
-4.17018 5.93912 3.79796
-3.5986 -8.58966 1.77017
-11.1221 -11.6933 3.63445
2.00485 4.70842 2.9033
-11.306 11.5286 3.46032
-0.75074 -0.84778 1.97947
1.88819 -10.7205 2.67842
8.50303 8.13992 2.5146
9.12586 -5.67469 3.115
-5.34476 -3.2356 1.81105
-1.22169 -6.88948 1.88209
-4.33109 -2.6003 2.07114
9.73416 9.80911 0.76848
8.93997 4.6934 2.44705
10.2503 2.25494 0.63306
11.2779 -2.38605 0.31169
5.34731 -9.58333 0.20742
-11.2562 4.58883 2.84299
-11.8046 -8.34081 2.22237
-6.93988 -10.2556 0.71524
9.85833 -11.5294 2.08874
0.80415 3.22642 1.72384
-1.80347 11.3484 1.37254
1.76294 -0.85047 3.64123
-1.14965 2.39589 0.35276
4.55985 10.7476 0.76617
-7.36221 -5.78702 1.99791
8.25314 -9.19557 1.94754
4.1939 -10.429 0.59469
-11.4004 5.65528 3.72844
-8.82576 11.1868 1.62625
4.03084 -1.75181 1.04337
-3.20682 2.23468 1.449
1.02183 -3.93768 2.15356
6.61272 -5.54318 3.06207
5.32665 -4.89501 1.36441
-10.4797 -4.4077 2.56988
2.56826 -2.73318 1.62468
-11.728 4.63341 2.66467
7.88736 -11.7227 3.66421
7.57547 -1.73453 2.79846
1.63782 -10.1083 2.2224
9.08621 1.63164 2.27133
-1.21059 6.94844 1.85093
-11.8794 -2.22182 2.02819
-4.86823 11.8185 3.72101
-8.46961 -11.8815 1.95808
3.11723 -6.87957 2.85174
6.21228 -11.9999 2.77296
-11.7091 6.60637 3.70429
5.90439 -0.87048 2.27466
-7.17388 9.5726 0.2334
-11.7428 11.8507 3.48822
-4.92852 -11.465 3.42907
-4.28182 -3.05015 1.9129
-7.05388 -3.40906 0.33892
3.92247 2.25364 0.6651
4.17248 -10.0013 0.3039
9.85756 11.804 2.30381
8.80596 -0.54571 3.43483
-4.38704 10.8336 2.7863
4.70489 -2.56364 0.16245
-9.40891 11.4101 2.38693
-2.06078 6.0934 2.0997
-2.74928 0.61954 2.43182
1.51852 -7.24439 3.57116
11.1442 -10.5456 0.57609
4.9257 9.17827 0.05289
7.18045 9.37815 1.78271
4.02249 4.42419 0.94446
-8.75146 -3.77097 0.56803
-6.74904 -3.85387 0.79393
-3.99243 -11.5521 3.28004
1.1083 -8.50499 2.28895
0.64835 -9.67186 1.63424
-11.1565 3.25625 1.99364
3.82665 8.51629 0.75235
6.16509 6.99691 2.63811
-3.21439 -3.0702 1.07528
-4.3488 -9.401 1.93491
-1.4502 6.08314 1.98732
-7.87008 1.70334 0.86797
11.1825 2.90836 0.0445
8.82203 10.2353 1.8778
-8.38638 3.73372 0.30865
0.53206 -9.60814 1.52407
8.66644 -8.0765 2.46703
-3.57912 11.7307 3.09434
2.88557 8.6248 1.55651
-6.36766 5.96456 2.86529
9.45144 4.00057 1.32013
3.23327 -11.8537 2.6651
7.60341 -5.91517 3.90181
-0.95812 -9.98346 0.33393
5.67613 -3.45106 0.47705
11.5692 1.75318 0.97868
3.30332 -8.20775 1.49254
-4.01487 -2.93406 1.7879
-2.61688 -7.56549 1.78354
1.36036 -0.70411 3.74012
-5.27691 7.73513 2.96342
4.66199 0.42647 1.9117
-2.4864 1.6389 1.32264
-5.93916 -5.2429 2.84325
9.43804 8.93228 1.10559
-10.2815 -8.91148 1.88457
5.74284 -10.8286 1.31938
-4.48548 -1.14396 3.38836
6.90146 -11.0431 2.62712
-4.7603 -6.95821 3.77955
10.2698 3.68498 0.39602
2.85527 -0.78603 2.98908
-1.69196 -11.7949 1.72424
-8.62882 -4.23673 0.82754
8.00982 -1.93135 2.63509
6.60871 -4.11633 1.75842
-3.20798 10.8096 1.88145
0.27975 -9.92463 1.39846
-1.49431 -9.04046 0.07587
-5.26507 -0.16445 3.83763
7.80394 2.57841 2.15319
-11.3686 -3.30419 1.94444
1.65856 6.36373 3.99291
-10.3638 -10.8884 2.70002
-11.7649 -10.6 2.33302
8.62957 2.31949 2.03332
-10.8631 5.71956 3.83656
-7.01658 2.31836 0.65075
-4.84053 -4.3859 2.67108
3.20086 2.41929 1.19048
7.5342 -0.29338 3.90658
3.99221 -11.3932 1.6355
-4.24816 -4.18389 2.38993
8.63326 -4.80258 2.80149
8.02175 -5.03549 3.30347
3.05608 2.16907 1.52219
5.29984 7.74305 1.27835
-9.29399 -7.77967 1.94382
2.55094 -7.59555 2.81247
4.12509 -7.57682 1.44119
-7.32442 5.727 1.98625
2.13985 -5.94412 3.78548
6.69528 0.78971 3.10458
0.62985 -7.1894 3.20575
-3.73412 -8.05323 2.36053
9.43885 3.75923 1.17068
1.28309 -4.88294 3.12862
-11.338 -1.33132 3.17913
9.71008 -9.28982 0.72765
-11.4835 -5.11179 3.27218
9.18081 0.63825 3.0447
8.13635 8.2827 2.54469
-6.05956 -7.98321 2.09289
-5.84469 -7.2133 3.02231
10.6147 -7.29576 1.60135
-11.0742 -4.61416 2.89884
-11.2454 -0.21755 3.94539
-7.80248 -7.23628 1.58049
-7.30094 0.57396 1.98883
6.90996 11.3935 2.97402
-2.69831 -11.3891 1.95451
10.6846 -9.80156 0.11811
6.90746 0.43657 3.49072
11.2375 2.87336 0.06487
-1.43849 9.41628 0.00878
-3.16712 -4.51215 1.82662
8.66178 8.81597 1.87076
-9.6308 -10.1724 1.4713
3.44896 -4.20742 1.21366
3.87654 -11.9536 2.14749
3.42188 -4.41341 1.42883
2.13566 9.45246 1.84505
2.45043 0.11514 3.63082
8.53939 4.63567 2.69752
4.77724 -9.54379 0.00918
-0.043 7.51169 2.29266
10.803 -10.5174 0.55829
10.2156 4.7278 1.30451
-2.52949 8.57009 0.76895
-11.05 1.44304 3.12593
9.77629 -0.53744 2.5147
-8.45335 4.52639 0.98938
3.39487 -5.27079 2.27925
10.8863 -8.99871 0.09536
2.52042 -8.51591 1.96735
3.57689 0.42123 2.4909
-2.88518 -10.1413 0.9923
6.978 -8.16462 2.33457
-3.83075 1.18638 3.01091
2.27996 4.04621 2.14092
-9.25088 -2.52755 1.00965
6.79995 1.51172 2.55311
-7.53397 0.57768 1.8885
-8.9679 5.46102 2.23949
10.6101 7.84079 1.08658
3.97392 -4.90246 1.44944
-3.9157 3.48108 1.75615
1.26858 1.70103 2.82481
-6.45554 5.19096 2.28901
2.04798 3.9552 2.20141
-11.4902 -1.83392 2.62006
-5.60099 3.72647 1.79672
-1.69936 1.04314 1.51176
-1.87526 -5.89385 1.97116
-11.0836 -1.18751 3.3701
-8.96429 8.50109 0.95273
-0.2326 4.99696 2.05024
-11.5071 0.70931 3.63079
-6.78753 -8.11738 1.25641
-4.58589 -11.9851 3.82779
9.07002 -0.61176 3.166
1.0769 -4.85173 3.01938
-5.11069 7.58458 3.18788
9.37308 -8.23121 1.68333
-7.27606 8.31024 0.72181
2.57161 -7.04895 3.26047
-2.49047 -3.84578 0.63179
-3.1807 -5.87249 2.95594
11.7449 6.15112 2.25912
0.64865 -6.98196 3.36974
5.24244 0.85044 1.79687
4.98001 3.9211 0.32434
7.78336 -3.41812 2.0355
-4.49369 -1.71757 2.82994
-3.35822 -6.03453 3.18418
-11.7654 -4.96355 2.96659
0.48371 -0.2151 3.44202
-4.76495 10.5529 2.57029
7.98408 6.44067 3.97917
6.32426 -10.3259 1.42036
3.22239 -8.68355 1.18165
4.65637 8.16856 0.69215
8.43557 -9.86232 1.9298
-3.19527 8.03114 1.87741
3.85118 10.1299 0.58694
7.79671 3.39828 2.03112
7.68901 2.23101 2.37314
-10.3796 2.94809 1.83486
-9.0902 -5.0417 1.99502
-7.08675 -3.23222 0.28427
4.65122 11.0205 1.02678
-4.85513 -7.16431 3.62611
2.32956 4.83185 2.84487
-6.52063 9.46125 0.76545
-11.3702 -4.70469 2.92294
-9.51842 -3.64149 1.21587
-7.03125 5.92244 2.25542
-0.04288 5.75865 2.82269
-2.06243 6.85794 1.95776
-3.5329 0.27301 3.34436
6.49162 10.9503 2.16163
-11.6018 5.33844 3.40777
-1.95885 -7.98426 0.94444
-10.8726 -10.3851 2.41916
11.5555 4.02886 0.52119
-11.9894 -2.86344 1.58392
-11.9368 -5.40188 3.22494
-0.51751 8.63987 0.79783
-1.72605 9.74943 0.06427
8.95602 10.0265 1.62741
-9.75638 9.16352 1.35949
-3.52584 -9.17027 1.40708
-8.7068 -1.90684 1.01238
-2.19234 -0.16847 2.17286
6.31097 0.21369 3.00503
-5.83004 3.5819 1.53318
6.3492 10.7525 1.82533
8.81847 10.3334 1.95497
-3.01726 8.78019 1.07664
9.01556 -1.69506 2.27395
3.25163 3.89565 1.16127
-0.83978 -11.2485 1.50575
-5.95146 3.30407 1.33884
10.0235 0.49814 2.31486
9.75123 -0.6292 2.48782
-0.40217 -2.64925 0.72735
0.28189 -10.9238 2.20648
0.11437 2.15697 1.56095
5.95751 -9.51412 0.68404
-2.36931 9.29769 0.31029
-9.78972 1.76347 2.16542
-10.4128 9.19071 1.86221
-11.1899 3.62103 2.09392
-7.68773 11.6008 1.58277
11.0098 8.77598 0.20329
-8.05148 -11.8569 1.77817
9.68233 -10.026 0.92061
5.73474 1.47894 1.57036
-7.41728 10.595 0.70386
-3.47149 2.08553 1.83164
-7.8608 9.92909 0.12452
5.81833 7.32179 2.05913
-6.33612 4.07454 1.35162
9.46224 -7.73024 2.08597
-8.232 -7.39994 1.50921
2.84601 10.041 1.47521
5.84609 -8.14173 1.2929
-0.12215 -3.85383 1.12125
6.19287 -2.4915 1.11378
-9.33028 8.03577 1.72486
-4.09241 -10.6785 2.50207
5.36718 -0.65039 2.00267
9.69834 -9.3887 0.73049
-5.08977 4.30278 2.53139
10.2743 5.46224 1.93056
-2.57745 9.41016 0.46542
-3.3377 7.17628 2.82186
7.22594 -8.25513 2.4187
-0.35312 -1.96597 1.2692
3.33081 -8.31456 1.36744
-11.4297 -2.24333 2.28428
-6.12964 -2.39266 1.42052
-8.69309 -9.44196 0.33202
-5.92309 7.04537 3.07569
7.58675 -7.35901 3.43951
10.7004 6.96058 1.82244
-9.97196 -2.8019 1.57742
-3.43212 3.18725 1.2875
-9.55811 4.05235 1.51979
6.18363 -11.1608 2.06513
-6.5782 8.96196 0.81445
9.82411 -4.00553 0.96175
-1.70242 -4.48565 0.78385
-5.89763 5.44656 3.04605
1.96486 1.43717 3.05659
3.2423 11.0373 1.94114
-4.03992 4.37768 2.4538
2.42907 1.27911 2.94131
-5.0707 -7.02142 3.67615
-9.46469 5.88046 2.9599
-11.4491 6.72465 3.80302
-4.39731 9.58728 1.96395
-8.71123 -8.07834 1.123
0.65428 -2.97025 1.62323
-3.50114 -4.82632 2.46554
1.46963 -4.87314 3.15495
-11.6368 -9.64924 1.82643
8.07717 4.07592 2.38084
4.97835 11.9243 1.83599
11.1297 -4.39712 0.69891
-2.53892 -3.03182 0.43917
-6.10784 9.0226 1.25423
3.91263 -11.8093 2.02998
-11.0299 -9.98918 2.1545
-9.08355 -11.6798 2.29743
10.5761 5.23076 1.58218
9.1101 -7.22667 2.89648
-6.21533 -3.23787 1.07244
-2.84768 -4.19108 1.21228
-7.01692 -4.05088 0.71604
-11.9699 -5.79761 3.44617
-6.09685 11.5794 2.73651
-11.2618 -9.07383 2.02572
7.35312 9.16568 1.91055
6.0718 -6.69759 2.70555
5.45214 -11.601 1.83048
-1.20715 -4.23922 0.60968
10.2 6.08572 2.28068
-9.21196 -9.53886 0.79529
-2.80873 11.7017 2.32218
4.26624 11.3101 1.40722
-3.65113 -3.93198 1.7842
3.44697 4.55377 1.54138
7.27056 -0.0343 3.83399
-3.34841 8.02712 2.03307
7.3792 3.89652 2.16107
10.0385 1.57561 1.41926
-10.5778 4.41511 2.62109
-11.749 -3.30751 1.74309
-4.50759 2.60396 2.12018
4.61283 -5.52986 1.73437
-2.81008 6.95583 2.4567
1.94648 2.12315 2.40556
7.37294 1.7709 2.68774
-5.7248 -0.68162 3.30637
0.75262 -5.88452 3.60513
-9.89456 11.8093 3.17952
4.74588 -5.79819 1.88524
-9.7807 -5.75204 3.21068
-3.04984 -0.40661 2.82684
-11.9973 4.87099 2.69676
-5.4986 9.44332 1.7067
-1.69754 -7.74445 1.11733
-11.6303 11.9145 3.6002
6.76425 10.5157 2.00108
-10.2528 1.53925 2.7681
0.27606 8.80385 1.45923
4.40413 -11.042 1.09355
10.4434 -0.40121 2.0692
4.37297 -10.0521 0.24745
10.4024 10.6132 0.7977
9.27046 -0.54201 3.01037
-8.67595 -6.27488 2.31919
4.22512 -2.64262 0.23831
0.28147 -0.14187 3.26772
-3.17289 -7.09837 2.71703
-5.18175 -5.01775 3.1925
9.04068 6.23055 3.37334
11.7459 3.71541 0.42872
-3.20754 -8.86808 1.2169
-4.50294 0.54168 3.83499
3.44765 -2.83675 0.7448
8.01318 0.81089 3.67621
-1.63574 -5.92984 1.94033
-0.94187 2.80738 0.24667
11.7767 6.70824 2.2009
2.37679 10.5895 2.29738
-1.61577 -6.89204 1.82131
-1.3929 7.45001 1.40886
-5.80098 -2.65371 1.5804
-11.7973 -3.42543 1.73547
5.40421 9.83848 0.31428
10.4496 9.64013 0.16846
-7.10158 4.77103 1.32856
3.1576 -4.90309 2.17354
-4.58257 1.63265 2.92977
-4.97213 -9.53305 1.97231
-9.17882 -7.93949 1.67111
-0.72216 -10.5978 0.95163
-7.34698 -11.43 1.5467
5.09485 10.7593 0.83822
0.43702 -4.63878 2.3497
5.49213 2.7049 0.38275
10.987 9.61294 0.01769
-9.34038 0.60909 2.73587
1.11482 4.12249 2.34156
4.1427 -2.96966 0.17268
-4.5584 -0.35482 3.92588
-6.85679 0.42461 2.36853
-0.49763 1.80221 1.2933
-8.38174 0.7232 1.88575
-7.80513 6.3704 1.99739
-1.31084 6.6162 1.97866
9.13022 8.40114 1.77005
-7.27405 3.01817 0.17111
-11.088 4.79671 3.07996
-2.16968 1.9558 0.79847
4.29517 -7.32916 1.58684
7.02518 -6.5566 3.63861
3.13694 -6.63332 2.94398
-1.49581 7.78634 1.0704
-9.69077 7.66222 2.45345
-7.3812 -0.12182 2.10228
-3.99557 7.86654 2.74134
2.87239 10.7533 2.02608
6.60146 -1.73347 2.15096
5.71734 0.14259 2.45372
1.77735 6.29863 3.97862
-9.26695 10.4465 1.32091
7.91562 -5.61913 3.7856
-6.89158 8.76904 0.63585
8.75581 -6.86158 3.45752
7.09489 5.60612 3.50488
-9.21816 9.19329 0.82152
0.93895 -4.93817 3.03081
9.17585 4.66674 2.20072
2.53666 -1.54546 2.59404
-7.55961 -0.02418 2.04272
-7.26175 0.54387 2.02602
8.2761 -6.06962 3.88951
-1.24012 -5.89321 1.97909
10.7486 -3.67291 0.16821
-6.47325 -4.10771 1.24258
-4.43861 -8.56455 2.31049
-6.72629 7.3456 2.05802
1.13416 -7.87878 2.88138
1.92883 1.82772 2.68248
6.43478 2.00563 1.72975
-2.22788 5.30554 1.7672
7.2828 1.64207 2.77005
8.09864 0.83291 3.64295
-3.81341 6.07869 3.60158
0.18647 5.73189 3.03724
-1.12309 6.38116 2.09376
3.01979 3.35326 1.14382
-5.13855 -10.6952 2.61472
-4.72399 -1.02384 3.52002
9.63941 -5.72247 2.63389
-8.62544 7.20273 1.88929
-9.5779 6.65459 3.08434
-2.51369 0.92163 2.01708
1.54022 6.4644 3.98316
-3.08464 1.37679 2.13588
-2.15643 3.19789 0.16822
-2.75123 9.25131 0.63448
1.67104 -9.79824 2.06391
-9.63599 -4.01639 1.56849
11.1269 3.28913 0.01947
2.04113 -6.67179 3.81685
1.19252 -9.48273 1.93098
10.9811 10.2901 0.35173
-9.15313 1.49386 1.80855
5.95594 3.32729 0.69575
-5.13813 -7.1291 3.57378
-2.65057 4.43707 1.25662
8.29256 5.2987 3.45865
3.75933 -11.3512 1.76894
2.44786 6.0715 3.61709
3.15489 6.25191 2.98621
7.18918 3.19798 1.78863
-0.31634 -6.41467 2.68027
-3.96337 8.02609 2.56109
8.82697 5.08483 2.92673
-3.03845 5.50947 2.61235
-3.40812 6.02176 3.22941
-1.54157 2.79999 0.05821
-3.21175 -7.53147 2.38705
-11.6248 2.20549 2.21553
-1.92979 4.25969 0.62636
4.92534 -7.23083 1.60619
-11.1281 11.9476 3.8058
-5.55451 -4.15164 2.13406
-0.26386 2.32179 1.05683
-6.92898 10.4069 0.84289
-11.065 -2.74234 2.07624
8.16488 -7.68624 3.11902
-9.86675 -2.11409 1.91077
5.10571 3.07508 0.07857
-3.55017 3.42553 1.43734
1.11046 9.95006 2.03072
7.32352 6.75444 3.75357
-8.14268 2.36805 0.32595
4.32425 6.3821 2.0695
1.94284 1.6074 2.89499
5.16059 -0.74154 1.8362
-5.82655 -9.59637 1.45562
5.30026 -7.93298 1.08896
10.6158 -7.82302 1.10222
2.33084 11.7062 3.37715
-7.98531 -5.88799 1.93153
-5.64357 -3.75874 1.78135
-10.2417 -4.08551 2.14243
0.73098 4.09437 2.08817
1.20548 7.99957 2.78894
-7.77198 9.06391 0.06777
-1.32076 -0.18799 2.01348
-1.03228 1.67186 1.04063
7.6816 -10.0517 2.17534
0.97185 -9.65242 1.85173
-8.37946 -1.81756 0.89065
-10.8956 2.06157 2.5237
6.37626 -3.8163 1.31205
10.1883 5.68412 2.13442
11.6498 4.18399 0.70234
8.95845 6.41173 3.44136
5.75479 -3.86102 0.74367
10.1713 -11.7622 2.01462
9.13571 -9.99404 1.44276
6.17317 -9.60102 0.9057
-11.4449 -4.64505 2.83345
-5.92054 8.2236 1.99349
-8.0127 10.2872 0.362
11.1556 -7.53157 1.32963
10.478 -6.28211 2.13099
4.17247 1.58361 1.12944
10.2743 7.66955 1.43241
3.56394 3.4469 0.63634
-1.97184 -3.06083 0.0826
4.67749 2.66489 0.1121
3.72891 3.53737 0.52317
-9.41569 -9.3348 0.99496
-3.42384 5.24906 2.78979
6.39058 1.09731 2.56318
-0.40145 6.14486 2.5997
-1.73819 -10.2333 0.32338
0.72816 -6.60014 3.61569
-11.1105 1.49041 3.0737
-4.38528 0.73289 3.69022
-8.36519 -5.09696 1.50301
6.6004 -9.99569 1.47051
11.5067 1.15502 1.53171
-1.11573 11.5773 1.65125
-8.97847 -5.99041 2.52581
-2.35713 -5.90704 2.22364
-7.60492 -11.1898 1.22383
8.86251 10.5712 2.12133
5.77311 8.16102 1.20952
4.23223 -10.8749 0.99273
11.9922 2.28018 0.80545
6.14784 -9.12709 0.90905
7.98956 -4.98806 3.26301
9.46579 -0.62889 2.76768
-10.0719 11.6916 3.24414
11.3297 11.1342 1.19351
-5.94887 6.59886 3.27871
-3.27711 -4.77454 2.19722
8.94124 2.69682 1.5622
-3.05951 7.31671 2.4298
1.12181 8.95247 2.01036
9.13782 7.6844 2.45181
10.2441 -1.28773 1.5486
-10.7712 4.87413 3.13597
-8.18305 -9.10868 0.1032
-7.64641 -11.6661 1.64288
9.08975 -9.98503 1.48167
5.09812 -6.44298 2.06073
-9.69996 -6.50189 3.2479
3.20754 7.10431 2.6155
-8.66692 -1.39141 1.49105
-1.49146 -4.94515 1.23381
-10.2788 -3.14307 1.75392
-1.91818 -1.10499 1.50887
-6.5828 -11.7088 2.35912
4.14758 8.82997 0.32705
8.03133 10.6727 2.66698
2.72762 -2.77257 1.46957
-11.054 11.7992 3.71819
2.48147 -5.72918 3.46363
0.84788 -7.34844 3.23416
2.36011 -7.3107 3.22128
5.21073 -11.7272 1.78971
-2.47135 -4.47254 1.14127
-1.89217 -7.82952 1.07566
-1.28616 7.26083 1.59922
-0.17971 -10.6365 1.46986
-9.42336 10.8316 1.83532
-3.50666 -1.0669 2.83986
7.38918 11.3229 3.21543
3.49959 9.45142 0.64995
-11.9325 -6.94139 3.38334
-9.65016 9.56042 1.23266
1.53253 7.34968 3.48246
-11.7278 6.4664 3.72694
-6.69223 0.45978 2.49842
-4.53611 10.3003 2.34393
6.06586 8.29805 1.35476
10.7144 -2.35161 0.33541
6.98756 7.61931 2.88009
-1.66731 -9.74592 0.05578
10.1569 -1.28655 1.61201
-10.6029 4.13975 2.38203
4.04968 -4.14592 0.67501
-2.67156 -4.63836 1.47312
-11.3462 8.67481 2.20746
11.8378 4.59174 1.21387
1.7273 2.15416 2.43695
-9.57092 6.19023 3.14131
1.52998 -0.42582 3.90987
5.61376 -7.75429 1.47899
1.25525 -11.9088 3.74214
3.17885 2.61334 1.09906
-4.95106 -8.9128 2.09988
11.0907 1.54906 1.02626
-5.66768 0.03498 3.57676
-2.45166 -1.54911 1.3852
1.21005 11.7651 3.63139
-0.80081 8.37775 0.78194
5.60605 4.98342 1.64116
8.78321 5.44707 3.2688
-9.68719 -5.25925 2.77942
-6.436 0.53676 2.70715
-6.07168 0.47672 3.09844
-8.48485 1.20565 1.54957
-7.95267 -8.64657 0.29269
-11.6298 -3.27536 1.81448
-8.65749 -5.41491 1.95196
8.0364 8.77458 2.18744
11.1348 3.30905 0.02367
6.63073 1.5053 2.40604
9.83632 -6.39451 2.59379
-9.68259 -3.26967 1.26316
0.06231 -6.16162 3.05489
3.0719 -2.58998 1.21796
1.24235 -8.80424 2.13298
6.84914 10.6868 2.23238
-8.77968 -7.75469 1.49785
11.8342 9.88805 0.4369
7.52551 6.88563 3.77049
1.5523 2.95779 2.01667
3.36346 9.84128 0.86544
-0.7682 8.92206 0.42888
-9.04321 6.44092 2.61521
10.6774 -11.2922 1.34252
1.3522 5.4771 3.66853
3.60153 -5.3628 2.16162
2.40946 -2.05312 2.20461
6.67178 9.50717 1.38228
10.2929 8.74699 0.4579
7.00794 -2.7747 1.72951
0.97369 -2.21646 2.22524
-2.99343 -6.45463 2.83772
1.81253 8.84804 2.13268
6.22016 3.36121 0.96104
-6.48603 -11.3631 2.15787
7.59781 -3.89179 2.23581
2.68237 -4.66046 2.39134
-0.6023 1.636 1.3683
8.40608 -0.03485 3.85082
3.09542 -8.97166 1.14707
-6.99419 -4.33337 0.97739
0.23769 -6.07018 3.21286
-2.83134 -5.59416 2.46656
1.20086 10.8018 2.73982
-3.78212 -0.74247 3.33442
-1.77344 -11.2524 1.27447
-4.74937 -11.0821 3.08572
-5.06073 6.61008 3.88698
-6.44635 8.12202 1.57272
-11.4332 9.66136 1.9336
-10.9277 7.59348 3.25526
-1.59876 11.7446 1.68135
-10.534 9.04427 1.96685
-2.23827 -7.97222 1.09665
-4.0642 11.8697 3.56417
-0.40724 -2.86288 0.64252
-2.70645 0.74195 2.31562
-1.95319 2.45816 0.29681
10.5303 -1.62435 1.05279
-10.0569 -6.37079 3.58703
11.2212 -0.35524 1.9629
-5.77674 9.3696 1.4866
-11.7047 -1.75866 2.57217
-2.87701 -3.24763 0.74411
-7.7629 -3.31224 0.01867
3.69168 -2.71636 0.5663
-0.36096 0.87338 2.28906
-2.54857 0.51486 2.31149
-2.10507 1.95729 0.76242
9.11788 0.48837 3.1852
7.32583 -9.31198 1.8701
-9.2966 11.7299 2.54229
6.05695 6.2548 2.77529
-8.48893 -9.42568 0.1949
-0.94057 -3.98365 0.52617
-4.3056 9.21901 1.93949
-5.0845 -1.6717 2.83083
-1.59394 -5.35106 1.5964
-6.21587 -0.93413 2.66178
-0.8577 -3.09858 0.24458
0.13597 -0.62991 2.94363
2.47738 -5.99305 3.57464
3.21983 -10.0984 1.14029
4.91414 0.91772 1.62792
-4.67408 -4.2454 2.54907
11.7308 0.26336 2.22382
-7.68004 4.65362 0.95636
1.9434 7.50538 3.27296
3.31439 2.63736 0.95252
-4.55429 -9.02141 2.06778
10.2767 -4.17678 0.7371
4.63372 -7.80969 1.04737
1.34668 11.6262 3.56466
-2.41851 1.07104 1.81751
-6.39118 -7.8679 1.87829
4.53274 3.94982 0.32531
-2.78574 -0.36134 2.58703
-6.9317 6.03447 2.36523
-10.5038 4.23943 2.42596
-9.16084 -6.05704 2.71366
8.78518 -5.06048 2.93798
2.89733 -3.48217 1.29928
7.05649 10.563 2.2793
11.8177 -7.29402 1.85052
-11.5549 -8.59359 2.1736
-1.6187 7.4131 1.42789
-6.79326 -7.66435 1.70025
5.47462 -0.46876 2.16883
2.64415 -3.70675 1.63268
-8.59903 5.83675 2.16694
1.8988 -10.8962 2.84749
1.00109 -7.03391 3.57325
6.00348 -10.567 1.30838
2.57322 -8.98174 1.63481
5.66102 2.0797 0.92999
-8.17306 2.28164 0.398
-3.5175 -10.3055 1.73054
9.52895 2.92686 0.91899
-0.52458 -5.28952 2.04477
-9.39389 -6.49894 2.94593
-4.00487 6.94484 3.54896
9.88968 7.7005 1.70454
-2.90827 -1.07674 2.24298
0.47374 -3.93579 1.75536
7.46929 -0.23126 3.90029
2.95223 -0.3884 3.11375
5.30707 11.2235 1.39764
6.90495 -10.0835 1.79171
-1.85719 4.65017 0.97856
11.6172 -1.38392 1.37288
-2.03333 -3.8095 0.31996
8.74762 4.58345 2.49799
9.42306 6.72983 2.90362
-6.37371 11.2712 2.18179
-2.42298 0.342 2.28374
-2.8333 -4.59417 1.57862
11.1907 10.7889 0.8138
-6.95396 10.9081 1.29108
-2.37198 9.50556 0.3074
-1.98818 -5.05726 1.42393
2.72959 -8.81269 1.582
-0.4125 9.22079 0.61983
-9.17473 -2.74198 0.83133
8.49074 9.01904 1.88522
-7.38097 -6.78781 1.98516
10.2471 10.7869 1.06018
3.14238 0.00411 2.9992
-8.15883 -8.10073 0.80186
-3.84199 7.74721 2.75109
-0.19788 -1.24615 2.12238
6.7729 -1.55946 2.48171
-7.21875 11.0017 1.20119
0.26491 -10.6512 1.92424
-11.756 -4.73721 2.74938
1.27551 -3.0442 1.96146
-9.12024 -11.7519 2.38644
-3.18819 0.0509 3.04528
-10.8301 -8.86557 2.13867
-8.09611 -3.66328 0.16219
8.87399 6.24835 3.52275
8.9556 0.81504 3.138
-4.47264 -7.95927 2.8663
-11.1192 -0.42032 3.90532
9.49816 -5.10125 2.30582
3.83428 9.05879 0.42762
-10.4998 -1.30414 3.14309
10.2886 3.2637 0.24715
-2.25758 10.1023 0.44761
-1.1587 9.11679 0.13077
-7.14404 1.83141 0.98393
-3.21278 -2.6006 1.21393
7.97676 4.32198 2.61191
-9.48368 -2.95338 1.07653
-3.5771 3.26463 1.42943
-4.53949 -10.7809 2.77205
-4.23135 -9.62848 1.90719
-9.5808 -1.2037 2.5143
-8.92192 2.30357 0.84913
7.59547 -4.92423 3.17703
-10.5882 -4.07711 2.32477
8.95898 7.14886 3.09726
-2.78341 10.0352 0.83002
10.804 11.6554 1.63124
-0.45239 -11.6214 2.14865
6.88207 1.67284 2.46186
2.85795 11.4393 2.70913
9.31562 -4.60698 2.00372
5.75775 4.76624 1.55224
-8.61184 10.3803 0.69652
1.17101 10.5401 2.48128
3.38797 -8.13635 1.47748
-5.35566 5.55747 3.54817
-8.91236 5.45127 2.18318
5.89288 5.3133 2.18492
9.41005 10.7413 1.76319
-9.30918 10.422 1.34201
0.25009 5.17471 2.69352
-11.0556 -9.82683 2.07794
0.04703 6.82938 2.90152
-0.66951 -1.61128 1.33892
-10.3461 0.59728 3.6233
-8.23137 9.3691 0.07192
7.99236 6.31451 3.98995
0.34804 8.77667 1.54383
-10.5901 -3.25528 1.92537
8.33467 2.7459 1.96395
-6.38903 11.238 2.13446
11.1761 9.20882 0.03947
-4.01934 11.146 2.91914
9.6989 -4.05782 1.12048
0.89376 10.3072 2.14417
-1.46832 -4.51272 0.8069
-8.185 4.22068 0.58216
-8.14012 -10.5296 0.59136
-7.22797 -1.54905 1.21137
-4.60469 11.726 3.66141
11.8829 9.56456 0.37826
-11.499 -2.93787 1.89663
-7.09161 10.687 0.97309
9.34827 10.9078 1.98881
3.53976 5.5726 2.37025
0.1808 4.99879 2.46232
-8.11987 -4.40193 0.72964
-9.39811 10.2056 1.263
-7.27395 6.95347 1.9472
0.44196 -3.20963 1.43003
3.0082 0.10049 3.12795
-10.1994 -3.57386 1.79143
-1.27081 4.4978 0.83172
7.59769 -6.73872 3.86536
7.67367 0.72361 3.73321
0.4368 -10.6616 2.09523
-4.57953 -3.22476 1.99464
2.98986 10.9911 2.14672
-6.73668 11.6741 2.18953
0.63705 -4.99596 2.87461
10.4622 -1.52261 1.18707
9.80841 8.90754 0.75652
-6.54063 -1.82431 1.49458
-2.35485 -2.13268 0.75917
-3.8951 6.65869 3.61452
-8.07266 -0.94362 1.61068
9.67681 10.837 1.59272
-6.61901 6.97135 2.44287
1.99589 1.23079 3.24449
9.60655 -7.62638 2.04487
6.46559 8.15545 1.88447
1.39208 -8.80931 2.16757
-8.61125 -10.1897 0.55186
-9.49673 4.06974 1.47257
2.76918 5.69666 3.19673
9.51293 -3.30928 0.92599
10.2738 -10.794 1.04914
-1.94736 5.63209 1.86549
-6.54417 -5.50088 2.45126
9.07709 -11.9977 3.18332
-7.45084 4.61212 0.98006
-6.30101 -0.3497 2.92166
4.87764 -0.95267 1.59313
-4.9429 8.64189 2.26467
9.09457 3.24175 1.32925
3.40781 4.37372 1.40468
-7.85672 -0.03143 1.99951
-11.0624 5.88558 3.91976
0.7909 -6.01833 3.67612
-5.69759 2.91243 1.57884
-1.71004 -9.55739 0.01846
11.0033 7.99428 0.86019
4.74871 6.95893 1.7809
4.38549 -0.33239 1.99822
1.84471 2.75169 2.03777
9.34611 9.35748 1.08085
8.06672 -2.05448 2.51242
-9.01256 -4.35537 1.24988
-3.48318 9.31586 1.3409
-10.2783 1.67579 2.64878
11.7243 -10.995 1.25337
-5.56176 -3.18203 1.66127
9.45403 1.3559 2.184
0.52107 10.3206 1.87292
-10.7703 -11.2383 3.21504
7.80902 3.42476 2.03881
6.38851 2.76304 1.17593
-8.01286 -11.8904 1.79269
1.95017 9.24145 1.94566
-1.01591 0.6414 1.9513
-6.75347 -6.86569 2.38194
-9.4353 -4.79634 2.09438
-11.8053 -4.05458 2.07833
3.62167 6.14842 2.52908
11.0318 5.40997 1.64302
-11.0539 5.43978 3.66322
-7.31381 -3.50176 0.20654
-6.1264 -9.64651 1.18063
5.48459 10.0343 0.46371
10.2359 -3.66266 0.40767
3.88702 7.5254 1.64442
-7.45802 5.60167 1.854
-3.6436 -10.3093 1.84754
2.82742 6.44145 3.29653
0.68714 -11.5277 3.14172
-8.41257 5.26132 1.67377
5.57604 0.31078 2.30243
8.37591 10.6762 2.5529
-10.4784 0.01368 3.86912
-9.29991 3.30812 0.88929
-9.44355 7.30544 2.54022
-9.59976 -8.67386 1.44303
8.58661 0.86838 3.38948
-6.4795 -8.43951 1.2523
-10.265 -9.31641 1.75068
11.8999 11.3657 1.74345
8.17323 8.85204 2.10905
-2.21786 -4.21955 0.72901
9.09302 11.6733 2.95271
6.43712 -4.16075 1.62924
-0.75901 -5.16752 1.75138
-8.26955 0.25021 2.05397
-2.67194 -8.40237 1.02611
3.9502 2.46668 0.49591
-3.27254 -7.18753 2.74877
5.23608 -4.58862 1.01057
-4.8612 -5.33688 3.57363
4.45833 5.4431 1.6995
4.94455 2.72622 0.11186
-0.31421 -3.25086 0.69689
7.26396 3.43143 1.87264
2.37499 -2.42802 1.93766
-2.12991 -11.1846 1.34021
-11.1326 3.94944 2.29957
2.22726 -8.75498 2.00821
-0.72884 -11.7418 2.01285
4.55861 9.40325 0.01203
0.96209 -2.42081 2.0691
-7.16875 5.13066 1.63191
0.51552 -0.89464 3.11879
9.78541 2.44536 0.87988
9.42296 3.531 1.07668
4.1464 -9.51086 0.15964
8.56514 5.70514 3.59514
-10.1305 -2.74755 1.72521
5.12238 2.85995 0.12228
-0.52539 -5.20988 1.97567
-8.2545 10.0085 0.24472
-7.71841 -8.29264 0.58445
-8.40106 4.28587 0.73225
-1.66704 -1.07907 1.47678
5.60297 0.82573 2.04906
6.86846 -5.38452 3.17509
2.35524 11.0653 2.77743
0.22315 3.82201 1.44399
6.73026 -11.0384 2.47512
8.16654 -8.65973 2.23021
0.1916 0.46125 3.08593
-7.8063 2.13128 0.46954
8.4515 3.90653 2.10531
-7.83174 -8.13584 0.72211
0.60111 -0.77072 3.28297
1.55404 0.26723 3.96437
0.7224 -1.96905 2.27338
-7.53292 4.58227 0.92135
6.20918 -3.89784 1.19864
-11.4787 9.6284 1.90621
-2.00442 1.69867 0.96503
-4.93726 4.33271 2.6042
-0.67719 -9.22582 0.39312
10.2547 10.5418 0.82381
-11.1318 -9.1858 2.01916
-0.01868 -5.35294 2.57896
-9.57947 4.99216 2.43021
5.21792 -11.9453 1.93833
7.34305 6.61951 3.81626
10.2531 2.7204 0.3506
8.2585 -1.07645 3.39375
-8.70669 -11.1261 1.4722
-7.68165 -10.4819 0.52341
5.46611 -11.3299 1.599
-4.99445 -8.59823 2.28307
0.42852 -6.0154 3.37989
-9.00535 8.90439 0.72513
9.50231 -9.18796 0.95046
-9.89002 -0.02431 3.44834
6.96784 5.68437 3.45841
1.48179 9.2859 2.00567
11.1496 2.35543 0.30527
2.05778 -8.80203 2.07147
9.83035 -9.83796 0.68961
-5.32251 -8.54984 2.17853
8.41379 -4.22519 2.37921
-8.42244 -7.49902 1.50482
9.39765 11.0844 2.11582
7.75255 -9.78994 2.06079
-7.68417 -5.92646 1.95143
1.81033 0.51548 3.8415
9.41843 3.07671 1.00846
-10.346 -3.60309 1.90095
1.34472 -8.87734 2.12069
0.819 -11.581 3.283
-6.37814 -6.10939 2.89012
0.18622 -9.93373 1.31189
8.32693 -3.37601 1.91758
-7.57034 7.84097 1.05297
3.93168 -6.03252 2.25833
-5.49402 -8.12233 2.44463
3.49823 8.37044 1.15707
-10.6357 -10.0278 2.11234
-4.10986 -4.02738 2.19123
-7.16466 -10.5138 0.76494
10.3684 -8.72798 0.42339
-11.2115 -3.63815 2.09754
-11.2105 -9.94947 2.1115
0.94468 -9.72525 1.85511
-2.91244 1.64721 1.69651
10.3382 -2.23497 0.59198
10.3872 -6.24487 2.17869
-5.42775 4.19453 2.25983
-8.3413 -4.72229 1.12631
0.30876 10.3468 1.6997
-1.96339 -10.6442 0.73188
2.86261 8.79242 1.46874
2.25274 -1.96548 2.39183
8.82079 0.23741 3.53988
7.26841 -3.10095 1.83422
9.21592 -11.1245 2.3359
-0.9113 -8.18982 0.88013
6.20718 11.0855 2.01385
1.24486 0.41954 3.86063
0.96376 -7.1757 3.4488
-1.34943 -1.04672 1.52482
0.25408 -9.63985 1.2744
-3.60438 -2.04199 1.99249
1.11591 4.25526 2.45694
-4.50889 -1.0968 3.43581
-0.0554 9.10233 0.99617
-9.63641 6.23366 3.20883
-1.98001 -6.66496 2.01057
-10.0755 6.3733 3.60174
11.4955 -3.23641 0.1269
-5.88853 1.33843 2.61477
8.50199 -9.90641 1.91105
10.5274 -9.90689 0.22159
-1.84329 0.02497 2.03658
-3.18106 -10.1987 1.32429
1.69215 8.61838 2.30054
5.95442 -10.0814 0.88508
3.77621 7.29443 1.93794
5.70222 9.20414 0.47541
-0.27082 10.683 1.42499
-1.6532 4.48398 0.77696
-5.52548 11.5035 3.17365
6.96353 1.77588 2.42541
-10.1832 2.8889 1.71955
-2.0324 10.2679 0.43951
-1.89679 -11.6305 1.64579
-9.30992 -10.4826 1.39465
2.81844 -6.648 3.25175
-10.5124 2.49428 2.08781
6.73219 -11.8668 3.19918
1.57358 4.14213 2.46015
-11.4884 -6.46271 3.86493
9.01081 5.89441 3.32762
4.07367 -3.84788 0.43636
-1.85714 -11.2376 1.28034
-10.3516 -1.11256 3.24207
9.98809 -1.05012 1.96348
-2.21342 3.42863 0.24039
9.87637 2.76098 0.63516
8.46802 -3.15818 1.81747
5.02373 7.04639 1.7707
9.45059 8.76878 1.18175
-8.86578 -8.91599 0.59633
-1.70439 -2.03336 0.56267
-4.05583 1.42073 2.9416
-4.67199 4.60021 2.88724
0.84786 -0.00456 3.74985
3.38046 -2.7918 0.82395
2.20332 4.24001 2.35153
6.81458 9.96332 1.64828
3.40795 -3.73872 0.90983
9.78724 -2.46961 0.86283
3.6223 7.06563 2.24678
3.18683 7.41858 2.37655
-11.2136 -8.55182 2.33376
2.62229 4.38103 2.17095
1.91348 9.9133 2.05883
11.243 -10.2284 0.33634
-7.87212 -6.77318 1.8825
-2.15683 -10.4494 0.64745
-8.96939 -7.09993 2.24479
-2.27786 -0.25707 2.20687
4.94654 -3.61172 0.13578
-1.79801 -1.80177 0.79678
-2.62345 -10.4074 0.94987
-7.32516 3.35309 0.15888
-10.7218 9.83349 2.04512
-8.55397 -10.821 1.06144
-2.65218 4.44291 1.26366
-7.9447 4.06886 0.40409
5.01985 -0.93598 1.63993
-11.7996 7.15003 3.34102
5.12832 -7.09175 1.7758
-6.24534 10.3477 1.43433
4.45651 6.61371 1.97843
-10.3135 8.16142 2.47363
-9.34371 0.14299 2.90882
-5.85763 -11.2845 2.69777
-6.12473 -10.6195 1.79054
8.79821 6.3398 3.58477
5.64512 10.505 0.93321
-10.7977 5.99547 3.93938
-7.40549 0.12327 2.09131
4.46305 -2.19371 0.44752
5.95232 -7.87783 1.6513
2.06207 8.57228 2.22363
-9.5516 -8.76528 1.33618
0.51978 6.29608 3.4966
-9.21044 0.89705 2.41122
-3.00174 5.92681 2.79778
-8.07868 -7.7704 1.10862
-2.24895 -6.85377 2.06285
-7.87061 -0.63375 1.80595
-6.6332 8.60755 0.97284
-10.8148 0.55182 3.83528
0.76816 10.4288 2.15789
-0.56576 8.31264 1.0212
2.67204 5.22367 2.94179
10.4873 6.7901 2.00065
4.00281 -0.21643 2.21804
-11.3504 -0.04218 3.93683
-8.98185 10.9065 1.48247
3.16948 -11.7559 2.66129
5.15529 11.9598 1.91808
8.42761 4.804 2.93142
-11.4102 -10.0634 2.11234
1.13806 -8.06287 2.70045
4.37623 0.92477 1.65798
-0.22972 6.86615 2.60713
-10.225 8.59009 2.04608
-9.71014 11.9774 3.11302
-10.1418 4.0185 2.0176
-6.23617 -0.4913 2.92872
0.64519 9.79991 1.67089
9.39491 4.39461 1.71741
-8.09575 9.12833 0.0727
-1.70229 -0.03081 2.00816
6.71766 11.2077 2.63149
4.06719 -5.91173 2.13282
5.53437 10.0216 0.4921
-7.71405 4.1935 0.51385
-6.93787 -7.17206 2.02138
2.2168 0.69889 3.56405
-5.27583 4.04497 2.22646
8.58357 -1.70683 2.60983
5.84376 3.03472 0.58028
-8.00497 2.66191 0.12424
5.27982 10.5134 0.69303
1.00908 11.2031 3.05237
-6.61012 10.1733 0.94614
8.95659 -5.95315 3.3973
-1.37965 -5.68503 1.84459
-7.98585 -5.25904 1.52851
-4.32094 -5.31535 3.49144
7.29346 -7.02212 3.58617
4.87823 10.3074 0.37858
5.105 7.61535 1.31246
-4.32773 -10.5777 2.52107
3.80238 -7.90034 1.33991
6.82078 -5.71092 3.35275
10.1866 2.58242 0.4621
-7.64032 -8.63801 0.3166
3.34916 4.34332 1.43318
-1.53978 -7.60086 1.2509
-0.54422 2.67929 0.58722
2.88611 11.2083 2.46385
9.16211 -11.9024 3.04721
-9.2633 -4.41358 1.54484
3.62445 10.2585 0.86357
-6.34026 7.78425 2.01263
-7.23036 1.48326 1.27566
-6.93073 -6.36118 2.39373
-3.28453 2.42994 1.38517
-0.58425 1.56516 1.45406
1.18595 -7.374 3.38862
-9.98291 7.09818 3.21548
-6.59342 -2.43237 0.93585
-10.3176 -2.26226 2.1412
7.59464 8.90834 2.09698
9.34596 0.68452 2.85346
-1.23796 -7.50524 1.3966
6.99694 -0.82606 3.33246
-0.6718 9.01537 0.46025
9.41335 -5.38131 2.63156
-10.1952 -1.29121 2.97238
6.70177 -2.36176 1.69543
-10.646 0.37832 3.86879
11.4056 -10.8703 0.95797
-11.4162 5.24751 3.42277
-4.39452 -8.53443 2.32076
-1.0087 8.93711 0.27043
-10.6772 9.08004 2.00859
2.16076 6.75511 3.72165
6.92573 -10.6082 2.22148
5.46468 -5.88348 2.19105
-4.27695 -3.007 1.91573
-5.90517 4.95518 2.60949
5.62936 2.89589 0.42181
0.49643 -6.65951 3.40631
1.35529 -10.2153 2.27341
-8.69646 -11.2451 1.58129
1.74541 6.02016 3.9504
-7.79934 10.4814 0.50967
11.3487 6.46226 2.0457
2.926 -3.56932 1.30402
-0.65943 3.28167 0.39713
-9.18247 9.4163 0.76009
11.7046 -9.68987 0.27593
-0.55494 11.6723 2.09935
-0.10138 -5.57607 2.65903
9.10551 6.85445 3.15509
11.6174 3.32707 0.20432
3.03975 -0.54731 2.95559
6.07063 10.0172 0.95944
-5.36257 -10.338 2.18481
-4.65958 -4.13239 2.45058
0.99735 0.21707 3.81657
7.32009 -8.91184 1.98952
-7.46615 -10.3387 0.46367
2.28031 9.1633 1.79267
-9.7851 -10.953 2.30998
-10.7937 -3.9941 2.32159
1.86224 -10.407 2.40262
-2.15674 -8.15802 0.86743
7.1537 9.49632 1.76722
-3.08559 -7.24565 2.51552
7.89125 10.4907 2.51561
8.90821 -7.7372 2.61042
3.55408 -3.32326 0.61556
7.03863 3.12258 1.68579
7.8653 -0.8796 3.6374
6.84264 5.22576 3.02184
-8.22134 -4.79396 1.1482
-11.0727 4.83359 3.11794
-4.10824 -5.85768 3.73381
1.29349 -3.81403 2.17949
