ply
format ascii 1.0
comment Created by Open3D
element vertex 1887
property double x
property double y
property double z
end_header
0.19675 2.49429 1.83781
15.9281 -2.75926 3.55555
4.25962 2.44894 -1.77663
3.35775 6.67344 -6.07506
-6.86121 7.66213 -5.74915
6.4738 3.03352 -2.91396
6.30367 -1.69903 3.53116
-12.9198 4.4901 -1.34668
7.68641 7.03411 -7.60039
-3.29852 7.60235 -6.78358
6.59839 3.47828 0.0915962
-10.3823 0.362366 5.63208
12.2836 -0.404929 0.336026
-5.30574 -2.99338 7.48156
-12.5573 3.07887 -1.01794
2.34957 1.78627 0.418552
6.01777 3.37708 -2.21099
0.639987 -4.93098 12.8504
5.74772 -1.7522 1.76683
10.1211 -1.04392 -0.642104
13.8714 1.03902 0.403325
-6.60523 0.729406 3.84401
-1.7258 1.76459 0.103173
1.92538 2.50263 2.78066
-1.99172 -0.88506 5.45981
5.42849 5.4991 -6.42794
-9.22764 -0.598514 4.48494
-1.89645 -2.55258 11.2305
-10.2231 0.399433 6.35481
10.8926 -1.05373 -1.08528
9.63773 -0.964577 5.16097
-9.47173 -0.44812 4.13833
-10.0579 8.05445 -3.59454
6.28429 3.05165 -5.7882
1.38851 -2.62204 8.05247
-7.5317 6.02865 -4.76215
4.68839 1.51129 0.52791
2.27996 4.14092 -3.6565
1.26582 -2.61047 8.08914
2.80393 6.69473 -4.94918
-5.39578 4.25402 -4.24837
0.473762 3.95288 -3.10511
-13.2913 5.98224 -2.41231
3.82136 5.25207 -3.76048
1.96529 6.04746 -4.90444
-4.87025 9.03375 -6.13633
15.6056 -2.90821 3.24122
1.2611 2.37029 0.922356
-4.2081 8.64888 -6.09819
-4.92286 -3.69913 9.67756
1.34393 7.33265 -8.14974
6.07121 3.17518 -2.83456
6.67128 -3.69219 6.89671
0.95478 -4.56998 10.9089
7.36394 -0.601929 2.27647
1.23122 4.82374 -4.14203
4.77223 -1.33756 1.35679
10.3896 -2.39115 5.40576
3.08798 -3.02756 8.3519
-2.81723 -2.82834 10.8573
4.63347 -0.885595 5.24692
9.96784 0.0906487 4.72898
-13.564 5.91599 -2.15369
-8.11161 4.38457 -2.06062
-8.43871 0.394872 8.02999
-10.3297 7.21863 -2.05609
4.57029 2.64294 -1.32513
4.10356 5.29271 -8.89074
-11.1992 3.01792 2.39421
0.318987 4.91023 -6.53598
-7.99185 4.31937 -1.89112
-1.77767 5.15989 -0.826735
2.71289 4.43502 -3.64062
-1.79536 -1.90575 10.8927
-3.70786 -3.45557 11.0088
-3.4447 1.46157 4.63766
-8.29727 0.26734 8.60796
4.133 -0.390658 6.51171
-1.48619 4.31721 -6.2625
-14.7656 6.74224 -0.20292
-4.21262 1.21886 3.45702
-1.72125 5.24376 -0.876801
1.51763 -2.40853 7.39017
2.07291 -4.11949 8.73358
-1.99486 -1.87601 10.6799
-9.85786 0.0476301 3.99417
2.18378 -5.45156 9.237
-2.55608 0.391811 5.70184
0.870216 -0.190036 4.06075
-5.14414 1.38075 2.40621
-3.66725 5.19501 -3.08977
2.08434 8.19469 -9.62889
1.26761 5.95318 -6.87009
-1.78695 5.46456 -3.57617
-8.17854 -0.165342 3.27416
10.9498 -0.854175 0.616173
4.48483 -4.96705 9.3011
-0.0818463 2.80923 -1.104
-3.82331 -4.98732 12.3684
3.81074 1.65909 -0.0982893
4.08901 5.45882 -10.4572
2.86429 -1.90778 7.93685
-2.97457 5.54762 -1.92913
3.89235 9.34722 -11.8499
2.58493 -1.37648 6.94091
-2.22519 0.508464 2.16506
10.6034 0.357939 -2.12112
-7.63556 3.73911 2.47934
5.27048 3.32454 -3.29387
13.017 -1.97108 2.2663
3.77143 4.20184 -3.54078
-10.4774 2.52449 3.06337
0.30478 2.41355 -1.51196
-3.64576 6.588 -5.4099
6.55162 -3.16304 6.72034
6.1192 4.1561 -6.16456
-6.28763 4.90817 -4.74387
-11.2637 4.60393 -1.66919
-13.8351 4.49484 0.127639
0.984126 3.99228 -3.55914
-7.44525 5.51766 -4.60829
-5.12321 1.36496 6.10348
-11.8934 3.62039 3.23095
3.77593 5.66679 -10.5028
-5.63836 4.33695 -4.43666
-5.71311 -2.63237 7.37411
10.4086 0.263915 3.11717
1.73634 -3.60649 8.7753
-0.176334 9.5644 -8.71591
3.69767 9.09117 -11.7701
0.700923 9.54063 -8.68241
-5.00141 1.0399 6.56534
2.65823 -0.743929 4.51461
-8.84257 0.561394 2.91607
7.70131 1.5083 0.497354
7.84865 3.35332 -6.50092
-7.97358 4.26575 -2.59919
4.45097 2.14656 -0.22722
-3.75113 -1.84751 7.52713
7.28824 -0.83191 2.7639
6.78136 -3.7756 6.72098
12.4296 -0.313415 0.477452
10.827 3.50098 -2.82085
-7.99075 4.38987 2.05463
-9.64379 3.96776 -0.606525
6.87814 3.00177 -2.70265
3.10916 -1.90178 8.05458
-0.579393 4.86129 -4.00747
0.234683 5.60764 -7.50225
-0.432437 4.60409 -1.80705
9.21892 -0.363026 -0.197694
9.19908 -0.11676 4.79421
-7.40385 -0.378798 6.99125
0.121069 -2.6596 4.73768
5.69907 -2.08122 7.63128
6.26718 -3.92622 9.50259
-5.64787 3.62923 -1.8834
-6.2441 -3.21379 10.3488
6.40746 -2.25565 6.34391
-2.80447 5.69879 -2.18899
1.88226 6.22317 -5.97124
-5.59692 4.70972 -4.57552
-0.751856 4.838 -4.22798
-1.28576 -2.41184 6.09804
7.83092 1.08576 0.582288
1.9054 1.52666 -0.49943
-8.61086 0.580388 8.5066
-1.86623 4.50577 -6.26546
-6.83282 7.50675 -5.56582
2.6028 1.31497 -0.877422
-2.81664 1.07986 4.661
-2.87393 5.84434 -6.2532
0.401083 2.34647 3.0627
13.7769 -2.9297 2.35471
2.53918 -1.80734 7.60441
-1.07169 4.63972 -0.931301
3.43551 -0.63516 6.89259
11.5573 -3.02029 6.43681
5.88626 3.69694 -5.57318
3.16281 6.82968 -5.3118
11.9168 1.68717 -2.19444
2.02679 2.3643 1.61012
2.45779 6.41992 -7.13356
-14.3955 6.33087 -0.369342
-9.2496 -0.538506 4.76069
-4.06585 4.19569 -1.27855
-3.13435 1.3989 5.50148
-9.54971 2.03742 2.70915
-3.51333 -2.38347 8.16192
5.34692 5.60457 -6.69794
5.60868 -1.23927 7.1207
4.74 -1.40679 1.41079
-3.72674 -6.2607 13.9394
0.962709 -2.14718 4.80399
-4.45997 -3.55975 12.2083
0.70356 -4.111 10.8897
-5.34432 0.960543 6.36923
-4.30115 3.74412 -0.912498
-6.60582 3.40507 -2.76596
-7.65831 -0.420413 7.96116
13.5511 0.6405 0.806788
-3.27132 1.52023 5.44137
-6.31526 -3.27859 10.1259
5.35066 -0.842681 6.23379
2.16469 -3.6392 8.54164
4.42308 6.32689 -5.96631
-0.794306 -1.45579 4.28892
-3.00612 0.688919 3.10415
-5.77664 1.35113 3.64222
1.47792 1.88223 -0.0142443
-7.31608 5.81679 -4.7763
-4.06846 8.38377 -5.93901
-2.62462 5.78799 -2.22086
2.47956 -0.649567 4.36138
3.95026 -3.11823 8.46872
-1.88367 0.705331 1.89724
-2.86067 7.81622 -8.87883
-0.506809 -1.47581 4.20177
-12.5278 4.70747 -1.63161
-3.62582 7.42109 -5.89716
-0.242005 -0.903845 4.06046
3.39749 7.48905 -10.9988
-5.24747 8.91107 -5.78425
1.68981 5.38847 -4.34463
13.0743 -0.264868 1.46165
0.281687 9.83235 -8.89622
0.722163 9.15532 -8.45618
-1.25916 5.84341 -7.87793
-6.04853 3.92888 -1.00273
-8.62464 -0.546319 5.28722
-0.103452 4.63998 -4.58908
-9.26889 4.68037 -1.34325
13.91 -3.19155 2.43285
8.98481 3.27605 -5.93282
6.6871 -3.5703 6.74572
12.8101 -3.51197 2.98654
-3.85688 -3.52548 11.128
-9.811 7.78223 -2.65398
4.622 5.52836 -7.98597
-0.763866 2.02784 0.722778
-6.47265 -3.20542 8.10791
-2.51904 1.00785 0.102688
5.50023 3.35336 -1.94175
7.39329 -0.217617 1.63091
7.95792 5.03172 -6.75521
-0.429062 -0.0455883 3.90885
-3.9206 8.46245 -6.53035
-1.14672 4.23607 -6.32487
7.9959 5.36557 -6.79476
2.07387 5.9269 -4.52131
-5.77121 4.05266 0.447159
6.55108 2.8607 -5.99258
7.26454 1.60452 0.711419
-1.31203 -0.343755 4.20369
-6.00445 2.74958 2.21409
0.699729 2.20439 0.144463
-3.64033 -6.26437 13.1263
11.0503 -0.560253 4.09283
9.96509 2.23633 -2.53823
-2.79058 0.905527 3.94351
9.72802 0.566408 3.67085
-0.957372 5.01873 -3.9436
-3.7626 1.67875 6.17837
4.88464 -1.18042 7.96365
-8.17881 0.174202 8.31532
-8.75929 4.46709 0.0445524
-7.49304 -1.0052 8.30178
0.7513 2.66678 1.74023
-11.2862 3.03811 4.46472
-5.56422 2.09894 2.04179
12.6755 -2.82898 2.74163
-6.60066 -2.91843 8.03938
-2.49246 -0.992343 6.55636
-7.00861 -0.0681273 5.29604
8.07436 0.404342 0.94986
-4.61895 -3.65413 9.05113
-6.56539 3.33487 2.42104
4.83009 -1.75162 3.45443
-7.26236 3.64088 -2.85186
7.06987 3.47588 -1.38293
-2.26112 5.91131 -7.39479
-11.7321 2.83657 -1.1719
6.94863 3.62779 -0.421773
-5.0363 9.01551 -5.98334
-6.01048 -3.65308 8.10755
11.3773 -0.824663 -1.06647
-0.0445573 -2.22111 7.99003
-6.89731 -2.69914 8.36677
9.73348 3.54626 -5.15744
2.75667 -1.13983 6.72178
2.93902 6.77109 -5.0759
4.73893 -1.62531 3.69884
9.69026 0.108931 2.08569
-5.70783 -2.55907 7.35452
-0.29951 -0.78178 4.04271
-6.67165 3.26207 2.48714
-6.10729 5.85302 -4.87616
-12.1833 4.26107 -1.61726
-8.31551 4.52417 -1.54696
-2.7992 -2.33113 10.118
8.51515 2.36943 -3.90333
-1.18358 4.5311 -7.32483
-8.22717 6.90784 -5.9378
2.41742 6.81387 -9.27045
-6.22473 3.5895 -4.13048
6.89696 -0.0374778 1.23231
-3.41628 -0.153382 6.95542
-4.07003 1.00808 3.08672
3.37049 -2.96531 8.37825
-1.40144 -1.64304 8.4305
-0.495985 -2.08703 7.94418
2.82026 0.215939 3.27807
0.122759 6.02464 -7.73132
-1.92474 4.54417 -6.3544
3.164 6.37333 -10.3804
-6.69387 -3.13465 10.013
2.93766 1.26286 2.29525
-8.63246 0.809382 2.84625
-12.6981 4.51461 -1.50337
12.7831 -2.85467 2.65726
6.06605 -1.59242 4.56426
-0.339766 5.08774 -7.51463
8.02049 2.82383 -1.67251
-6.73268 -1.97298 7.70102
-6.36702 8.50537 -6.42825
13.8883 1.08865 0.064628
1.93749 5.95077 -4.76259
-1.70763 6.80216 -8.00774
4.70839 2.90148 -1.94883
-5.23876 3.86318 -3.52166
9.89443 3.76697 -5.41081
-6.96001 -2.87749 8.75251
13.579 -3.90284 2.79869
-5.5976 -1.21886 7.10546
2.48421 2.08495 2.00546
-8.72452 1.17482 2.78196
-4.07973 8.59871 -7.02565
-4.1206 -3.61823 11.5292
9.10001 1.35406 -1.70599
-2.33627 -1.72259 8.16939
-3.48707 6.0055 -5.17104
-1.35311 4.46593 -5.53191
-3.88449 4.9124 -2.62466
0.95654 2.27334 -2.79108
7.15102 -1.67801 4.85338
-2.24972 7.44071 -8.16888
-7.9662 4.7729 -3.59302
-12.2995 6.0563 -2.12062
0.315143 -0.704913 4.05956
13.6468 -2.31236 2.23705
10.9375 -2.13343 5.09376
5.9319 3.56028 -1.32845
9.55096 -3.35603 5.58447
-1.36136 5.77571 -1.83701
-7.07857 4.10214 -1.35766
15.0567 -2.04153 2.36909
-0.271403 1.41848 3.37593
1.07438 7.81624 -8.19124
-10.7139 7.30399 -2.10127
-4.65372 3.74545 -1.02257
0.709804 0.304036 3.97986
-6.35962 -3.32948 8.08034
-3.35512 -6.55412 12.9402
6.1007 6.23948 -9.68849
4.82796 -4.56023 9.2215
6.01516 4.43391 -6.184
0.560395 2.49772 -2.2916
4.88162 -0.939501 5.30954
-10.1044 6.59736 -1.91746
15.1637 -0.276615 2.05978
-13.397 5.94789 -2.33603
4.14202 2.1774 -1.15391
6.53928 -4.00239 8.04128
9.50638 0.553613 3.88559
3.12954 -1.65337 7.94118
12.8195 -3.79354 3.30195
10.3749 -2.12561 5.32181
-5.51184 -3.83231 8.22929
10.1577 3.02898 -2.94771
5.23914 8.72798 -11.2199
11.8718 -0.239747 -1.35684
-2.23534 5.90455 -1.93348
3.45285 6.67212 -6.04104
-10.8067 2.68693 0.106671
13.3938 0.790601 -0.478045
-9.9905 0.253597 6.12057
-7.25512 -2.35831 8.84734
-6.3561 1.85755 2.8597
9.26364 2.8463 -4.15979
4.96254 5.44339 -8.23466
-7.00537 -0.154311 5.88215
6.18541 5.28301 -6.90312
-9.56018 3.62851 0.737296
7.38465 -1.31444 4.47765
5.34282 5.61477 -6.95893
-4.31219 8.63986 -7.39003
3.24722 5.73498 -9.88819
9.55291 0.53539 4.06155
-5.58573 1.35309 4.35145
0.525276 6.98461 -7.90667
-6.55338 0.701365 3.99908
15.0326 -1.64639 2.27993
-12.0948 3.06701 1.78688
-4.81826 8.97944 -6.88357
5.99488 -2.62228 7.47289
7.0569 -0.629507 1.7967
-0.344856 9.72885 -9.08059
-8.63311 6.97098 -4.68288
-2.45191 -1.82231 9.21622
4.40515 -5.28394 9.63711
1.6976 6.50266 -7.5986
-8.96117 4.48938 -0.844405
-2.7613 -2.20766 9.86178
-3.61429 5.22765 -3.03499
-5.70706 -3.49529 7.76811
-2.21569 6.0772 -7.51141
3.90475 8.64853 -11.4392
-3.63214 2.05242 -0.326612
2.18081 5.85566 -4.329
2.87383 1.58902 0.279644
-4.44534 0.741329 1.60788
-9.4968 3.7755 0.395973
5.31952 3.59006 -4.13364
-3.21753 7.85569 -8.31199
-13.2809 3.48068 1.78018
2.37824 1.51127 3.18541
-2.48637 -6.76661 12.3224
7.36363 -4.35198 6.16946
1.70524 4.60023 -3.8552
7.06323 2.3136 -5.94494
-5.26628 0.0237179 6.90105
8.67445 -0.165179 4.49295
2.31672 8.70094 -11.2972
-8.90602 3.02462 2.35291
2.10192 -1.51474 5.68276
9.78677 0.538693 3.46544
2.67543 -3.88673 8.49105
5.31359 -4.46952 9.75819
-6.93048 1.82822 2.87364
-4.23111 3.1893 -0.524155
1.16695 9.41922 -9.01088
7.91033 2.39959 -3.4537
2.82195 6.63621 -6.18338
-2.24056 5.74553 -7.3417
6.95015 -2.94091 5.91556
3.97425 3.83277 -3.45306
3.13839 1.36521 1.57377
-6.77142 3.79195 -1.81364
5.17899 1.6345 0.608478
11.9193 -0.29067 -1.22315
5.27927 5.47759 -8.37834
-1.89907 5.36129 -7.49411
-6.13739 6.79623 -5.01757
-4.463 4.62856 -3.5659
-5.98919 3.79345 -1.34824
6.0465 -1.4727 5.30668
-1.4777 5.27547 -0.975777
3.87088 6.34278 -4.20934
3.56621 -0.545737 6.28077
4.52304 1.53966 0.46789
4.15467 8.03222 -11.2442
4.44005 4.3857 -3.76207
-8.87623 3.28629 2.2387
-10.2523 8.12591 -3.05455
-3.26511 0.27074 1.80797
11.0872 -0.580255 4.03508
-12.6662 5.94566 -2.15791
2.17884 -5.72764 9.59543
9.31941 0.524527 3.6395
-4.47162 -3.42944 11.5753
-1.08783 1.16606 2.71713
-8.18861 6.61518 -4.69268
9.84712 -0.215916 4.92608
10.9507 1.09898 -2.22802
-7.40849 5.16585 -4.5131
-1.02914 4.6616 -7.44489
-7.88135 -0.57075 4.69534
-2.37507 0.445537 1.18968
4.03577 5.42157 -8.55677
3.19063 0.653939 2.2574
1.23975 -4.36613 9.96914
4.68342 -3.72795 8.67396
1.58773 2.62367 1.85056
4.03375 5.28855 -10.1976
0.915673 -2.61769 5.76589
11.89 1.65965 -2.19219
10.753 -2.02698 5.15923
14.2432 -2.28533 2.26789
6.08384 6.09782 -9.29338
6.36673 -1.62312 4.46724
-3.87035 8.14383 -8.19799
3.15052 -3.42178 8.41818
-10.1876 7.99641 -3.98606
8.18197 7.51038 -7.75951
-2.39052 4.98651 -5.57181
7.99657 0.117788 1.50356
8.56142 2.37042 -4.51556
5.48375 5.49325 -6.57858
9.08129 2.22512 -2.4585
3.26917 6.75699 -4.61744
-0.979106 2.18348 0.206406
-5.47043 3.78601 -3.77974
3.45962 1.24651 1.05831
-11.1037 5.0331 -1.70597
-1.44735 -0.938167 4.59317
-3.88533 0.319589 1.20991
-9.79055 -0.190201 4.43122
-1.21088 -2.48949 5.80605
-0.534955 9.76146 -9.5559
-9.04565 -0.581094 4.8935
5.59055 5.60196 -8.52334
11.0422 -3.2749 6.62454
-4.64344 1.61672 4.3525
6.83492 -1.51505 4.28369
-0.838416 5.88928 -7.89258
1.44142 -0.496883 4.18949
0.353823 -2.3559 10.2624
-3.54046 6.94757 -5.75832
11.5109 1.69665 -2.23867
-9.5642 2.76914 2.30327
-1.62641 -1.86148 7.61083
7.09252 -3.55368 6.03673
2.21329 3.40251 -3.5578
-1.32272 -5.98238 12.1534
-6.36727 3.79952 -1.54333
3.55732 -2.75178 8.37393
2.33222 1.20858 -1.23721
1.85708 -3.87851 8.79596
-7.59224 -1.54372 8.91786
-3.88349 0.814421 2.80577
2.149 3.18398 -3.52858
-4.62764 -4.85912 13.8383
-5.58119 3.5906 -2.16897
-7.26576 4.26144 -1.14769
8.67672 -2.83439 5.33435
-6.56539 3.614 -2.10822
3.79793 5.47398 -10.3281
-2.97337 7.80528 -8.88872
10.0262 -1.00276 -0.835486
-4.1783 4.49896 -2.15091
-9.41522 4.07363 -0.398091
5.90525 3.03688 -4.84785
-0.792406 -2.33076 11.2998
-0.159388 -0.168172 3.94619
-3.77689 0.61847 6.88019
6.21027 -1.69632 6.05705
6.52547 3.24573 0.311631
-7.29491 -0.30128 6.22757
2.02105 2.29586 1.38837
-7.47879 3.78943 2.48096
1.67492 8.96057 -11.4297
-1.58588 4.64856 -0.687459
-1.96619 0.0131076 4.72657
-13.7581 3.71527 1.02511
12.7138 0.235828 -0.668247
-7.58943 4.37715 2.22849
9.71782 -0.0203232 4.83655
7.6176 4.44192 -6.71341
4.0194 2.40476 -2.30579
-6.6498 0.339727 4.84179
1.24902 2.0584 3.60907
5.56478 5.61866 -9.13424
3.63422 6.79027 -4.73358
10.3703 1.11979 -2.248
9.03673 1.70627 -1.86045
1.49449 4.46084 -3.83635
7.7998 4.80991 -6.74555
-7.35632 7.26546 -5.77786
-6.80431 -0.124879 6.17226
2.78108 6.13049 -9.2211
1.62241 1.17137 -2.04473
-1.00961 5.32519 -1.45776
-1.05083 4.39675 -7.15922
3.25647 -4.72632 8.63796
2.64446 6.6203 -6.06922
4.76911 5.96986 -6.52181
4.89814 5.725 -5.10739
9.58377 4.03995 -6.17941
0.319944 4.96656 -6.68229
-8.21859 4.18023 2.07479
2.04495 -2.01074 7.22709
6.00211 -1.9941 7.03021
-3.42636 -1.36952 7.35827
-2.16621 5.22518 -0.861158
-13.6687 3.63352 1.00625
-5.20519 -3.85408 9.03645
-4.38654 3.5636 -0.753379
-6.89293 -0.258853 6.42768
-13.6322 5.96636 -2.51805
2.8334 8.59301 -11.4993
5.098 -1.39412 4.4747
6.53373 -2.05642 5.86488
3.28429 -3.25571 8.40798
1.81378 7.02332 -8.33028
-3.95656 5.33745 -4.14445
-10.3671 3.50402 -0.91838
-5.12536 -2.6849 7.40099
-2.26612 0.211778 5.18252
0.895012 4.92136 -4.55675
-8.60528 4.55924 -0.355668
-6.41036 2.64532 2.54836
4.42342 5.14821 -9.58095
-0.0544059 -1.79289 9.13692
2.19501 -2.92103 8.25987
1.52429 -3.30676 8.80412
10.8043 -3.44994 6.63284
4.24591 -1.62495 2.92933
-2.53938 2.04692 -0.278139
6.65539 3.30858 -2.15776
-1.32804 0.793122 3.16869
6.26382 1.61781 0.803569
1.54479 -2.63074 8.03462
-10.8884 2.86969 2.13607
-11.0459 2.80832 1.71149
-8.24886 -0.535262 5.39178
1.21313 -2.79539 8.64835
-7.62707 4.2977 -1.35983
7.24314 -4.66107 7.30988
0.335254 -2.58117 7.27897
10.4171 -2.02344 5.28281
-7.20599 4.918 1.69145
-6.62928 -1.09179 7.23374
9.28563 4.33039 -6.44392
-14.146 6.0857 -0.728774
3.18367 3.91118 -3.5188
-1.73765 4.4212 -6.50803
8.41933 6.38529 -6.91998
15.4727 -2.29345 2.57588
-7.35142 4.65944 -0.268735
2.03594 1.30581 -0.990269
9.17573 -0.107789 -0.822661
-6.90956 4.62025 2.00224
-1.26619 4.8796 -7.5674
-14.0832 6.06684 -0.967883
4.46587 -1.73761 2.04085
2.89529 8.98415 -12.6275
6.19596 2.67293 -4.46838
1.5128 1.33607 -2.56282
9.3358 3.18153 -5.21992
1.70569 2.36394 1.21867
0.309556 4.80657 -6.1604
12.8635 -3.89239 3.41985
7.38537 2.14556 -5.80938
8.77864 2.45949 -3.24503
-11.9225 7.40393 -3.2568
-8.46333 4.41627 1.51706
4.59375 -4.49206 8.99342
-1.59786 4.4538 -6.99621
-9.75544 3.56613 0.200732
9.31123 -4.68344 6.33593
5.44015 -4.3422 9.69142
-12.9317 6.00365 -2.30024
-3.76017 -3.86573 11.5745
-4.26153 5.08828 -4.04672
-11.8342 3.53637 3.0756
4.61446 2.64851 -1.16499
-5.35587 1.4258 5.3664
-3.64917 -1.59642 7.43678
-5.09741 2.13119 1.03241
1.12575 2.6289 1.5608
7.40359 -0.925173 3.59015
1.8414 1.94398 0.378163
1.99849 -0.87314 4.4882
-9.91078 0.576105 7.12091
-3.362 0.226207 0.657047
-13.2206 4.90548 -1.24637
15.15 -3.39644 3.3022
6.68529 6.44905 -8.35257
5.59454 9.60235 -11.3595
3.17461 1.45423 -0.805093
-6.80274 -3.03149 8.56049
-6.48929 0.391124 5.2836
7.03009 3.01853 -2.55902
-7.47169 3.92041 -2.23783
-7.36689 -0.0983988 4.01721
0.900419 7.38303 -8.02175
5.93814 3.13996 -3.06633
0.343509 -2.88682 5.99154
6.07073 -1.79576 6.66134
2.47991 -1.67999 7.35435
-2.79896 0.632492 5.99717
7.04414 3.15058 0.25374
7.90525 7.25366 -7.64318
3.88689 6.50523 -6.19913
-9.05758 7.3414 -3.83113
-6.18469 3.44414 -3.88847
-3.50387 -4.4522 11.7907
-1.95498 0.301577 4.33332
-4.44205 -3.20645 8.06204
1.49428 5.7042 -5.22308
15.5711 -2.18932 2.55511
-7.70914 -0.473894 8.22276
-3.20286 -2.66817 9.93529
7.26977 6.7975 -7.82991
-5.91187 -2.77033 7.457
14.1937 1.19661 0.746187
-5.62915 -3.69716 7.97066
-6.38975 0.367672 5.68152
-4.74985 -2.59322 7.46302
-6.5829 3.63877 -2.0555
0.0530526 4.60946 -3.36739
-12.2999 2.96043 1.40548
5.98349 4.85493 -6.40997
1.89166 1.96767 3.42522
1.26997 8.9652 -8.75883
-4.53499 1.09431 2.8526
-8.35038 6.84868 -5.11834
7.1199 3.53406 -6.53931
-4.51201 3.90939 -1.26405
-4.99476 -1.70613 7.21868
-14.0848 6.1057 -1.21094
0.532405 8.91362 -8.30967
-1.07312 4.10614 -0.74669
-7.15303 -0.217118 5.78966
11.5724 -0.842062 -0.233674
6.20891 3.04578 -5.65963
4.99956 5.84348 -6.4042
-4.76008 -3.37401 12.8405
3.2049 4.31687 -3.57239
-7.48805 -0.42142 7.40701
4.71354 -4.03642 8.80022
-3.79857 8.36253 -7.11631
-6.28146 0.877706 4.18814
-3.79533 7.71547 -5.80973
7.97377 2.82251 -1.92828
8.38121 2.28158 -4.89218
9.02506 -1.09056 5.1175
-4.39632 -5.64829 14.3599
5.43488 -3.64444 8.67711
1.24547 9.54326 -9.43641
4.34409 6.20025 -4.53158
2.8109 8.93042 -12.6382
12.6196 -3.54179 3.31661
10.5813 -0.823158 4.84662
2.48551 -5.13813 8.84927
1.32707 1.32514 3.83744
11.3676 -1.08559 3.89296
-2.58103 0.591747 5.54145
-8.5966 4.57645 -1.01566
-13.1786 5.28975 -1.53263
-6.34005 -3.18182 10.3352
0.527406 -2.83061 5.98897
-3.60666 -2.91672 9.36956
-7.08271 3.50831 -3.04238
7.48923 -3.73063 5.73064
-1.77169 4.47025 -6.7132
9.25932 0.060391 -1.18761
9.01143 2.71903 -4.67482
10.1661 0.424638 4.15261
-2.39236 -7.03239 13.2929
-1.82269 6.77885 -7.97441
7.63563 -4.8684 7.57453
7.88191 2.307 -5.87917
-0.122778 -2.06949 10.8014
-12.5925 3.55929 2.50876
-9.33301 4.03476 -0.0224337
-2.82323 0.130902 6.3595
8.57633 2.37718 -4.3617
-5.66648 -2.13016 7.25844
-6.65092 0.222524 5.3491
7.65051 2.46872 -3.37438
-2.58146 -1.81691 8.34745
-2.38791 0.432183 1.22844
2.16791 6.43954 -7.62765
10.2313 3.93498 -5.04257
-7.496 5.19465 -4.45705
4.0531 -5.45302 9.38541
-5.10131 -3.63482 13.8616
4.67464 5.91817 -6.8584
-0.841095 -5.30487 12.0356
-8.4717 4.60116 -0.39725
1.62985 1.45529 -2.83017
-4.14169 1.18953 0.160052
8.55351 0.178142 3.32767
15.193 -1.18087 2.20923
2.33474 -1.83577 7.38403
-1.88923 0.0604101 4.53748
7.24835 -3.20773 5.72772
-9.21962 -0.540895 4.80481
-1.62887 -2.25926 11.2027
4.71092 5.74608 -4.70369
-5.35539 6.26279 -4.84176
-13.9256 5.93217 -1.17541
7.58582 1.20962 0.69181
-7.41271 -0.0951588 3.91864
2.327 8.6902 -11.2535
-8.98194 5.95697 -2.46107
-1.08907 4.16009 -0.753852
7.04713 -3.83765 6.26084
3.84831 5.27812 -9.99925
-4.61386 2.37752 0.0974436
3.98311 9.30076 -11.7485
3.96533 3.00816 -3.07261
1.1554 -3.37703 9.42943
-5.27146 -3.01727 11.5839
2.26552 4.85584 -3.79877
11.9094 -3.08112 4.83982
2.60504 1.71562 0.469716
-9.18696 6.51349 -2.47036
-1.12915 5.4288 -3.09116
3.70777 2.63856 -2.9617
-0.113091 2.01433 2.89213
-3.7292 3.36712 -0.615172
-1.36945 -2.26 5.51283
-8.43853 4.85404 -2.4989
-11.109 3.00778 -1.08367
7.09581 -4.45517 6.88938
3.13796 -0.782208 5.07431
-11.1004 2.8516 4.22837
3.25917 5.65022 -8.95248
-6.50614 -2.86861 10.9297
-14.4042 4.94829 0.804645
1.07761 3.48752 -3.38566
6.10398 -0.776074 1.23361
-13.6349 3.82494 0.355979
0.628003 -1.12208 4.17542
1.39915 1.36072 3.82151
4.54062 5.31234 -10.2269
-8.37083 4.68216 0.468153
-3.34619 -4.4377 11.6997
-1.39764 4.3665 -5.88826
-12.2441 2.75369 -0.982903
10.7013 -0.99404 -1.34808
-2.84859 6.06114 -6.50967
5.43164 5.2819 -5.94674
3.26359 6.1247 -3.98336
2.5571 -0.496714 4.15795
8.40984 2.44923 -3.05997
-0.244854 4.56302 -6.83215
3.85583 -0.940882 7.87774
-5.04036 -3.55511 7.95238
-10.7373 2.7177 0.69281
5.34019 -4.10794 9.12508
6.78389 4.10753 -6.58336
-6.82784 -0.414374 6.73531
3.3451 2.00344 -2.70963
8.11722 2.42481 -5.85396
-3.22565 -2.49133 9.1658
3.42754 -0.608909 6.64223
-0.876853 5.05432 -1.383
-0.104213 -2.20368 7.98255
-4.67619 1.16429 2.8819
1.35037 -4.65994 9.9858
-12.6611 3.01465 -0.846414
11.3898 -2.95846 5.76313
0.597095 -2.48316 7.76079
10.5498 -0.456118 1.43381
9.4741 0.207235 2.22925
-3.16422 6.78324 -6.36317
-4.64684 4.19996 -2.78291
-4.99478 3.84617 -2.27058
12.5503 0.0855103 -0.702121
3.75842 3.8657 -3.46472
0.35054 -2.2055 8.49761
-0.576907 -5.78256 12.7031
11.7772 -2.11892 3.78125
0.746157 -3.65969 10.4811
7.35524 2.01373 -5.36971
5.52631 -1.96947 7.79578
-1.30751 1.13998 2.14169
-3.28718 5.939 -5.40665
-6.44118 -3.22501 10.1204
5.69409 -1.12552 6.37858
5.68237 1.01393 0.816789
-4.0927 8.49586 -6.05396
0.600099 -4.61078 11.6306
-0.874645 4.82342 -1.21665
11.9275 2.0841 -2.25708
13.5336 -4.11643 3.06337
2.53913 1.70857 2.75594
-2.08055 7.93035 -8.63498
-0.262598 5.66213 -7.73656
-2.12532 4.78509 -6.65095
2.43592 -1.72449 7.35765
-2.07536 8.34231 -9.39291
-1.31456 -1.37543 9.34237
-0.0463714 4.66612 -3.22139
1.68529 2.37396 3.27383
3.4443 -0.909762 3.81071
8.11097 2.74473 -1.69296
12.4619 -0.394033 0.910798
-1.17897 4.54353 -5.21236
-5.09023 9.0003 -6.98132
-9.17764 0.195422 6.6472
-6.73936 -3.13147 8.56503
4.26771 -1.32056 1.76002
1.87913 8.78729 -9.78513
-6.41172 -3.52783 9.10898
13.318 -2.71394 2.35639
-8.61061 -0.568317 3.54351
-9.2297 5.24698 -1.82382
-11.0647 4.05453 -1.53704
8.23297 -0.376348 4.21865
-0.871913 2.85415 -0.352927
-7.23759 3.01168 2.64053
2.32948 -0.948485 4.74804
-8.66672 0.616594 8.43875
-6.06524 0.659905 5.7401
9.52058 -4.21032 6.00499
-10.9591 2.84137 3.80231
7.05246 1.68688 0.753743
-8.1724 -0.679751 4.54795
8.60077 4.87939 -6.66169
5.92381 -1.2462 1.39287
-8.94949 2.36012 2.56271
-4.51235 -0.163777 7.07372
1.10836 -2.17987 5.01174
-3.67327 0.295496 0.648432
7.43561 6.81985 -7.63053
9.44918 -4.77733 6.84712
-2.19383 0.307258 4.87379
6.39796 5.76238 -7.41952
6.84627 -4.25589 8.03386
-6.62458 -0.296131 6.61568
3.82672 1.9916 -1.66873
-3.24056 1.09613 6.31063
4.35294 4.36063 -3.70935
6.01009 -1.01864 1.30473
-0.749915 -2.53358 6.75519
3.23903 -5.83807 9.21483
-9.49362 7.73502 -3.75373
6.65817 4.00521 -6.50917
10.4853 1.43515 -2.30203
8.64672 -0.452335 4.71874
1.43284 5.42102 -4.70561
-10.8471 2.71466 1.11165
11.5221 -1.42859 3.8284
3.85878 -0.752799 5.1644
13.5749 -0.536899 1.86323
0.567528 -2.81451 6.00768
-0.808536 4.03675 -0.920001
1.20001 -4.77113 10.5605
-0.619998 2.21258 0.439167
-0.00742964 -0.41129 3.99235
4.00302 2.55693 -2.59533
-6.72146 3.46265 2.45421
-1.20695 4.48231 -7.26751
-13.9824 4.80389 0.206147
-0.704675 -2.57615 4.80365
-0.093004 4.73007 -3.55382
-4.6649 -3.26679 7.91105
-0.848053 3.5381 -0.694651
6.96295 -0.845638 1.97835
-2.1872 4.98395 -5.06488
10.1496 2.51043 -2.62473
-0.839255 2.33959 0.0834105
2.53955 1.49757 -0.258805
1.19234 7.51035 -8.14667
-7.6844 4.29572 -1.42469
5.35507 -0.821067 1.08437
-1.40248 -0.149553 4.16106
15.0553 -1.10992 2.1932
3.01253 6.72607 -4.72761
-2.238 0.631251 3.73582
-4.954 3.78982 -1.3925
10.8216 0.0208826 3.55216
11.1956 4.2488 -3.24244
8.17943 7.53002 -7.8045
1.38601 1.39676 -2.50109
2.41254 1.45436 -0.432077
1.80728 1.62836 -0.330777
-1.51981 5.68739 -2.81196
11.9026 -0.0510359 -1.52586
-5.91466 3.82757 -1.19807
-2.85344 0.293837 0.741341
10.5113 -3.48324 6.21913
3.13651 -6.10188 9.78932
5.17426 -4.58165 9.7322
4.41651 -2.64139 8.43068
12.0447 1.26639 -2.09183
-12.4136 6.79537 -2.96388
-10.3749 2.28397 3.20222
-7.42799 -0.332417 5.6098
-1.70638 -6.17134 12.0637
11.2587 -3.00564 5.93798
0.873385 -2.6101 5.55418
-3.28258 -1.84421 7.70988
7.50136 -2.49486 5.33328
5.87498 3.00683 -4.58516
-11.7938 3.73728 4.38593
7.95725 0.108574 1.50869
3.68917 -2.37229 8.3351
-8.61028 6.65416 -3.74454
-1.1275 -1.84399 11.1054
1.39672 -1.28292 4.48021
-5.6076 3.56552 -3.44061
3.84152 1.34445 0.57482
1.15974 -2.37529 5.52711
8.93851 3.54037 -6.1761
3.36727 3.70851 -3.46508
-6.10599 4.25186 -0.104881
7.57893 2.81418 0.00393074
9.3217 3.21845 -5.34584
-1.09488 1.42176 1.81977
-8.25469 5.57366 -3.58986
1.11614 -2.53692 7.0003
-1.77998 4.82775 -7.27715
-3.5927 7.97681 -8.38815
-10.7704 2.84189 2.08344
3.62091 5.07449 -3.69039
3.77853 -1.19633 3.37391
-10.1908 4.23655 -1.31892
-5.26769 -3.78144 8.18701
-8.03602 4.31886 -2.20774
7.36036 3.42819 -0.86331
-6.46481 5.30115 -4.81411
6.5258 2.36632 -4.9203
-0.947285 -0.468485 4.07967
5.16612 -1.08968 5.21186
-6.65374 6.135 -4.95339
-6.98474 3.99033 -4.3118
-1.90366 3.02244 -0.356174
5.47113 -1.13189 7.28424
0.886822 4.06342 -3.55631
7.81729 -2.29073 5.2166
1.68543 9.01296 -11.2267
2.95097 1.37578 -2.12862
-13.0463 3.31665 -0.515432
-2.48771 5.54122 -3.70629
9.68917 -0.479372 0.705647
2.93171 1.31748 -1.35258
-1.53849 1.36678 0.697321
1.83214 3.63583 -3.59939
-2.7902 0.695173 5.92226
-5.15901 3.75148 -2.38676
-10.7856 4.48939 -1.57243
4.41078 2.19193 -0.389508
-1.01168 -1.76574 8.30143
7.23056 -4.59227 7.71241
4.67714 -1.88819 2.05706
-2.67062 7.78517 -8.60859
-12.9024 6.45548 -3.23446
14.0931 -4.02396 3.02882
12.622 -0.194867 0.652127
0.432991 9.90143 -9.05322
4.54408 -5.07942 9.52321
9.51143 -1.15303 5.19353
-12.545 3.48858 -1.25498
-0.133783 9.94207 -9.68512
-10.727 0.923466 5.06026
-0.372138 -2.93377 5.2462
9.08191 -3.05755 5.41523
8.35204 2.78842 -6.04476
11.7994 -0.724641 1.8371
10.6787 -0.0151772 4.17783
-0.206351 -1.889 4.26874
13.4937 -0.598171 1.86237
13.9542 -4.2641 3.74353
-11.8278 3.74878 4.47647
-2.06343 6.71388 -7.86002
-8.2075 -0.667479 4.75924
0.017146 -4.81537 12.0398
-10.4126 7.94039 -2.53605
-3.2281 5.83498 -5.37882
-3.53006 7.8887 -8.6564
-8.98347 1.27265 2.78629
-3.2219 -2.63323 9.7496
-8.66046 5.25407 -2.49531
-1.00525 4.63142 -4.90051
-11.6831 3.63561 4.37516
6.85938 -2.19416 5.53968
-7.37916 3.77149 -3.58915
-13.0993 3.12682 0.671393
-7.841 -0.649366 8.77751
-5.96223 8.43251 -5.65412
-2.70354 3.95037 -0.576008
-0.22725 -1.84602 8.72211
2.92356 6.01438 -8.3195
-8.86331 -0.658785 4.7818
0.45057 -2.17039 9.42688
7.85948 2.05992 -5.04147
-4.76726 -5.06541 14.2311
10.3203 -3.6911 6.28484
-9.74552 3.65044 -0.0600579
5.57552 -1.85362 1.80196
-3.68628 2.36041 -0.378208
5.30487 3.55824 -4.04777
1.87143 -5.28076 11.6307
9.01541 2.644 -4.12955
-0.99304 -1.8977 4.57013
-7.74542 6.29077 -4.78731
2.36418 -1.64029 7.05152
6.03946 -3.88421 8.92074
-2.69941 0.566812 5.85397
13.4927 0.5723 0.832399
-3.08529 -6.73687 12.7419
-13.3007 5.00336 -1.20764
8.03656 -0.594557 4.25304
-4.69444 -3.18593 7.81289
4.84743 -1.80979 3.30766
-10.1448 0.193476 4.66652
3.21688 -4.19984 8.53285
-10.9838 2.90767 2.22346
6.12666 3.62723 -0.496151
-9.15239 0.386346 3.04272
-9.60914 7.79454 -3.84698
-0.0101357 -1.71975 9.82775
-0.863293 9.39276 -9.17128
5.52059 3.92494 -4.97626
-1.34799 5.05164 -4.17237
7.65542 6.11721 -7.03401
-3.92734 6.50632 -5.10567
-7.87852 4.28594 -3.20005
-4.84142 1.03584 6.65239
-3.57646 -2.72636 8.76317
2.32907 -2.13632 7.7612
-10.3205 6.40351 -1.84889
-1.5138 6.98069 -8.0764
-8.64629 -0.750844 4.07015
-6.89796 5.56181 -4.82221
7.90252 2.24366 -5.76494
-2.59113 4.45728 -0.666253
-2.85992 7.3919 -7.55314
8.31611 2.49581 -1.45257
-9.25605 -0.596518 4.35427
1.05569 -4.76616 11.0414
-3.41184 0.0755577 6.89122
1.52495 -5.23758 10.8084
7.00831 6.87907 -8.75962
-4.74077 -4.58404 13.8484
-11.3677 6.67243 -2.04116
2.49211 6.38765 -7.33524
-3.10588 0.688597 6.42246
3.5167 6.62183 -4.35792
-6.43003 4.65425 0.738297
-6.71239 4.33144 -0.598682
8.88556 -3.6535 5.4973
2.89273 6.92878 -10.3166
-9.88514 2.98442 1.87795
4.37091 5.24386 -8.93708
10.3393 0.325329 3.22905
-5.27601 -3.78172 9.45717
-3.12077 5.50893 -2.29654
3.96706 7.23518 -11.0931
-0.843407 0.831017 3.45597
-11.1073 7.86356 -2.78985
10.3122 -0.633141 4.94201
5.69342 0.338429 0.903221
9.41213 0.437525 4.27617
3.0628 1.30522 1.90398
-11.6733 3.1905 -1.3707
9.43154 -4.09963 5.86047
-2.28464 5.10387 -6.80983
-0.356868 4.68954 -2.1005
2.61805 6.31797 -7.58056
1.33793 1.03613 3.89519
4.80954 9.741 -11.5522
1.7596 -4.87092 9.36101
12.8143 -2.66427 2.56488
8.66825 2.03194 -1.57405
15.0244 -2.22239 2.41022
-5.82632 6.11498 -4.87788
-1.62577 5.18894 -0.872992
-1.10108 0.682912 3.46956
4.01952 6.51865 -6.0221
-2.95477 5.55718 -3.53556
-9.88247 -0.0131366 4.17741
-1.71999 7.56166 -8.26967
9.70111 -0.11565 -1.65614
0.665261 -4.91268 12.7602
-7.93695 2.29121 2.69109
8.1188 2.39319 -3.42352
9.11004 -1.821 5.25633
7.03867 -4.34004 8.24259
6.50396 0.449327 0.999484
9.53773 1.31801 -2.07895
12.9738 -3.38695 2.74593
2.36389 -1.18014 5.33663
1.6777 1.26905 -1.35855
-12.7403 6.57751 -3.17169
11.6785 -2.09945 3.97848
6.19503 0.334062 0.972678
-4.58018 1.3775 0.59057
-10.4431 2.07945 3.51694
2.95078 -1.11383 7.16763
-6.6926 4.18246 -4.51637
-0.472543 8.98702 -8.45518
0.302282 3.63068 -2.58063
-1.06562 -1.67424 8.49159
5.6907 -0.317416 1.00478
-4.46005 1.4231 3.81073
-7.75245 4.43714 2.13819
-1.36007 -5.77496 12.0182
-9.09691 -0.376427 3.4446
-0.296814 4.44531 -6.53653
9.3878 -3.31072 5.52705
-2.19784 4.79618 -6.3866
-0.95941 -4.73102 11.7902
-8.30177 4.86801 -2.8803
5.99759 -1.724 3.90919
-8.40783 3.44578 2.3682
7.92415 -0.658868 4.17769
-2.17163 7.44857 -8.19385
9.68255 -4.50947 6.63117
9.22698 -4.87758 6.63021
6.03067 5.60056 -7.35255
1.47822 1.98041 0.196527
-11.4161 7.50605 -2.59108
-7.29653 -0.258583 5.18189
12.6279 -3.5469 3.30658
-6.51106 6.36131 -4.989
-0.636168 -1.86814 4.35085
-4.91198 1.55111 4.15544
2.25669 6.42018 -7.10446
-6.74399 -2.8344 8.19821
-0.513346 3.15559 -0.778106
-13.5599 3.6932 0.361742
-0.635474 -0.0311158 3.9028
3.19902 4.93337 -3.66047
-9.37829 7.64908 -3.72914
-0.367819 -1.53623 9.46146
-6.01199 8.77564 -6.43926
-3.74332 6.24781 -5.10471
10.4328 0.334904 3.67497
-2.21567 5.09176 -4.79418
3.80223 9.5236 -12.135
-11.9142 5.60055 -1.88544
-0.314965 4.45317 -1.92778
-5.98526 1.39553 3.34514
-3.43089 5.51652 -4.29794
-8.04693 0.049796 7.8318
-1.89174 8.08111 -8.6916
-3.76255 -4.19315 11.8449
6.95137 6.96831 -9.47403
8.70946 2.4485 -3.70817
-3.47752 -3.91187 11.4858
6.05033 -1.45235 1.64588
-1.50689 -1.65258 8.36903
7.73175 -4.90418 6.32554
5.30606 -2.02183 2.07109
1.70451 1.52862 -0.63032
0.631925 -2.78572 6.07118
-1.26961 4.90868 -4.42544
-4.49406 4.7186 -3.79362
-7.69704 -0.390883 5.80335
-4.10418 1.83521 5.95797
-0.353678 4.27545 -1.6928
-2.01036 0.170515 4.63543
7.63157 -1.98153 5.10877
-3.16376 4.35229 -0.814505
-1.91232 8.42742 -9.2495
-4.12663 0.522286 0.848042
-6.33152 8.41813 -6.10837
-4.82465 -4.43608 13.8949
-4.78276 -3.34619 12.8618
-4.59852 0.886418 1.63479
3.01453 6.03548 -3.98617
-0.320281 4.71107 -4.30395
-5.15829 1.37321 2.74497
5.86081 3.01559 -4.53645
-3.68289 0.419717 6.90695
2.51867 -0.817493 4.62971
-14.3439 6.04969 -2.44194
-7.30615 5.01235 1.10991
-3.80583 -6.18668 13.7556
2.50863 7.04078 -9.68522
-5.09177 -1.62608 7.19657
-7.24882 2.69709 2.69042
-10.5702 2.82108 1.97585
4.9882 7.6839 -11.1164
-6.26964 3.49482 2.16145
8.71993 -1.45033 5.13168
-10.9744 6.00852 -1.81513
-6.07861 3.49212 -3.91602
-8.21499 4.65734 1.41172
-4.28592 8.56274 -7.57542
-6.05559 -0.59535 6.92453
5.16053 -0.891674 7.51756
2.824 1.56617 0.126626
7.6345 7.20469 -7.95118
9.89369 -2.03911 5.34065
6.33233 -3.88155 8.34966
-5.42911 -2.68306 13.4693
2.25804 4.5463 -3.7303
5.24966 -0.885046 1.09962
8.12471 -0.232568 3.64329
-2.75617 5.72202 -2.60942
-9.66005 -0.0857445 5.57028
7.83305 2.17671 -4.21274
3.38114 6.5193 -6.49858
-5.52379 3.84942 -0.412573
-5.05149 3.80829 -2.21667
-5.91174 1.56962 3.04889
7.2514 2.72591 0.367908
-1.09205 4.22889 -6.62927
9.82062 -3.46253 5.72258
-5.23046 -2.83906 7.43429
-7.61252 -1.50852 8.93532
-1.96038 -1.68051 8.19052
6.8581 -1.98194 5.32376
14.8665 -0.0498775 2.01605
-5.41736 -3.48495 7.74719
3.96659 5.99296 -4.05035
-1.78224 -0.221324 4.61835
2.77112 6.27382 -9.51627
4.21459 -2.8609 8.45753
-0.493959 7.62265 -8.09904
5.03547 9.27597 -11.3434
-4.44243 6.60447 -4.92178
-8.08561 -0.424555 3.5963
-2.10335 2.79666 -0.338417
-8.48163 1.38638 2.75193
1.19322 3.85567 -3.5703
-9.86627 3.21216 1.2653
1.84032 -5.23297 11.7251
-14.5691 6.5096 -0.179974
2.54971 7.34494 -9.98168
-7.6201 4.51971 -0.762219
11.5217 -0.648479 2.67651
-1.58584 4.7052 -0.703523
-7.05964 5.11447 -4.67937
-2.44341 7.1807 -7.86088
2.83236 6.03832 -8.55614
5.10224 -0.9705 5.43402
3.05344 6.796 -5.49359
-6.61942 5.05965 -4.76348
8.26515 -0.866587 4.74319
8.17003 -5.11848 7.33389
-12.0762 5.8782 -1.98832
-1.68049 5.19563 -0.861875
12.8343 0.194306 -0.0714652
0.587454 -2.75421 6.50596
1.25188 -4.60478 10.1705
6.21736 -3.84736 8.52318
-0.035509 -4.74968 11.9693
5.87479 -1.56296 4.55309
8.06519 -0.101562 2.64692
-0.0574351 7.73352 -8.06177
7.10042 3.53215 -0.306945
4.77331 7.16177 -11.0701
-6.9659 4.95444 1.34287
-6.57119 -3.21218 9.9781
-2.05369 4.74121 -0.666403
-10.1766 8.11263 -3.41186
-0.919605 -2.22848 11.2821
13.2009 -2.3561 2.30557
2.70969 5.41232 -3.8328
-8.15849 5.34009 -3.62402
3.70227 -1.12096 3.047
-11.4871 3.0253 -1.25676
1.92788 -5.56943 9.87527
-4.29849 -5.3392 13.5745
5.13817 -1.43305 4.41493
-3.93062 -5.23599 12.6842
5.57676 3.39571 -1.76713
-0.160434 4.42144 -2.28017
0.357296 6.55317 -7.82366
6.77876 -1.09451 2.09325
11.7483 2.85083 -2.37992
5.34698 5.61206 -6.85785
5.89195 -1.85098 3.34632
9.0516 0.130836 1.83716
0.317284 2.33011 0.316191
7.54605 -4.80711 7.6286
-3.39324 -5.20777 12.0014
3.12735 6.78067 -5.66572
12.9232 0.547552 -1.00432
11.4449 -1.01039 3.64554
-4.77254 7.44605 -5.03734
-0.155116 -1.87001 8.74481
-10.2677 2.54254 2.71988
4.48444 6.10232 -10.8507
-0.659771 4.81795 -4.21107
8.89671 0.365123 3.55451
-12.3146 2.52934 -0.480173
6.33676 -1.64825 2.57
6.68112 -2.50584 6.03184
-6.24507 3.46255 2.15174
4.04171 6.08433 -4.14111
-1.3663 5.6175 -2.85167
-11.5091 3.9226 -1.57958
10.3994 -1.09407 -1.07344
-10.3664 1.87492 3.53892
4.67985 -0.415023 6.72859
10.0341 0.935345 -2.16404
8.12945 2.68205 -2.16898
9.85673 0.42514 3.02549
7.24548 2.89907 0.283959
8.26205 0.772893 0.294331
5.49079 -1.65975 7.68306
-1.13479 -2.04242 7.57074
0.389432 5.4479 -7.27275
3.908 -1.12622 4.07121
-4.50298 4.06167 -1.63563
-7.49657 3.84551 -2.59284
4.6947 -4.39891 8.99121
-4.89927 1.62147 4.49514
1.16698 4.44367 -3.85934
1.7956 -5.36618 11.2504
5.35103 -0.715205 1.05697
-9.23268 0.816312 2.94722
0.548374 9.10046 -8.37953
-10.2302 0.395929 4.47812
-1.09863 -2.78007 11.4389
12.0034 -2.56278 3.63344
3.42309 0.562491 1.84879
-2.19508 -1.24055 6.22924
-4.43193 -3.55577 9.54978
-6.52891 4.60606 0.288711
9.17269 0.0582529 -1.01506
11.7851 1.80267 -2.22427
-6.20708 4.46094 1.11787
-3.1938 3.67023 -0.614669
-7.52851 3.11075 2.61978
1.04934 -2.54628 7.40137
8.84702 2.50003 -3.59353
-3.62049 5.87743 -4.89477
-4.35469 -4.05634 12.669
7.20201 -2.40549 5.41939
4.61953 4.69163 -4.0141
0.976471 -2.53402 7.86566
-4.44766 0.810603 2.04914
-7.58135 -1.28165 8.70941
-2.27556 8.01462 -8.92638
-5.7726 -2.98945 11.1871
-4.97553 3.57131 -0.547562
9.00778 2.61689 -3.94202
9.46699 -4.76798 6.86449
-7.01741 6.59746 -5.10269
-6.39853 -3.30573 9.9587
-1.19123 4.71113 -4.81509
0.726743 -1.78228 4.40629
-4.79374 2.51753 0.248102
3.65528 3.34091 -3.32938
10.3301 -1.10945 -0.859084
9.80526 0.147332 4.71785
-6.70038 0.559723 4.00025
-4.96598 -3.61114 10.0586
2.18173 3.3716 -3.5549
-12.7789 3.0026 1.00645
12.2769 -0.7195 1.60528
0.20769 -2.91607 10.8978
-6.03577 1.11187 4.05888
-11.1303 2.79785 4.37357
-9.92672 3.18495 1.18624
-5.6099 -2.63671 12.1927
3.44174 1.15215 1.23938
0.449719 9.86281 -10.2474
-0.0702747 2.02583 2.93999
-3.0275 5.36101 -1.55001
0.50044 1.18826 3.79824
5.28561 3.20185 -0.920673
10.4717 -0.324239 1.67111
12.6962 -0.826778 1.80692
1.01762 1.73292 -0.854471
-11.1333 3.13491 3.23425
-9.76954 5.78834 -1.81637
9.14941 -0.154071 0.908956
4.49384 4.74761 -3.93149
3.70827 1.03824 1.02087
0.569717 -0.953837 4.13253
4.75606 -3.31489 8.55859
-5.46324 1.58919 2.60479
7.53513 6.66619 -7.38411
0.492937 -2.36908 4.64533
-1.30257 5.74913 -2.10328
6.44653 6.16989 -8.19176
-10.0639 8.02879 -3.73254
-13.3385 5.77185 -1.92963
15.1113 0.21905 1.95626
-11.2088 3.16139 3.95383
10.8235 -2.56333 5.41175
-4.61966 2.70389 -0.0581266
-11.898 3.77063 3.73255
-1.02673 1.4367 2.03466
-1.72128 5.35936 -3.77195
5.74642 -1.32688 5.26136
10.3913 3.95523 -4.31856
1.25679 -4.51854 10.0676
6.69416 6.52097 -8.56437
12.4498 -3.58944 4.07061
-11.7132 5.95046 -1.93262
-12.465 2.74404 0.697504
-13.8205 3.75948 1.08182
5.98082 -3.98049 9.39403
9.43327 3.14036 -4.77051
-8.52778 0.498036 8.72257
-3.99452 -4.23334 12.1507
1.67604 -4.73898 9.40281
3.41097 8.92971 -11.7943
7.40655 2.05523 0.516555
-0.834546 1.91116 0.912565
15.0546 -3.14307 2.8821
-6.67233 0.536908 4.11506
1.60879 9.20511 -10.5838
-3.8467 7.08245 -5.42503
0.271121 2.52752 1.75309
-0.903726 4.36775 -0.963594
8.42086 2.31818 -1.3849
-3.27128 7.54111 -6.77709
1.16504 2.19161 0.446815
11.3272 -0.471745 2.87882
-3.21059 -0.447923 6.94649
-4.37313 -3.47333 10.5658
4.74499 -4.04277 8.81294
-10.1879 1.13199 3.70079
-2.4916 -1.09215 6.64463
-2.47141 5.15206 -5.01027
-13.9148 4.0498 0.74086
0.213278 2.34317 -0.962052
6.89768 -0.971486 2.08475
-2.90319 0.99653 4.06606
10.9146 0.735889 -2.17682
-5.37956 1.45832 4.72179
-7.72909 4.88157 0.389922
-0.0566863 -2.11274 8.24
0.652484 7.29269 -7.9738
5.73715 3.37955 -4.93753
3.54147 5.79517 -8.06116
11.7514 -0.702437 -0.497933
11.3975 -0.526285 2.64928
-0.501704 8.98959 -8.46913
8.33651 2.54224 -5.79268
-6.11194 0.964228 4.41714
15.0035 -0.836548 2.15111
-0.0490959 -2.51342 7.28988
4.57266 -1.67634 8.23434
-3.0778 5.4845 -1.98808
-4.6431 1.10364 1.02467
3.41865 3.98001 -3.50726
1.27264 1.54837 -1.00924
6.71733 4.91161 -6.79514
-0.974978 7.33518 -8.12155
-5.84415 -2.32042 13.175
4.78663 3.41206 -3.2326
8.47835 2.32469 -4.4392
5.79478 3.20266 -2.96352
7.24708 -1.69556 4.88867
1.26189 1.08504 3.89066
1.80966 -0.106995 4.09013
3.60081 -1.86062 8.207
0.119943 2.33104 -0.13038
10.337 0.38489 -2.10717
-2.64521 0.931646 4.60778
-5.2942 1.68286 1.98629
2.88737 6.68547 -5.99618
11.7189 3.39175 -2.49873
2.482 6.56585 -5.25411
3.13217 1.42004 -1.60529
0.227782 0.0478481 3.95304
1.95222 1.24233 3.67759
1.19524 2.34668 -3.06865
11.2951 -2.54904 5.07688
-6.11251 7.0199 -5.0575
4.43333 9.62213 -11.6752
2.13374 6.84471 -8.6435
-2.94743 1.05413 -0.0751166
-1.18057 -2.55594 11.3842
-1.08521 -2.30891 11.3156
4.89595 2.31399 0.0928011
-10.2243 2.851 1.95253
5.90728 5.97067 -9.45166
0.756811 -2.58492 7.31467
10.0443 -1.64153 5.25962
10.6318 -0.704966 4.75827
-7.52897 -2.58218 10.1765
7.44064 -1.53106 4.77881
-8.54235 6.84643 -6.04543
-2.23732 -7.03691 13.1475
11.6621 -0.73866 -0.662029
7.82791 2.88572 -0.56314
-11.414 3.37051 -1.40752
7.68959 2.04946 -5.43238
-0.0325399 -2.28509 7.84722
-13.2627 4.45164 -0.946862
3.66285 -3.64248 8.5003
11.6263 -0.675833 1.68324
0.342514 -2.56471 4.7413
9.51842 -0.771359 5.11357
-3.18801 -3.21776 10.9592
-7.51479 1.49641 2.86538
4.42426 5.50157 -8.138
3.71287 7.65449 -11.1424
4.78245 5.22521 -9.59888
8.07159 2.47087 -0.600326
-7.30061 -0.304689 6.26152
0.544627 -2.26183 8.86572
7.73543 0.00636996 1.57911
9.34606 -2.41517 5.35913
5.66715 3.3871 -2.03361
2.99094 -5.63161 8.98605
-1.39848 4.53877 -5.36862
-10.7586 2.70862 0.708983
-0.527385 4.31778 -6.28194
6.95487 -0.198318 1.3396
-2.29277 5.013 -6.65441
-6.87178 -0.972838 7.31842
7.95812 2.89567 -1.33022
3.48345 4.81683 -3.63678
4.33621 -1.6652 3.03127
14.1565 0.6614 1.53468
-1.63879 -4.99719 11.716
3.85481 -0.929046 7.86843
1.97229 2.33114 1.42238
7.5887 2.58424 -6.23205
2.99563 8.38576 -11.2918
-6.90323 1.72201 2.90945
-5.84588 -3.47296 7.79157
-0.309194 4.08058 -1.64169
4.43417 -1.69776 2.01158
3.52212 6.20559 -4.02219
-4.7047 1.74665 0.54514
10.8716 -1.74919 4.96435
9.6527 -0.755437 -0.361638
12.0743 -0.660786 1.29041
1.57613 -5.18475 10.1264
-5.27462 1.2992 5.99258
1.11361 -4.90276 11.7715
-3.55791 -1.57156 7.44184
0.049535 4.64529 -4.64187
8.33468 3.78517 -6.50659
-5.12886 9.07278 -6.51335
-1.05304 -1.91159 4.62968
2.49847 -4.69404 8.70071
3.65145 -1.08428 3.34216
3.87358 -0.895201 4.74094
10.9153 -1.91878 5.00392
10.0429 0.494083 3.5048
-2.26611 8.21227 -9.48286
4.36038 5.916 -7.17777
-8.08324 4.53676 1.82679
6.63247 5.17122 -6.89382
1.2812 5.84468 -6.55161
3.58625 -0.754656 7.49093
7.16284 -4.57863 7.07727
-7.08936 3.54525 -2.85352
4.33193 5.20868 -10.0688
-13.611 4.2329 -0.155957
-6.8384 -0.681422 7.05408
-1.89933 6.5553 -7.88156
-0.275828 2.15081 2.04539
-3.92803 1.72425 6.19998
8.22532 0.768793 0.356209
-13.271 3.92074 -0.617598
-4.09082 3.88508 -0.964311
-10.2761 2.74478 2.30553
9.80419 0.435187 -1.94613
1.3961 9.37881 -9.45584
4.92906 -2.38087 8.31422
-4.09895 4.89302 -3.35924
-13.0407 5.39644 -1.70584
9.10058 1.17679 -1.60676
-7.75584 -1.71843 9.37145
-9.55971 0.588271 7.29823
-1.23033 4.31622 -0.724312
-9.66808 7.64977 -4.43843
0.400687 -2.43603 10.2463
-3.76051 7.94372 -8.66723
7.6541 2.49859 -3.29617
4.57693 -0.375803 6.9413
4.9663 5.74835 -5.35621
-13.6943 5.27438 -0.756157
0.155434 -4.94476 12.2568
1.82647 5.62769 -4.45735
-5.9704 1.80435 2.78459
5.07185 0.529264 0.83652
-10.1158 0.927478 3.70369
-7.63183 -2.06372 9.42773
-3.56001 -2.14588 7.82751
-4.38785 -5.64908 14.3366
16.1095 -2.25266 2.85009
14.7488 -2.75375 2.49398
-7.56286 7.21497 -5.9594
-1.31846 1.60162 0.661745
4.85689 4.81251 -4.344
-0.915198 4.99016 -7.6326
3.83065 -0.447705 6.44421
-7.31435 -0.229542 4.71006
9.74033 1.62411 -2.2769
3.8294 6.14883 -7.06871
-8.34474 -0.35118 5.93694
-7.17118 -2.82406 10.113
0.680994 -0.0674039 4.02265
12.33 0.0927225 -1.18611
4.91101 5.51781 -10.2873
2.40223 6.3685 -7.80886
-1.79002 5.82324 -1.42915
6.50588 6.11886 -7.92094
6.97831 3.55753 -6.51204
-10.1673 0.192471 4.81517
-2.23612 4.38514 -0.5921
-11.2458 3.24663 3.70264
-3.81936 -2.01046 7.58536
-12.0654 2.44359 -0.517676
3.80734 6.48861 -6.30999
8.11842 0.000260306 2.13971
-6.68555 3.55126 -2.35238
-5.99415 -2.43682 12.3243
-4.26884 5.86284 -4.68354
-2.73575 -4.04772 11.4763
3.96078 7.09587 -11.0659
0.542493 2.02625 -1.13717
-0.427478 4.31682 -1.58
-7.79912 0.563722 3.0456
4.96297 4.68493 -4.43159
2.96158 -3.90173 8.47974
5.37328 5.60171 -7.16378
14.4578 -2.72628 2.39826
1.76845 2.86021 -3.45193
-6.17237 -3.51371 8.07018
7.18575 6.79184 -7.96937
1.08315 1.69513 -2.4686
13.4007 -3.67564 2.67787
2.81162 6.18374 -9.48067
-6.15067 0.707218 5.35427
-3.3951 5.15003 -1.81037
-10.7167 1.52114 4.4939
-11.8759 2.68083 -1.03471
0.428815 9.96651 -9.29155
3.49539 5.58238 -3.78976
2.5819 2.85364 -3.43904
-8.28366 4.55649 -1.03467
-4.74856 7.95259 -5.17318
10.8195 -2.03523 5.12472
-0.682907 -2.66524 6.47065
5.81501 3.04146 -4.33763
-3.20799 2.34991 -0.399612
8.02332 0.6012 0.760691
-8.64919 4.793 -1.90299
-4.85906 6.42977 -4.8401
0.40325 4.2119 -3.26029
9.38683 -2.46225 5.37053
-13.3064 3.59127 -0.23682
-7.10134 -2.72675 8.92743
-7.16302 4.99601 1.0399
-4.47379 0.968537 2.55921
1.12433 6.71849 -7.79125
8.52019 -3.14173 5.3667
-3.82959 -6.16628 13.8925
-6.14594 2.75334 2.34376
-2.56087 0.607122 3.09052
-5.76793 1.81237 2.62823
3.31749 -0.831445 4.27102
-10.3998 3.6035 -1.04111
-1.78069 7.8657 -8.45234
-2.23421 -6.20462 11.9462
6.2325 2.63051 -4.90203
14.4085 -0.022184 1.94385
-1.05541 -0.133291 3.9927
-0.475792 -5.75946 12.8417
-6.55222 -1.13257 7.21678
0.479566 3.63727 -2.88478
3.63709 -0.535647 6.15189
2.35408 2.21091 2.16213
-7.40026 4.36812 -4.1906
11.9197 -2.97549 6.38743
12.4132 -3.20454 5.81139
3.83675 -0.971618 2.1851
11.2373 0.573048 -2.10003
8.53774 -0.899504 4.90566
1.08067 1.57137 -2.21182
-14.6097 6.18413 -2.25962
2.40649 -1.17068 5.4164
3.37191 8.41817 -11.3887
-0.361332 9.48273 -8.74508
-2.15642 -1.71386 7.76653
4.12363 -4.3697 8.73554
1.66484 1.90572 -3.14957
2.30631 -3.77187 8.5346
-6.82626 -3.16895 9.28654
2.18343 0.261597 3.86441
4.47053 8.78196 -11.354
9.92161 -0.713874 0.360605
2.83201 6.6022 -4.6277
-13.0446 3.15287 0.999297
-4.43785 4.59936 -3.4393
-0.267893 4.42485 -5.99049
-1.26024 1.25667 1.82568
-3.21674 0.305288 0.483382
2.07702 2.53321 -3.41206
-10.3943 7.46338 -2.1557
-0.641801 5.18892 -2.85006
3.82997 5.46472 -8.60902
-4.63257 2.29725 0.156696
-11.3146 2.8315 1.68724
9.4277 -0.0151707 1.62303
5.87198 -1.77588 3.72866
7.35974 2.09973 -4.56065
1.88304 -2.84625 8.23969
-0.203105 4.56102 -6.75093
-1.49611 2.11501 0.0081975
8.26011 2.78287 -6.10368
-5.30301 2.87552 0.932339
-4.83959 -3.29946 12.9627
2.65237 2.14278 -3.2266
3.2252 6.82494 -4.89832
4.65172 10.4997 -12.4548
-4.33471 0.659842 1.68181
4.24143 3.70606 -3.41444
-13.1092 6.17633 -2.80018
0.317775 -4.9893 12.4825
-3.2191 7.83652 -8.56771
3.64403 -0.132598 1.89957
-11.107 6.15484 -1.8571
12.0807 -3.18406 4.3371
4.1378 5.5149 -3.95452
0.359173 7.50899 -8.00902
4.93189 -1.59815 3.90778
-1.4306 5.20939 -0.961257
-2.24318 5.47433 -7.19349
2.37071 6.56863 -8.7865
-4.72631 -3.20673 7.80861
-4.57416 0.988364 2.44036
-3.1569 -1.05505 7.16746
7.61811 2.68561 -2.85494
1.86154 2.5307 2.83987
-8.18508 -0.12246 9.02485
-10.566 0.539452 5.40342
-1.67405 5.1505 -0.842249
2.45455 6.98932 -9.52446
1.95833 6.26318 -5.81704
5.59483 5.71963 -9.56468
-9.77671 3.59965 0.00414439
-1.78535 -1.44051 5.45363
6.24202 -1.70368 3.73744
-0.0588984 9.60291 -8.70004
-8.06399 -0.765086 9.30263
-6.98661 4.4758 2.14971
0.47883 -3.64435 10.9149
2.38189 1.657 -3.05396
-8.26987 -0.507455 3.58305
13.6162 -1.22742 2.05507
6.66109 6.99523 -10.2163
3.78339 6.12513 -7.15192
1.16616 5.76149 -6.61099
2.46924 6.3917 -7.32986
4.71475 2.5948 -0.646194
7.88372 1.56197 0.298222
6.85386 -1.40417 3.67845
-6.64349 -2.19525 7.70355
15.197 -1.36099 2.24149
1.27082 6.85789 -7.88391
5.65836 -1.97465 7.63164
-4.90603 -3.60133 8.13191
-5.47834 8.95448 -6.03455
6.64232 -3.18696 6.55253
11.9426 1.50521 -2.15877
-8.04316 -0.033489 8.4579
-3.17938 -2.02593 8.0151
-3.90691 4.5214 -1.5614
-3.86649 7.78319 -5.7469
15.1015 -2.80015 2.67409
-2.32342 -6.37737 12.0229
1.54434 2.0666 -3.16945
-5.05896 6.27577 -4.81901
13.9922 0.548499 1.50474
-3.40454 3.88574 -0.723667
12.2501 -3.18895 3.71441
8.35737 2.2773 -4.99823
10.4787 -0.953006 0.169944
-6.54165 1.55204 3.03526
0.765406 7.49366 -8.02827
11.9569 -3.09526 4.62716
6.84966 -4.14095 7.02872
-0.241508 8.56442 -8.23588
-4.64058 0.857771 6.80843
-9.08605 0.682014 7.86255
-8.79059 7.08946 -4.32218
13.8782 -3.73695 2.67892
0.537665 4.47936 -3.79074
-1.24495 8.80641 -8.86374
0.502901 -2.26452 8.61844
-12.3723 3.19028 -1.22345
-3.74896 5.13102 -3.09827
3.17167 0.536332 2.38476
8.81228 -4.63687 5.89044
3.46898 8.19371 -11.2801
6.82095 2.9946 -2.75767
-1.39358 4.57088 -0.726054
-1.26106 4.25815 -6.26557
7.82958 3.02191 -1.27553
-5.5548 1.30587 5.14783
-6.41523 0.439647 5.37177
-2.01981 -6.4695 12.1292
-1.92617 -2.5165 11.2038
12.4356 -3.06362 3.18074
-7.13929 3.5435 -3.52326
-5.9039 7.37153 -5.09084
8.78457 2.02016 -1.79431
-7.56253 4.50614 2.14925
-4.60022 6.21732 -4.79965
-4.71717 4.08529 -2.5139
15.3701 -1.25615 2.22458
-7.2546 4.48789 2.1924
1.51109 4.10289 -3.70204
12.705 -3.69481 3.37007
-1.78619 1.23119 0.531614
